ply
format ascii 1.0
element vertex 1592
property float32 x
property float32 y
property float32 z
property float32 I
end_header
-32.3213 -3.4106 0.6520 0.8781
-32.3204 -3.6127 0.6524 0.8780
-32.2133 -4.0047 0.6512 0.8782
-32.2116 -4.4097 0.6522 0.8780
-32.2099 -4.8161 0.6533 0.8778
-14.1455 -2.3841 0.2878 0.9442
-13.1441 -2.4670 0.2683 0.9479
-11.9747 -2.3243 0.2447 0.9524
-11.8395 -2.3741 0.2422 0.9528
-11.4631 -2.3724 0.2348 0.9542
-10.7753 -2.3694 0.2213 0.9568
-10.4602 -2.3680 0.2151 0.9580
-9.9355 -2.3139 0.2046 0.9600
-9.8593 -2.4251 0.2037 0.9602
-8.2668 -2.3067 0.1722 0.9662
-7.2141 -2.3539 0.1522 0.9701
-6.8184 -2.4129 0.1451 0.9715
-6.6180 -2.4345 0.1415 0.9722
-6.6671 -2.5466 0.1432 0.9719
-6.6243 -2.5774 0.1426 0.9720
-6.4981 -2.6681 0.1409 0.9723
-6.4566 -2.6979 0.1404 0.9724
-6.1738 -2.8531 0.1364 0.9732
-6.0120 -2.8691 0.1336 0.9737
-5.9613 -2.9360 0.1333 0.9738
-5.9387 -3.0630 0.1340 0.9736
-5.8818 -3.1732 0.1341 0.9736
-5.8439 -3.2467 0.1341 0.9736
-5.8250 -3.2834 0.1341 0.9736
-5.8060 -3.3202 0.1342 0.9736
-5.7174 -3.4119 0.1336 0.9737
-5.8040 -3.6112 0.1371 0.9730
-5.8038 -3.6611 0.1377 0.9729
-5.8030 -3.8129 0.1393 0.9726
-5.8025 -3.9162 0.1404 0.9724
-5.7412 -4.1930 0.1426 0.9720
-5.7066 -4.2221 0.1424 0.9720
-5.7163 -4.2841 0.1433 0.9718
-5.8362 -4.4307 0.1470 0.9711
-5.8835 -4.5242 0.1489 0.9707
-5.9321 -4.6202 0.1508 0.9704
-7.1750 -5.8053 0.1851 0.9637
-7.1747 -5.8788 0.1861 0.9636
-7.1744 -5.9531 0.1870 0.9634
-7.1741 -6.0282 0.1880 0.9632
-7.1738 -6.1040 0.1890 0.9630
-7.1736 -6.1807 0.1900 0.9628
-7.1352 -6.3031 0.1910 0.9626
-7.2284 -6.6282 0.1967 0.9615
-7.2176 -6.8691 0.1999 0.9609
-7.2265 -7.1376 0.2038 0.9602
-7.2262 -7.2262 0.2050 0.9599
-7.2259 -7.3158 0.2063 0.9597
-7.1261 -7.3955 0.2060 0.9597
-7.1307 -7.4925 0.2075 0.9595
-7.1679 -7.7205 0.2113 0.9587
-7.1320 -7.9736 0.2146 0.9581
-7.2223 -8.2784 0.2204 0.9570
-7.2208 -8.7021 0.2268 0.9558
-7.2204 -8.8120 0.2285 0.9554
-7.1268 -9.2680 0.2345 0.9543
-7.1604 -9.8043 0.2435 0.9526
-7.1599 -9.9320 0.2456 0.9522
-6.9018 -10.2263 0.2475 0.9518
-6.8187 -10.2390 0.2468 0.9520
-6.7360 -10.2517 0.2461 0.9521
-6.6352 -10.2358 0.2447 0.9524
-6.6367 -10.3782 0.2471 0.9519
-6.5748 -10.4227 0.2472 0.9519
-6.5127 -10.4673 0.2473 0.9519
-6.4507 -10.5120 0.2474 0.9519
-6.3847 -10.5502 0.2476 0.9519
-6.2641 -10.6461 0.2478 0.9518
-6.1394 -10.7357 0.2481 0.9517
-5.9583 -10.7246 0.2461 0.9521
-5.8939 -10.9249 0.2490 0.9515
-5.8512 -11.0080 0.2501 0.9513
-5.8080 -11.0918 0.2512 0.9511
-5.7645 -11.1763 0.2523 0.9509
-5.8017 -11.5983 0.2601 0.9494
-5.8010 -11.7786 0.2634 0.9488
-5.8004 -11.9634 0.2667 0.9482
-5.7363 -12.0201 0.2672 0.9481
-5.6874 -12.1096 0.2684 0.9479
-6.0831 -13.6024 0.2989 0.9421
-5.8654 -13.7968 0.3007 0.9418
-5.6791 -14.0787 0.3045 0.9411
-5.7912 -14.6163 0.3154 0.9390
-5.7770 -14.8479 0.3196 0.9382
-5.6774 -14.8632 0.3192 0.9383
-7.1968 -19.5636 0.4182 0.9200
-7.1395 -19.7846 0.4219 0.9193
-2.7545 -7.7834 0.1656 0.9675
-2.6758 -7.7126 0.1638 0.9679
-2.5694 -7.7124 0.1631 0.9680
-2.5252 -7.7392 0.1633 0.9680
-6.4536 -21.0982 0.4426 0.9155
-3.0898 -10.5668 0.2208 0.9569
-6.1016 -21.3564 0.4456 0.9150
-5.9584 -21.3542 0.4447 0.9151
-5.6671 -21.8696 0.4532 0.9136
-5.8584 -25.1546 0.5181 0.9018
-1.8228 -8.8073 0.1804 0.9647
-1.7827 -9.1845 0.1877 0.9633
-1.7767 -10.9542 0.2226 0.9566
-1.7452 -12.1866 0.2470 0.9519
-8.3002 -60.6297 1.2276 0.7828
-7.1754 -60.7858 1.2278 0.7828
-6.7944 -60.7842 1.2269 0.7829
-5.2613 -60.6165 1.2205 0.7839
-4.8497 -60.1934 1.2114 0.7854
-4.4751 -60.1917 1.2108 0.7855
-4.1009 -60.1901 1.2102 0.7856
-3.7630 -60.7709 1.2214 0.7838
-3.0009 -60.6066 1.2173 0.7845
-0.2337 -5.3934 0.1083 0.9786
-0.2002 -5.3922 0.1082 0.9786
-0.1668 -5.3910 0.1082 0.9787
-0.1334 -5.3897 0.1082 0.9787
-0.1000 -5.3885 0.1081 0.9787
-0.0000 -5.3849 0.1080 0.9787
0.0333 -5.3837 0.1080 0.9787
0.0998 -5.3812 0.1080 0.9787
0.1996 -5.3776 0.1080 0.9787
0.2662 -5.3752 0.1080 0.9787
0.3327 -5.3728 0.1080 0.9787
0.3660 -5.3716 0.1080 0.9787
0.4993 -5.3668 0.1081 0.9787
0.5326 -5.3656 0.1082 0.9787
0.6329 -5.3620 0.1083 0.9786
0.6664 -5.3608 0.1084 0.9786
0.7000 -5.3596 0.1084 0.9786
0.7672 -5.3572 0.1086 0.9786
0.8008 -5.3560 0.1086 0.9786
0.9021 -5.3524 0.1089 0.9785
0.9360 -5.3512 0.1090 0.9785
1.0039 -5.3488 0.1092 0.9785
1.0379 -5.3476 0.1093 0.9784
1.0720 -5.3464 0.1094 0.9784
1.1405 -5.3440 0.1096 0.9784
1.2783 -5.3391 0.1101 0.9783
1.4175 -5.3342 0.1107 0.9782
1.5229 -5.3306 0.1112 0.9781
1.8455 -5.3194 0.1129 0.9777
1.9186 -5.3169 0.1134 0.9776
1.9923 -5.3143 0.1139 0.9775
2.0666 -5.3117 0.1143 0.9775
2.1041 -5.3104 0.1146 0.9774
2.1416 -5.3092 0.1148 0.9774
2.2173 -5.3066 0.1154 0.9773
2.2554 -5.3053 0.1156 0.9772
2.2936 -5.3040 0.1159 0.9771
2.3321 -5.3026 0.1162 0.9771
2.3708 -5.3013 0.1165 0.9770
2.5274 -5.2960 0.1177 0.9768
2.5671 -5.2946 0.1180 0.9767
2.6070 -5.2933 0.1184 0.9767
2.6471 -5.2919 0.1187 0.9766
2.6874 -5.2906 0.1190 0.9765
2.7280 -5.2892 0.1194 0.9765
23.8240 -43.5140 0.9952 0.8200
24.1741 -43.5125 0.9985 0.8194
25.5489 -43.4212 1.0106 0.8175
25.9108 -43.4196 1.0143 0.8169
27.0693 -43.5058 1.0279 0.8146
27.4429 -43.5042 1.0318 0.8140
27.8194 -43.5025 1.0359 0.8134
28.1989 -43.5009 1.0399 0.8127
30.5179 -43.4568 1.0652 0.8086
29.6847 -40.1224 1.0012 0.8190
29.6567 -39.5704 0.9920 0.8205
29.8180 -38.2845 0.9734 0.8235
29.8146 -37.3187 0.9582 0.8260
29.8129 -36.8469 0.9508 0.8273
29.8096 -35.9249 0.9364 0.8296
29.8079 -35.4742 0.9295 0.8308
29.6397 -34.8343 0.9175 0.8328
29.7216 -34.4960 0.9134 0.8335
29.6366 -33.9702 0.9043 0.8350
29.7855 -33.7177 0.9025 0.8353
29.7986 -32.9033 0.8905 0.8373
29.7971 -32.4954 0.8844 0.8383
29.7957 -32.0931 0.8785 0.8393
29.7914 -30.9179 0.8613 0.8422
29.7886 -30.1594 0.8504 0.8440
29.7872 -29.7873 0.8450 0.8449
29.6180 -28.8943 0.8300 0.8474
29.4510 -27.6837 0.8108 0.8507
29.4497 -27.3414 0.8061 0.8515
29.4484 -27.0031 0.8015 0.8523
29.4472 -26.6687 0.7970 0.8530
29.6519 -26.1939 0.7937 0.8536
33.6271 -28.6126 0.8857 0.8381
34.4779 -28.6088 0.8987 0.8359
34.9127 -28.6069 0.9054 0.8348
51.2375 -40.9345 1.3156 0.7692
29.3872 -22.8883 0.7472 0.8615
29.4864 -22.6741 0.7462 0.8617
29.5855 -22.4605 0.7451 0.8619
29.6844 -22.2475 0.7442 0.8621
29.7830 -22.0351 0.7432 0.8622
29.8815 -21.8233 0.7423 0.8624
28.9141 -20.8439 0.7150 0.8671
51.2178 -35.9680 1.2555 0.7785
30.3573 -20.7628 0.7378 0.8632
26.0309 -17.1037 0.6248 0.8828
26.1523 -16.9529 0.6252 0.8828
30.4017 -19.4415 0.7239 0.8656
28.8727 -17.7178 0.6796 0.8733
30.2904 -18.3309 0.7102 0.8679
30.3471 -18.1097 0.7089 0.8682
30.3461 -17.8556 0.7063 0.8686
30.3451 -17.6032 0.7037 0.8691
30.3422 -16.8571 0.6963 0.8703
30.3087 -16.5940 0.6932 0.8709
30.3541 -16.1342 0.6896 0.8715
28.8616 -14.8861 0.6515 0.8782
30.4983 -14.7869 0.6799 0.8732
30.3320 -14.2456 0.6722 0.8745
30.3310 -14.0169 0.6703 0.8749
30.3292 -13.5634 0.6665 0.8755
30.3419 -12.8991 0.6614 0.8764
30.3239 -12.2323 0.6559 0.8774
28.9098 -11.4544 0.6238 0.8830
30.3205 -11.3672 0.6496 0.8785
30.3196 -11.1535 0.6481 0.8788
30.3632 -9.6998 0.6394 0.8803
30.3623 -9.4930 0.6381 0.8805
30.3111 -9.0670 0.6347 0.8811
30.3102 -8.8629 0.6335 0.8813
30.3094 -8.6596 0.6323 0.8815
30.3086 -8.4569 0.6312 0.8817
31.0557 -8.2528 0.6446 0.8794
31.6493 -8.2013 0.6559 0.8774
32.6512 -8.2458 0.6756 0.8739
21.5592 -5.1618 0.4447 0.9151
21.5472 -4.8780 0.4432 0.9154
21.5259 -4.3164 0.4404 0.9159
21.5142 -3.7631 0.4381 0.9163
21.5107 -3.6255 0.4376 0.9164
21.5084 -3.4885 0.4371 0.9165
21.5018 -3.0791 0.4357 0.9168
21.4992 -2.9432 0.4353 0.9168
21.4921 -2.4024 0.4338 0.9171
21.4895 -2.2676 0.4335 0.9172
21.4875 -2.1331 0.4332 0.9172
21.4943 -1.9996 0.4330 0.9173
21.5877 -1.7393 0.4345 0.9170
21.8757 -1.6264 0.4400 0.9160
28.8085 -1.9628 0.5792 0.8909
28.8121 -1.7841 0.5791 0.8909
28.8106 -1.4265 0.5787 0.8910
28.8090 -1.0695 0.5783 0.8911
28.8082 -0.8911 0.5782 0.8911
28.8059 -0.3563 0.5779 0.8911
28.8028 0.3563 0.5778 0.8911
28.8020 0.5344 0.5779 0.8911
28.8012 0.7126 0.5779 0.8911
28.7944 1.2473 0.5782 0.8911
30.2643 1.8740 0.6083 0.8858
30.2626 2.2500 0.6088 0.8857
30.2779 2.6280 0.6097 0.8855
21.7299 2.2929 0.4383 0.9163
20.8876 2.7280 0.4226 0.9192
20.8824 2.8588 0.4228 0.9191
20.8923 3.1239 0.4238 0.9190
30.2506 4.9064 0.6148 0.8846
30.2489 5.2909 0.6160 0.8844
30.2532 5.4846 0.6168 0.8843
30.2634 5.6800 0.6177 0.8841
30.2616 6.0681 0.6191 0.8838
30.2444 6.2594 0.6196 0.8838
30.2417 6.8463 0.6220 0.8833
30.2399 7.2402 0.6238 0.8830
30.2390 7.4380 0.6247 0.8829
30.2381 7.6364 0.6256 0.8827
30.1788 8.0198 0.6264 0.8826
30.2353 8.2353 0.6286 0.8822
30.2343 8.4362 0.6297 0.8820
30.2334 8.6378 0.6308 0.8818
30.1765 8.8238 0.6307 0.8818
30.2809 9.0580 0.6340 0.8812
30.2790 9.4670 0.6364 0.8808
30.1896 9.6444 0.6357 0.8809
30.2276 9.8629 0.6378 0.8805
30.2266 10.0698 0.6391 0.8803
30.2257 10.2776 0.6404 0.8801
30.2247 10.4862 0.6418 0.8799
50.9022 18.0137 1.0832 0.8057
48.3432 17.4452 1.0310 0.8141
47.6797 17.8753 1.0215 0.8157
47.6782 18.2118 1.0238 0.8153
47.6749 18.8895 1.0287 0.8145
50.9691 21.6681 1.1110 0.8013
50.8719 23.1288 1.1210 0.7997
50.8737 23.5103 1.1242 0.7991
50.9514 23.9298 1.1292 0.7983
50.9474 24.7016 1.1358 0.7973
30.0344 14.7921 0.6716 0.8746
29.7185 15.3280 0.6708 0.8748
29.6135 15.5065 0.6706 0.8748
50.9353 28.7117 1.1729 0.7914
29.1210 17.1348 0.6778 0.8736
28.8239 17.6879 0.6784 0.8735
28.8454 18.4463 0.6868 0.8720
28.8528 18.7035 0.6898 0.8715
30.1767 20.3665 0.7303 0.8645
30.1753 20.6384 0.7334 0.8639
30.2177 22.0688 0.7506 0.8610
30.1655 22.6081 0.7562 0.8600
30.1640 22.8997 0.7597 0.8594
30.1611 23.4911 0.7669 0.8582
30.1595 23.7910 0.7706 0.8575
30.1580 24.0938 0.7743 0.8569
30.1565 24.3996 0.7782 0.8562
28.7098 23.5244 0.7445 0.8620
30.1501 25.6541 0.7941 0.8535
30.1485 25.9758 0.7983 0.8528
30.1469 26.3010 0.8026 0.8521
30.1435 26.9619 0.8113 0.8506
25.1077 22.7387 0.6795 0.8733
28.6705 26.9501 0.7893 0.8543
30.1076 28.6538 0.8338 0.8468
30.1329 29.0351 0.8394 0.8458
30.1235 30.8781 0.8654 0.8415
28.6595 29.7433 0.8286 0.8477
30.1155 32.4376 0.8879 0.8377
23.5182 26.2935 0.7077 0.8684
28.7150 32.9139 0.8762 0.8397
30.0279 35.7359 0.9364 0.8297
29.6514 35.7342 0.9315 0.8305
28.1834 35.7277 0.9129 0.8336
27.8254 35.7261 0.9084 0.8343
27.4709 35.7245 0.9040 0.8350
27.1198 35.7229 0.8997 0.8357
26.7721 35.7214 0.8955 0.8364
26.4275 35.7198 0.8913 0.8371
26.0861 35.7183 0.8873 0.8378
25.4126 35.7153 0.8793 0.8391
25.0803 35.7138 0.8754 0.8398
24.7510 35.7123 0.8716 0.8404
24.4568 36.7250 0.8851 0.8382
24.4405 37.1970 0.8928 0.8369
24.4238 37.6774 0.9007 0.8356
24.4070 38.1663 0.9088 0.8342
24.3897 38.6641 0.9170 0.8329
24.3722 39.1711 0.9255 0.8315
24.3543 39.6874 0.9341 0.8300
24.3360 40.2135 0.9429 0.8286
24.3175 40.7496 0.9519 0.8271
24.2986 41.2962 0.9612 0.8256
24.2873 41.8673 0.9710 0.8239
24.2683 42.4371 0.9807 0.8224
24.1671 45.4668 1.0329 0.8138
24.1455 46.1121 1.0442 0.8120
24.1054 47.4546 1.0677 0.8082
24.0579 48.8481 1.0923 0.8042
24.0333 49.5692 1.1051 0.8022
23.9270 52.6275 1.1597 0.7935
23.9006 53.4442 1.1744 0.7912
23.8735 54.2820 1.1896 0.7888
23.8457 55.1416 1.2051 0.7863
23.1476 54.4492 1.1869 0.7892
-5.1885 69.7869 1.4038 0.7558
-4.5755 56.7893 1.1429 0.7962
-4.9316 56.8184 1.1441 0.7960
-5.2868 56.8283 1.1449 0.7959
-5.6420 56.8337 1.1457 0.7957
-5.9978 56.8393 1.1465 0.7956
-7.8572 57.3941 1.1621 0.7931
-8.2189 57.3925 1.1630 0.7930
-8.5812 57.3909 1.1641 0.7928
-8.9441 57.3893 1.1651 0.7926
-9.3078 57.3877 1.1662 0.7925
-9.0576 53.7403 1.0932 0.8041
-10.0372 57.3845 1.1686 0.7921
-10.4031 57.3830 1.1699 0.7919
-12.2449 57.3749 1.1769 0.7908
-12.6160 57.3733 1.1784 0.7906
-3.1803 12.9293 0.2671 0.9481
-3.3413 12.8940 0.2672 0.9481
-6.0538 21.6959 0.4518 0.9138
-6.1462 21.5124 0.4488 0.9144
-6.2262 21.2930 0.4450 0.9151
-6.3684 21.2896 0.4458 0.9149
-6.4854 21.2022 0.4448 0.9151
-6.8472 20.9850 0.4428 0.9155
-7.0777 20.8148 0.4410 0.9158
-7.2139 20.7927 0.4415 0.9157
-7.4017 20.1206 0.4301 0.9178
-7.4572 19.1664 0.4126 0.9210
-5.9604 14.7760 0.3196 0.9382
-6.0184 14.4037 0.3132 0.9395
-5.9361 13.9631 0.3044 0.9411
-6.0032 13.8820 0.3034 0.9413
-6.1118 13.6665 0.3003 0.9419
-6.1406 13.5062 0.2976 0.9424
-6.3386 13.4961 0.2991 0.9421
-6.4898 13.3854 0.2984 0.9422
-6.6404 13.2751 0.2978 0.9423
-5.9945 11.6223 0.2623 0.9490
-6.0032 11.4647 0.2596 0.9495
-5.9842 11.2584 0.2558 0.9503
-5.9231 10.8183 0.2474 0.9519
-6.0583 10.5940 0.2448 0.9523
-6.0989 10.5135 0.2438 0.9525
-6.1392 10.4337 0.2428 0.9527
-6.1607 10.3237 0.2412 0.9530
-6.2677 10.3569 0.2428 0.9527
-6.3425 10.3356 0.2433 0.9526
-6.5244 10.2025 0.2429 0.9527
-6.7662 10.0254 0.2426 0.9528
-6.8266 9.9811 0.2426 0.9528
-6.8203 9.8407 0.2402 0.9532
-7.0849 9.8280 0.2430 0.9527
-7.1678 9.8145 0.2438 0.9525
-7.3353 9.7873 0.2454 0.9522
-7.3462 9.6766 0.2437 0.9526
-7.3456 9.5525 0.2417 0.9529
-7.3443 9.3103 0.2379 0.9537
-7.3437 9.1920 0.2360 0.9540
-7.3028 8.8009 0.2294 0.9553
-7.3252 8.7176 0.2285 0.9555
-7.3976 8.6940 0.2290 0.9554
-7.3965 8.4780 0.2257 0.9560
-7.3954 8.2680 0.2225 0.9566
-7.3943 8.0639 0.2195 0.9572
-7.2960 7.6662 0.2123 0.9585
-7.3002 7.5762 0.2111 0.9588
-7.3341 7.3341 0.2081 0.9594
-7.2963 7.1180 0.2045 0.9600
-7.3886 6.9452 0.2034 0.9602
-7.3881 6.8592 0.2022 0.9605
-7.3877 6.7742 0.2011 0.9607
-7.3242 6.4700 0.1960 0.9617
-7.3856 6.3634 0.1956 0.9617
-7.2858 5.9698 0.1889 0.9630
-7.2891 5.8976 0.1881 0.9632
-7.3181 5.8466 0.1880 0.9632
-7.3262 5.7791 0.1872 0.9634
-7.3251 5.5609 0.1845 0.9639
-7.3244 5.4189 0.1828 0.9642
-6.0532 4.1952 0.1477 0.9710
-6.0091 4.1099 0.1460 0.9713
-5.9660 4.0265 0.1444 0.9716
-5.9341 3.7948 0.1413 0.9722
-5.9362 3.7446 0.1408 0.9723
-5.9354 3.5419 0.1387 0.9727
-5.9352 3.4922 0.1381 0.9728
-5.9348 3.3939 0.1371 0.9730
-5.9346 3.3453 0.1367 0.9731
-5.9340 3.2014 0.1353 0.9734
-5.9338 3.1540 0.1348 0.9735
-5.8470 3.0157 0.1320 0.9740
-5.9370 2.9240 0.1328 0.9739
-6.0662 2.6679 0.1329 0.9738
-6.0847 2.6313 0.1330 0.9738
-6.1033 2.5946 0.1330 0.9738
-6.1065 2.5073 0.1324 0.9739
-6.1377 2.4759 0.1328 0.9739
-6.3094 2.4999 0.1361 0.9732
-6.3496 2.4705 0.1367 0.9731
-6.4721 2.3809 0.1383 0.9728
-6.6402 2.2579 0.1407 0.9723
-6.6831 2.2265 0.1413 0.9722
-6.7518 2.0652 0.1416 0.9721
-6.8145 1.9926 0.1424 0.9720
-7.0106 2.0030 0.1463 0.9713
-7.1167 1.9858 0.1482 0.9709
-7.2256 1.9680 0.1502 0.9705
-7.3462 1.9522 0.1525 0.9700
-7.5305 1.9514 0.1561 0.9694
-7.7236 1.9505 0.1598 0.9686
-7.9263 1.9496 0.1637 0.9679
-8.1392 1.9487 0.1679 0.9671
-8.3097 1.9353 0.1712 0.9664
-9.8871 2.0462 0.2025 0.9604
-10.6878 1.9376 0.2179 0.9575
-11.4757 1.9342 0.2334 0.9545
-12.0934 1.8847 0.2455 0.9522
-14.7014 1.9201 0.2974 0.9424
-32.3541 4.0222 0.6540 0.8777
-32.3532 3.8191 0.6535 0.8778
-32.3140 3.6120 0.6523 0.8780
-32.3504 3.2115 0.6521 0.8780
-32.2432 2.7986 0.6492 0.8785
-32.2423 2.5977 0.6489 0.8786
-32.2414 2.3970 0.6485 0.8787
-32.2396 1.9963 0.6480 0.8788
-32.2369 1.3964 0.6473 0.8789
-32.2360 1.1967 0.6471 0.8789
-36.9235 1.1421 0.7410 0.8626
-32.2167 -0.3985 0.4070 0.8791
-32.2158 -0.5978 0.4071 0.8791
-32.2150 -0.7971 0.4071 0.8791
-32.2141 -0.9964 0.4072 0.8790
-32.2123 -1.3953 0.4073 0.8790
-32.2106 -1.7946 0.4076 0.8789
-32.3133 -2.4024 0.4094 0.8784
-32.3080 -3.6113 0.4107 0.8781
-32.1500 -3.7951 0.4090 0.8785
-32.2010 -4.0032 0.4099 0.8783
-32.1992 -4.4080 0.4106 0.8781
-32.1966 -5.0178 0.4117 0.8778
-14.1458 -2.3842 0.1812 0.9442
-13.6381 -2.3854 0.1749 0.9461
-13.6378 -2.4724 0.1751 0.9461
-13.1390 -2.4660 0.1689 0.9479
-11.9701 -2.3234 0.1540 0.9524
-11.8397 -2.3741 0.1526 0.9528
-11.4633 -2.3725 0.1479 0.9543
-11.1092 -2.3709 0.1435 0.9556
-9.9357 -2.3140 0.1289 0.9600
-9.7816 -2.4703 0.1275 0.9604
-9.3567 -2.4246 0.1221 0.9621
-9.0578 -2.4671 0.1186 0.9631
-8.2669 -2.3067 0.1084 0.9662
-8.0627 -2.3576 0.1061 0.9670
-7.8788 -2.3568 0.1039 0.9676
-7.7024 -2.3560 0.1018 0.9683
-7.5331 -2.3553 0.0997 0.9689
-7.3705 -2.3546 0.0978 0.9695
-7.2142 -2.3539 0.0959 0.9701
-6.9121 -2.3981 0.0924 0.9712
-6.6631 -2.4044 0.0895 0.9721
-6.6146 -2.4333 0.0890 0.9722
-6.6437 -2.4907 0.0896 0.9720
-6.6159 -2.5271 0.0895 0.9721
-6.4098 -2.6783 0.0878 0.9726
-6.3695 -2.7078 0.0874 0.9727
-6.3294 -2.7371 0.0871 0.9728
-6.2525 -2.8427 0.0868 0.9729
-6.1735 -2.8994 0.0862 0.9731
-5.9564 -2.9335 0.0839 0.9738
-5.9556 -3.0253 0.0844 0.9736
-5.9366 -3.0619 0.0844 0.9736
-5.9177 -3.0987 0.0844 0.9736
-5.8988 -3.1354 0.0844 0.9736
-5.8419 -3.2456 0.0844 0.9736
-5.8230 -3.2823 0.0844 0.9736
-5.7851 -3.3559 0.0845 0.9736
-5.7080 -3.4543 0.0843 0.9737
-5.8279 -3.6261 0.0867 0.9729
-5.8276 -3.6761 0.0870 0.9728
-5.8272 -3.7774 0.0877 0.9726
-5.8094 -3.8171 0.0878 0.9726
-5.8005 -3.8628 0.0880 0.9725
-5.8266 -3.9324 0.0888 0.9723
-5.8262 -4.0379 0.0896 0.9720
-5.7408 -4.1926 0.0898 0.9720
-5.7036 -4.2198 0.0896 0.9720
-5.7132 -4.2818 0.0902 0.9718
-5.8317 -4.4273 0.0925 0.9711
-5.9771 -4.7149 0.0962 0.9700
-5.9480 -4.7520 0.0962 0.9700
-7.1712 -5.8760 0.1171 0.9636
-7.1709 -5.9502 0.1177 0.9634
-7.1705 -6.0252 0.1183 0.9632
-7.1700 -6.1776 0.1196 0.9628
-7.1318 -6.3001 0.1202 0.9626
-7.2250 -6.5432 0.1231 0.9618
-7.2243 -6.7071 0.1245 0.9613
-7.2233 -6.9601 0.1267 0.9607
-7.2227 -7.1338 0.1283 0.9602
-7.2223 -7.2223 0.1290 0.9600
-7.2220 -7.3118 0.1298 0.9597
-7.2115 -7.3921 0.1305 0.9595
-7.1639 -7.7162 0.1330 0.9588
-7.1635 -7.8122 0.1339 0.9585
-7.1230 -8.0633 0.1359 0.9579
-7.2182 -8.2736 0.1387 0.9570
-7.2169 -8.5888 0.1417 0.9561
-7.2251 -8.7073 0.1430 0.9557
-7.2152 -9.0312 0.1460 0.9548
-7.1935 -9.1191 0.1467 0.9546
-7.1161 -9.1365 0.1463 0.9547
-7.1220 -9.2618 0.1476 0.9543
-7.1562 -9.6725 0.1520 0.9530
-7.1557 -9.7980 0.1533 0.9526
-7.1548 -10.0554 0.1559 0.9518
-7.1538 -10.1869 0.1573 0.9514
-6.9851 -10.2128 0.1563 0.9517
-6.7356 -10.2511 0.1550 0.9521
-6.6341 -10.2340 0.1541 0.9524
-6.3250 -10.5989 0.1559 0.9518
-6.2627 -10.6437 0.1560 0.9518
-6.2004 -10.6885 0.1561 0.9518
-6.1380 -10.7334 0.1562 0.9517
-6.0442 -10.7225 0.1555 0.9520
-5.9566 -10.7216 0.1550 0.9521
-5.8487 -11.0035 0.1574 0.9514
-5.8056 -11.0872 0.1581 0.9512
-5.7621 -11.1717 0.1588 0.9510
-5.7954 -11.9530 0.1678 0.9482
-5.6798 -12.0935 0.1688 0.9480
-6.2348 -13.4915 0.1878 0.9423
-6.0825 -13.6010 0.1882 0.9421
-5.7513 -14.0072 0.1913 0.9412
-5.7853 -14.6014 0.1984 0.9391
-5.6770 -14.8623 0.2010 0.9383
-2.6759 -7.7129 0.1031 0.9679
-2.6192 -7.7027 0.1028 0.9680
-2.5691 -7.7117 0.1027 0.9680
-3.0743 -10.5136 0.1384 0.9571
-3.0724 -11.0110 0.1444 0.9553
-3.0703 -11.5538 0.1510 0.9533
-3.0681 -12.1487 0.1583 0.9511
-15.4229 -62.7013 0.8158 0.7724
-1.8897 -8.8543 0.1144 0.9644
-1.8325 -8.8540 0.1142 0.9645
-1.7754 -8.8538 0.1141 0.9645
-1.7185 -8.8535 0.1139 0.9646
-1.6183 -8.9267 0.1146 0.9644
-1.7487 -9.9978 0.1282 0.9602
-1.7473 -10.3673 0.1328 0.9588
-8.6827 -60.6316 0.7738 0.7827
-8.3002 -60.6299 0.7731 0.7829
-7.9183 -60.6283 0.7725 0.7830
-7.5371 -60.6266 0.7718 0.7832
-5.9760 -60.1985 0.7643 0.7851
-4.8498 -60.1936 0.7629 0.7854
-4.4751 -60.1919 0.7625 0.7855
-4.1009 -60.1903 0.7622 0.7856
-3.7523 -60.5975 0.7670 0.7844
-3.0003 -60.5942 0.7665 0.7845
-0.2331 -5.3821 0.0681 0.9787
-0.1998 -5.3809 0.0680 0.9787
-0.0998 -5.3772 0.0679 0.9787
-0.0000 -5.3736 0.0679 0.9787
0.0996 -5.3700 0.0679 0.9787
0.1328 -5.3688 0.0678 0.9787
0.2324 -5.3652 0.0678 0.9787
0.2656 -5.3640 0.0678 0.9787
0.3652 -5.3604 0.0679 0.9787
0.4649 -5.3568 0.0679 0.9787
0.4982 -5.3556 0.0680 0.9787
0.5315 -5.3544 0.0680 0.9787
0.5649 -5.3532 0.0680 0.9787
0.6316 -5.3508 0.0681 0.9787
0.8328 -5.3436 0.0683 0.9786
0.9340 -5.3399 0.0685 0.9785
0.9679 -5.3387 0.0685 0.9785
1.0018 -5.3375 0.0686 0.9785
1.0698 -5.3351 0.0687 0.9785
1.1039 -5.3339 0.0688 0.9784
1.1381 -5.3326 0.0689 0.9784
1.1723 -5.3314 0.0690 0.9784
1.2067 -5.3302 0.0690 0.9784
1.2411 -5.3290 0.0691 0.9783
1.3796 -5.3241 0.0695 0.9782
1.5550 -5.3179 0.0700 0.9781
1.6258 -5.3154 0.0702 0.9780
1.6972 -5.3128 0.0705 0.9779
1.7691 -5.3103 0.0707 0.9779
1.8052 -5.3090 0.0708 0.9778
1.9511 -5.3039 0.0714 0.9776
1.9879 -5.3026 0.0715 0.9776
2.0249 -5.3013 0.0717 0.9776
2.0621 -5.3000 0.0718 0.9775
2.1369 -5.2974 0.0722 0.9774
2.1745 -5.2960 0.0723 0.9774
2.2503 -5.2934 0.0727 0.9773
2.3654 -5.2894 0.0732 0.9771
2.4431 -5.2866 0.0736 0.9770
2.4822 -5.2853 0.0738 0.9769
2.5216 -5.2839 0.0740 0.9769
2.6812 -5.2784 0.0748 0.9766
2.8034 -5.2741 0.0755 0.9764
23.8241 -43.5142 0.6267 0.8200
24.1742 -43.5127 0.6289 0.8194
24.5267 -43.5111 0.6310 0.8189
25.2391 -43.5080 0.6355 0.8177
25.5491 -43.4214 0.6365 0.8175
26.6986 -43.5076 0.6449 0.8153
27.0694 -43.5060 0.6473 0.8147
27.4430 -43.5044 0.6498 0.8140
27.8195 -43.5028 0.6524 0.8134
28.5815 -43.4994 0.6576 0.8120
29.3559 -43.4960 0.6630 0.8107
29.7479 -43.4943 0.6657 0.8099
30.1432 -43.4926 0.6685 0.8092
30.8736 -43.3903 0.6728 0.8081
32.1614 -43.4699 0.6831 0.8055
29.6756 -39.5956 0.6251 0.8204
29.8386 -38.8035 0.6184 0.8222
29.8366 -38.3083 0.6134 0.8235
29.8328 -37.3415 0.6038 0.8260
29.8274 -35.9464 0.5901 0.8296
29.8256 -35.4953 0.5857 0.8307
29.6572 -34.8548 0.5782 0.8327
29.6538 -33.9900 0.5699 0.8349
29.7856 -33.7178 0.5684 0.8353
29.8172 -33.3358 0.5650 0.8362
29.8156 -32.9220 0.5611 0.8372
29.8124 -32.1112 0.5536 0.8392
29.8108 -31.7139 0.5499 0.8402
29.8093 -31.3218 0.5463 0.8412
29.8078 -30.9349 0.5427 0.8421
29.8048 -30.1758 0.5358 0.8439
29.6353 -29.2710 0.5262 0.8465
29.7469 -28.6630 0.5219 0.8477
29.4664 -27.6982 0.5109 0.8506
29.4637 -27.0171 0.5050 0.8522
29.4623 -26.6824 0.5022 0.8530
29.4611 -26.3514 0.4994 0.8537
29.6540 -26.1957 0.4999 0.8536
30.4002 -26.1926 0.5070 0.8517
34.9128 -28.6071 0.5702 0.8348
35.3543 -28.6051 0.5745 0.8337
51.2626 -40.9546 0.8289 0.7691
29.0704 -22.9318 0.4678 0.8623
29.1853 -22.7311 0.4674 0.8624
29.3000 -22.5307 0.4670 0.8626
29.4145 -22.3306 0.4666 0.8627
29.5288 -22.1309 0.4662 0.8628
29.6429 -21.9315 0.4659 0.8629
29.7569 -21.7323 0.4655 0.8629
28.9143 -20.8440 0.4503 0.8671
29.3542 -20.8865 0.4551 0.8658
28.9205 -20.3096 0.4465 0.8682
30.3713 -20.7724 0.4649 0.8631
28.9163 -19.2566 0.4389 0.8702
26.0429 -17.1116 0.3937 0.8828
26.1539 -16.9539 0.3938 0.8828
30.3658 -19.4186 0.4554 0.8657
30.3647 -19.1544 0.4536 0.8662
28.8855 -17.7257 0.4282 0.8732
30.3616 -18.3740 0.4484 0.8677
30.3605 -18.1178 0.4467 0.8681
30.3595 -17.8635 0.4450 0.8686
30.3585 -17.6110 0.4434 0.8690
30.3575 -17.3604 0.4418 0.8694
30.3564 -17.1115 0.4402 0.8699
30.3554 -16.8645 0.4387 0.8703
30.3219 -16.6012 0.4367 0.8708
30.3696 -16.3842 0.4360 0.8711
30.3677 -15.9013 0.4331 0.8719
28.7643 -14.8359 0.4089 0.8786
29.3268 -14.8971 0.4156 0.8767
30.2526 -14.8996 0.4260 0.8738
30.4985 -14.7870 0.4282 0.8732
30.3447 -14.2516 0.4235 0.8745
30.3428 -13.7953 0.4211 0.8752
30.3558 -13.1272 0.4178 0.8761
30.3401 -12.6773 0.4154 0.8767
30.3373 -12.4563 0.4143 0.8771
30.3346 -11.8024 0.4112 0.8779
30.3337 -11.5866 0.4102 0.8782
30.3310 -10.9453 0.4074 0.8790
30.3249 -9.4813 0.4014 0.8806
30.3240 -9.2755 0.4006 0.8809
28.8725 -8.6366 0.3807 0.8864
29.1417 -8.3259 0.3829 0.8858
29.8096 -8.3177 0.3910 0.8836
31.0562 -8.2529 0.4060 0.8794
31.8352 -8.2495 0.4155 0.8767
32.6516 -8.2459 0.4255 0.8740
21.5352 -5.2971 0.2802 0.9151
21.5618 -5.1624 0.2801 0.9151
21.5561 -5.0203 0.2796 0.9153
21.5476 -4.8781 0.2791 0.9154
21.5415 -4.7368 0.2786 0.9155
21.5336 -4.4566 0.2778 0.9158
21.5389 -4.1806 0.2772 0.9160
21.5362 -4.0420 0.2768 0.9161
21.5333 -3.9038 0.2765 0.9162
21.5293 -3.7657 0.2761 0.9163
21.5253 -3.6279 0.2758 0.9164
21.5229 -3.4908 0.2755 0.9165
21.5215 -3.3541 0.2752 0.9166
21.5084 -2.5389 0.2736 0.9170
21.4991 -2.0001 0.2728 0.9173
22.6802 -1.5452 0.2872 0.9131
30.2907 -1.4998 0.3832 0.8857
28.8400 -1.0706 0.3646 0.8910
30.2874 -0.7494 0.3828 0.8859
30.2858 -0.3746 0.3826 0.8859
30.2833 0.1873 0.3826 0.8859
28.8314 0.8918 0.3644 0.8910
28.8054 1.2477 0.3643 0.8911
30.2775 1.4992 0.3830 0.8858
30.2767 1.6869 0.3831 0.8858
22.0059 1.7730 0.2789 0.9155
20.9787 1.8209 0.2660 0.9192
20.9530 1.9493 0.2659 0.9193
20.9238 2.2079 0.2658 0.9193
20.8857 2.5965 0.2659 0.9193
20.8756 2.9895 0.2664 0.9191
30.2605 5.2929 0.3881 0.8844
30.2726 5.8758 0.3896 0.8839
30.2717 6.0701 0.3901 0.8838
30.2553 6.4571 0.3908 0.8836
30.2535 6.8489 0.3919 0.8833
30.2481 8.0382 0.3954 0.8823
30.2444 8.8437 0.3981 0.8816
30.2425 9.2506 0.3995 0.8812
28.8049 9.2020 0.3820 0.8861
30.2397 9.8669 0.4019 0.8805
30.2387 10.0739 0.4027 0.8803
28.7631 10.5810 0.3872 0.8846
30.0138 11.2523 0.4050 0.8797
30.0131 11.4642 0.4059 0.8794
30.0128 11.6773 0.4069 0.8791
30.0125 11.8914 0.4078 0.8789
30.0122 12.1065 0.4089 0.8786
30.0116 12.5401 0.4109 0.8780
30.0111 12.9781 0.4131 0.8774
30.0109 13.1989 0.4142 0.8771
30.0106 13.4209 0.4153 0.8768
50.8944 23.5199 0.7083 0.7991
29.9590 14.7549 0.4219 0.8749
29.8383 14.9255 0.4215 0.8751
29.7178 15.0957 0.4211 0.8752
29.4776 15.4353 0.4204 0.8754
29.3578 15.6046 0.4200 0.8755
29.2381 15.7737 0.4197 0.8756
29.1186 15.9425 0.4194 0.8756
50.8675 28.2604 0.7352 0.7923
28.7101 17.1328 0.4224 0.8748
28.5133 17.2554 0.4211 0.8752
28.5121 17.4966 0.4226 0.8747
28.5110 17.7395 0.4242 0.8743
28.5098 17.9843 0.4259 0.8739
28.5075 18.4796 0.4292 0.8729
28.5063 18.7302 0.4309 0.8725
30.1905 20.3758 0.4602 0.8644
30.1879 20.9221 0.4640 0.8634
29.0388 20.3928 0.4483 0.8677
30.1839 21.7592 0.4701 0.8617
28.7386 20.9886 0.4496 0.8673
30.1812 22.3297 0.4743 0.8605
30.1784 22.9105 0.4787 0.8594
30.1755 23.5023 0.4832 0.8581
28.7329 22.6655 0.4623 0.8638
30.1726 24.1055 0.4879 0.8569
30.1712 24.4115 0.4903 0.8562
28.6840 23.5033 0.4685 0.8621
30.1862 25.0478 0.4956 0.8548
30.1848 25.3634 0.4981 0.8541
30.1651 25.6668 0.5004 0.8535
30.1620 26.3142 0.5057 0.8520
30.4186 26.8712 0.5128 0.8501
28.9784 26.9040 0.4996 0.8537
30.1182 28.6638 0.5253 0.8468
30.1488 29.0504 0.5289 0.8458
30.0862 30.0862 0.5375 0.8435
30.0844 30.4589 0.5408 0.8426
30.1398 30.8948 0.5453 0.8414
28.6745 30.1294 0.5255 0.8467
28.6727 30.5030 0.5289 0.8458
28.6708 30.8815 0.5324 0.8449
28.6689 31.2651 0.5359 0.8439
23.6873 26.1552 0.4458 0.8684
28.6632 32.4472 0.5470 0.8410
28.6612 32.8522 0.5508 0.8400
30.7947 35.7415 0.5960 0.8280
28.9101 35.7311 0.5807 0.8321
28.5450 35.7295 0.5778 0.8328
27.4710 35.7247 0.5693 0.8350
26.7722 35.7216 0.5640 0.8365
25.7480 35.7170 0.5563 0.8385
24.5847 35.9453 0.5502 0.8401
24.4891 36.2850 0.5530 0.8394
24.4569 37.2220 0.5627 0.8368
24.4404 37.7029 0.5677 0.8355
24.4237 38.1925 0.5727 0.8341
24.4065 38.6908 0.5779 0.8328
24.3714 39.7153 0.5887 0.8299
24.3349 40.7788 0.5999 0.8270
24.3042 41.8964 0.6119 0.8239
24.2661 43.0488 0.6243 0.8206
24.2464 43.6427 0.6307 0.8190
24.1417 46.8070 0.6654 0.8100
24.1241 47.4914 0.6730 0.8081
24.1007 48.1811 0.6806 0.8061
24.0769 48.8867 0.6885 0.8041
24.0525 49.6088 0.6965 0.8021
24.0275 50.3480 0.7048 0.8000
23.9757 51.8807 0.7220 0.7956
23.8939 54.3284 0.7498 0.7887
23.8664 55.1894 0.7596 0.7862
23.1456 54.4445 0.7474 0.7893
23.7767 57.9081 0.7909 0.7785
23.7455 58.8656 0.8019 0.7758
23.6114 62.9802 0.8497 0.7641
23.5777 64.0932 0.8628 0.7609
-2.7782 56.1089 0.7097 0.7987
-4.5224 56.1300 0.7114 0.7983
-6.2847 56.2247 0.7147 0.7975
-7.1356 57.3970 0.7307 0.7934
-7.4961 57.3955 0.7313 0.7933
-8.2316 57.4814 0.7336 0.7927
-8.5945 57.4798 0.7342 0.7926
-8.9441 57.3891 0.7338 0.7927
-9.3077 57.3876 0.7345 0.7925
-10.4030 57.3827 0.7368 0.7919
-10.7697 57.3811 0.7376 0.7917
-11.4947 57.3240 0.7386 0.7915
-12.2334 57.3208 0.7405 0.7910
-12.9881 57.3714 0.7431 0.7903
-3.1795 12.9260 0.1682 0.9481
-3.3416 12.8955 0.1683 0.9481
-5.9399 21.8078 0.2856 0.9136
-6.3782 21.3223 0.2812 0.9148
-6.4958 21.2362 0.2806 0.9150
-6.7295 21.0651 0.2794 0.9153
-6.9255 20.7884 0.2768 0.9161
-7.0772 20.8135 0.2777 0.9158
-7.3954 20.4938 0.2752 0.9165
-7.4469 19.4958 0.2637 0.9199
-5.9601 14.7750 0.2013 0.9383
-6.0129 14.3904 0.1970 0.9395
-6.0551 13.7676 0.1900 0.9416
-6.1091 13.6605 0.1891 0.9419
-6.4128 13.4376 0.1881 0.9422
-6.4883 13.3823 0.1879 0.9422
-6.5457 13.2907 0.1872 0.9425
-5.9103 11.6352 0.1649 0.9491
-5.9941 11.6215 0.1652 0.9490
-5.8757 10.8913 0.1563 0.9517
-5.9235 10.8191 0.1558 0.9519
-5.9737 10.7525 0.1554 0.9520
-6.0559 10.5896 0.1541 0.9524
-6.0964 10.5092 0.1535 0.9526
-6.1590 10.3208 0.1518 0.9531
-6.4623 10.2445 0.1530 0.9527
-6.5834 10.1558 0.1529 0.9527
-6.6439 10.1116 0.1529 0.9528
-6.7043 10.0673 0.1528 0.9528
-6.8250 9.9789 0.1527 0.9528
-6.8190 9.8389 0.1512 0.9532
-6.9201 9.8540 0.1521 0.9530
-7.0020 9.8407 0.1526 0.9528
-7.1673 9.8138 0.1535 0.9525
-7.2508 9.8003 0.1540 0.9524
-7.3348 9.7866 0.1545 0.9523
-7.3398 9.3045 0.1497 0.9537
-7.3392 9.1863 0.1485 0.9541
-7.3380 8.9555 0.1463 0.9547
-7.2981 8.7952 0.1444 0.9553
-7.3927 8.5802 0.1431 0.9557
-7.3947 8.3709 0.1411 0.9563
-7.3906 8.1606 0.1391 0.9569
-7.3905 8.0597 0.1381 0.9572
-7.3892 7.8608 0.1363 0.9578
-7.2921 7.6621 0.1336 0.9586
-7.2964 7.5723 0.1328 0.9588
-7.3452 6.9905 0.1281 0.9602
-7.3847 6.9416 0.1280 0.9603
-7.3830 6.6037 0.1251 0.9611
-7.3819 6.3602 0.1231 0.9618
-7.3815 6.2807 0.1224 0.9620
-7.3860 6.2062 0.1219 0.9621
-7.2823 5.9670 0.1189 0.9630
-7.3181 5.8465 0.1183 0.9632
-7.3226 5.7763 0.1178 0.9634
-7.3219 5.6303 0.1167 0.9637
-7.3216 5.5583 0.1161 0.9639
-7.3205 5.3464 0.1145 0.9644
-6.1541 4.4364 0.0958 0.9701
-6.0939 4.2795 0.0941 0.9707
-6.0048 4.1070 0.0919 0.9713
-5.9618 4.0237 0.0909 0.9716
-5.8400 3.8372 0.0883 0.9724
-5.9606 3.7600 0.0890 0.9722
-5.9599 3.6067 0.0880 0.9725
-5.9596 3.5564 0.0877 0.9726
-5.9594 3.5065 0.0874 0.9727
-5.9589 3.4077 0.0867 0.9729
-5.8446 3.0145 0.0831 0.9740
-5.8820 2.9879 0.0833 0.9740
-5.9350 2.9230 0.0836 0.9739
-5.9534 2.8865 0.0836 0.9739
-5.9903 2.8134 0.0836 0.9739
-6.0088 2.7769 0.0836 0.9739
-6.0272 2.7403 0.0836 0.9739
-6.0642 2.6670 0.0837 0.9738
-6.0827 2.6304 0.0837 0.9738
-6.0768 2.5391 0.0832 0.9740
-6.2654 2.4825 0.0851 0.9734
-6.3048 2.4530 0.0855 0.9733
-6.3445 2.4234 0.0858 0.9732
-6.3845 2.3935 0.0861 0.9731
-6.4248 2.3635 0.0865 0.9730
-6.6737 2.1775 0.0887 0.9723
-6.7164 2.1456 0.0891 0.9722
-6.7486 2.0643 0.0892 0.9722
-6.7564 2.0211 0.0891 0.9722
-7.1156 1.9854 0.0933 0.9709
-7.2245 1.9677 0.0946 0.9705
-7.3461 1.9521 0.0960 0.9701
-7.5304 1.9514 0.0983 0.9694
-7.9262 1.9496 0.1031 0.9679
-8.1391 1.9487 0.1057 0.9671
-8.3065 1.9345 0.1077 0.9665
-9.8869 2.0462 0.1276 0.9604
-10.0620 1.8885 0.1293 0.9599
-10.6876 1.9375 0.1372 0.9575
-11.9132 1.9322 0.1525 0.9529
-13.7571 1.8833 0.1754 0.9460
-14.7011 1.9200 0.1873 0.9424
-32.3408 3.8176 0.4114 0.8779
-32.3389 3.4124 0.4108 0.8780
-32.2309 2.7975 0.4087 0.8786
-32.2299 2.5967 0.4085 0.8787
-32.2282 2.1958 0.4081 0.8788
-32.2273 1.9956 0.4079 0.8788
-32.2264 1.7955 0.4078 0.8789
-32.2255 1.5956 0.4076 0.8789
-32.2237 1.1962 0.4074 0.8790
-32.1533 -0.1988 0.1675 0.8793
-32.1525 -0.3977 0.1675 0.8793
-32.1507 -0.7955 0.1675 0.8793
-32.1489 -1.1934 0.1676 0.8792
-32.1481 -1.3925 0.1676 0.8792
-32.1472 -1.5917 0.1676 0.8792
-32.1446 -2.1901 0.1678 0.8791
-32.1428 -2.5897 0.1680 0.8790
-32.1420 -2.7898 0.1680 0.8789
-32.1411 -2.9901 0.1681 0.8789
-32.1376 -3.7937 0.1685 0.8786
-32.1358 -4.1971 0.1688 0.8784
-32.1349 -4.3992 0.1689 0.8783
-32.1340 -4.6018 0.1691 0.8782
-32.1331 -4.8046 0.1692 0.8781
-32.1314 -5.2114 0.1695 0.8779
-13.6329 -2.3845 0.0721 0.9461
-11.8399 -2.3742 0.0629 0.9528
-9.8516 -2.4232 0.0528 0.9602
-9.7817 -2.4703 0.0525 0.9604
-9.3530 -2.4237 0.0503 0.9621
-9.2877 -2.4681 0.0501 0.9623
-9.0579 -2.4671 0.0489 0.9631
-8.2670 -2.3067 0.0447 0.9663
-8.1843 -2.3383 0.0443 0.9665
-7.7025 -2.3561 0.0420 0.9683
-7.3706 -2.3546 0.0403 0.9695
-7.2142 -2.3539 0.0395 0.9701
-7.1073 -2.3677 0.0390 0.9705
-6.9113 -2.3978 0.0381 0.9712
-6.8168 -2.4123 0.0377 0.9715
-6.6403 -2.4895 0.0369 0.9720
-6.5785 -2.6065 0.0369 0.9721
-6.4947 -2.6667 0.0366 0.9723
-6.4533 -2.6964 0.0364 0.9724
-6.3310 -2.7844 0.0360 0.9727
-6.2113 -2.8704 0.0356 0.9730
-6.1719 -2.8987 0.0355 0.9731
-6.0086 -2.8675 0.0347 0.9737
-5.9776 -2.8982 0.0346 0.9738
-5.9725 -2.9875 0.0348 0.9736
-5.9536 -3.0242 0.0348 0.9736
-5.9346 -3.0609 0.0348 0.9736
-5.8779 -3.1710 0.0348 0.9736
-5.8589 -3.2078 0.0348 0.9736
-5.8400 -3.2445 0.0348 0.9736
-5.8210 -3.2812 0.0348 0.9736
-5.7343 -3.3740 0.0346 0.9737
-5.7128 -3.4092 0.0346 0.9737
-5.7057 -3.4529 0.0347 0.9737
-5.8250 -3.6745 0.0359 0.9728
-5.8248 -3.7249 0.0360 0.9727
-5.8246 -3.7757 0.0362 0.9726
-5.8094 -3.8171 0.0362 0.9726
-5.7979 -3.8611 0.0363 0.9725
-5.8239 -3.9306 0.0366 0.9723
-5.8237 -3.9831 0.0367 0.9722
-5.8235 -4.0361 0.0369 0.9721
-5.8233 -4.0894 0.0371 0.9719
-5.8023 -4.1828 0.0373 0.9718
-5.7403 -4.1923 0.0370 0.9720
-5.7005 -4.2176 0.0369 0.9720
-5.8743 -4.5171 0.0386 0.9708
-7.1679 -5.7996 0.0480 0.9638
-7.1676 -5.8731 0.0483 0.9636
-7.1664 -6.1745 0.0493 0.9629
-7.1283 -6.2970 0.0495 0.9627
-7.1241 -6.3722 0.0498 0.9625
-7.2213 -6.5399 0.0507 0.9618
-7.2206 -6.7037 0.0513 0.9614
-7.2199 -6.8712 0.0519 0.9609
-7.2196 -6.9565 0.0522 0.9607
-7.2188 -7.1300 0.0528 0.9602
-7.2184 -7.2184 0.0532 0.9600
-7.2115 -7.3921 0.0538 0.9595
-7.1603 -7.6173 0.0544 0.9590
-7.1599 -7.7120 0.0548 0.9588
-7.1591 -7.9049 0.0556 0.9582
-7.2136 -8.3723 0.0576 0.9568
-7.2131 -8.4773 0.0580 0.9565
-7.2122 -8.6918 0.0588 0.9558
-7.2212 -8.9249 0.0598 0.9551
-7.2108 -9.0257 0.0602 0.9548
-7.1114 -9.1306 0.0603 0.9548
-7.1527 -9.4217 0.0616 0.9538
-7.1522 -9.5430 0.0621 0.9534
-7.1517 -9.6663 0.0626 0.9530
-7.1512 -9.7917 0.0632 0.9527
-7.1495 -10.1808 0.0648 0.9515
-7.0687 -10.1992 0.0646 0.9516
-6.9010 -10.2250 0.0642 0.9519
-6.8178 -10.2378 0.0641 0.9520
-6.6329 -10.2323 0.0635 0.9524
-6.4479 -10.5073 0.0642 0.9519
-6.2613 -10.6413 0.0643 0.9518
-6.1991 -10.6861 0.0643 0.9518
-6.1367 -10.7310 0.0644 0.9518
-6.0504 -10.7335 0.0642 0.9519
-5.9549 -10.7187 0.0639 0.9521
-5.8463 -10.9990 0.0649 0.9514
-5.8032 -11.0827 0.0652 0.9512
-5.7597 -11.1671 0.0654 0.9510
-5.6908 -11.2030 0.0655 0.9510
-5.7911 -11.7585 0.0683 0.9489
-5.7904 -11.9427 0.0691 0.9483
-5.7356 -12.0186 0.0694 0.9481
-5.6722 -12.0773 0.0695 0.9480
-6.2335 -13.4884 0.0774 0.9423
-6.1574 -13.5431 0.0775 0.9422
-6.0811 -13.5979 0.0776 0.9422
-5.8602 -13.7847 0.0780 0.9418
-5.7533 -14.5205 0.0813 0.9394
-5.7763 -14.8461 0.0830 0.9383
-5.6767 -14.8614 0.0828 0.9383
-7.1688 -19.1216 0.1064 0.9216
-7.1398 -19.7854 0.1095 0.9193
-3.1354 -8.8597 0.0489 0.9631
-2.5689 -7.7109 0.0423 0.9680
-2.4851 -7.7789 0.0425 0.9679
-2.7179 -8.8852 0.0484 0.9635
-2.6578 -8.8849 0.0483 0.9636
-2.5979 -8.8847 0.0482 0.9636
-2.5383 -8.8844 0.0481 0.9637
-2.4789 -8.8842 0.0480 0.9638
-2.4197 -8.8839 0.0480 0.9638
-2.3020 -8.8834 0.0478 0.9640
-2.2434 -8.8831 0.0477 0.9640
-2.1850 -8.8829 0.0476 0.9641
-2.0687 -8.8824 0.0475 0.9642
-1.9531 -8.8819 0.0474 0.9643
-1.8955 -8.8816 0.0473 0.9643
-1.8325 -8.8541 0.0471 0.9645
-1.6150 -8.9080 0.0472 0.9644
-2.1320 -12.1889 0.0644 0.9517
-1.8995 -12.1879 0.0642 0.9519
-1.8223 -12.1876 0.0642 0.9519
-1.6684 -12.1869 0.0641 0.9520
-7.5355 -60.6142 0.3181 0.7832
-7.1550 -60.6125 0.3179 0.7834
-6.3956 -60.6092 0.3174 0.7837
-5.6382 -60.6059 0.3170 0.7839
-5.2603 -60.6043 0.3168 0.7840
-4.8827 -60.6026 0.3167 0.7841
-4.1287 -60.5993 0.3164 0.7843
-3.3762 -60.5960 0.3161 0.7845
-3.0003 -60.5944 0.3160 0.7845
-0.1661 -5.3684 0.0280 0.9787
-0.1328 -5.3672 0.0280 0.9788
-0.0996 -5.3660 0.0280 0.9788
-0.0332 -5.3636 0.0279 0.9788
-0.0000 -5.3624 0.0279 0.9788
0.0331 -5.3612 0.0279 0.9788
0.0663 -5.3600 0.0279 0.9788
0.1325 -5.3576 0.0279 0.9788
0.2650 -5.3528 0.0279 0.9788
0.3313 -5.3504 0.0279 0.9788
0.3976 -5.3480 0.0279 0.9788
0.5304 -5.3432 0.0280 0.9788
0.5970 -5.3408 0.0280 0.9787
0.6303 -5.3396 0.0280 0.9787
0.7305 -5.3360 0.0281 0.9787
0.7975 -5.3336 0.0281 0.9787
0.8983 -5.3299 0.0282 0.9786
0.9658 -5.3275 0.0282 0.9786
0.9996 -5.3263 0.0282 0.9786
1.0675 -5.3238 0.0283 0.9785
1.1016 -5.3226 0.0283 0.9785
1.1357 -5.3213 0.0283 0.9785
1.1698 -5.3201 0.0284 0.9784
1.2041 -5.3189 0.0284 0.9784
1.2729 -5.3164 0.0285 0.9784
1.3074 -5.3152 0.0285 0.9783
1.4114 -5.3114 0.0286 0.9783
1.4463 -5.3102 0.0287 0.9782
1.4813 -5.3089 0.0287 0.9782
1.6579 -5.3026 0.0289 0.9780
1.7293 -5.3001 0.0290 0.9779
1.8013 -5.2975 0.0291 0.9779
1.8738 -5.2949 0.0293 0.9778
1.9102 -5.2936 0.0293 0.9777
1.9468 -5.2923 0.0294 0.9777
2.0205 -5.2896 0.0295 0.9776
2.0948 -5.2870 0.0296 0.9775
2.1697 -5.2843 0.0298 0.9774
2.2453 -5.2816 0.0299 0.9773
2.4376 -5.2747 0.0303 0.9770
2.5159 -5.2719 0.0304 0.9769
2.5950 -5.2691 0.0306 0.9768
2.6349 -5.2677 0.0307 0.9767
2.6751 -5.2663 0.0308 0.9766
2.7969 -5.2619 0.0310 0.9764
2.8379 -5.2604 0.0311 0.9764
23.8242 -43.5144 0.2584 0.8200
24.1743 -43.5128 0.2593 0.8195
24.5268 -43.5113 0.2602 0.8189
25.2392 -43.5082 0.2620 0.8178
25.5491 -43.4216 0.2624 0.8175
26.3307 -43.5094 0.2649 0.8159
26.6987 -43.5078 0.2659 0.8153
27.0695 -43.5062 0.2669 0.8147
28.5816 -43.4996 0.2711 0.8120
29.7480 -43.4945 0.2745 0.8100
30.5419 -43.4910 0.2768 0.8085
30.8737 -43.3905 0.2774 0.8081
31.7488 -43.4719 0.2804 0.8063
29.6945 -39.6208 0.2579 0.8203
29.8573 -38.8279 0.2551 0.8221
29.8453 -35.9679 0.2434 0.8295
29.8434 -35.5164 0.2416 0.8306
29.6747 -34.8754 0.2385 0.8326
29.7390 -34.5162 0.2373 0.8334
29.7858 -33.7180 0.2343 0.8353
29.8343 -33.3550 0.2331 0.8361
29.8309 -32.5322 0.2299 0.8382
29.8275 -31.7316 0.2268 0.8401
29.8258 -31.3392 0.2253 0.8411
29.8226 -30.5696 0.2224 0.8430
29.8210 -30.1922 0.2210 0.8439
29.7543 -28.6702 0.2152 0.8477
29.4818 -27.7127 0.2107 0.8506
29.4790 -27.0311 0.2083 0.8522
29.4762 -26.3649 0.2060 0.8537
29.6561 -26.1976 0.2061 0.8536
30.4024 -26.1945 0.2090 0.8517
30.8749 -25.6192 0.2090 0.8517
31.2604 -25.6143 0.2105 0.8507
31.6231 -25.5863 0.2119 0.8498
31.6209 -25.2625 0.2108 0.8505
29.1950 -22.7387 0.1927 0.8624
29.3098 -22.5382 0.1926 0.8625
29.4243 -22.3381 0.1924 0.8626
29.5387 -22.1383 0.1923 0.8627
29.6528 -21.9388 0.1921 0.8628
28.9339 -20.3191 0.1841 0.8681
30.1542 -20.8988 0.1911 0.8635
30.3854 -20.7820 0.1917 0.8631
28.9306 -19.5255 0.1818 0.8697
28.9295 -19.2654 0.1810 0.8702
26.1555 -16.9550 0.1623 0.8828
30.3796 -19.4274 0.1878 0.8657
28.8985 -17.7336 0.1766 0.8732
30.3751 -18.3821 0.1849 0.8676
30.3740 -18.1258 0.1842 0.8681
30.3719 -17.6188 0.1829 0.8690
30.3697 -17.1191 0.1816 0.8698
30.3687 -16.8718 0.1809 0.8703
30.3350 -16.6085 0.1801 0.8708
30.3752 -16.3871 0.1798 0.8710
30.3615 -15.1872 0.1768 0.8730
30.4988 -14.7871 0.1765 0.8732
30.3575 -14.2576 0.1747 0.8745
30.3565 -14.0287 0.1742 0.8748
30.3555 -13.8011 0.1737 0.8751
30.3545 -13.5747 0.1732 0.8755
30.3606 -13.3528 0.1727 0.8758
30.3611 -13.1295 0.1723 0.8761
30.3601 -12.9068 0.1718 0.8764
30.3532 -12.6828 0.1713 0.8767
28.4337 -11.4698 0.1597 0.8846
30.3415 -10.5268 0.1673 0.8794
30.3406 -10.3167 0.1669 0.8797
30.3397 -10.1075 0.1666 0.8799
30.3379 -9.6917 0.1659 0.8804
30.3370 -9.4851 0.1656 0.8806
30.3361 -9.2792 0.1652 0.8808
30.3343 -8.8699 0.1646 0.8812
30.3317 -8.2615 0.1637 0.8818
31.8356 -8.2496 0.1713 0.8767
21.5271 -5.4365 0.1156 0.9150
21.5435 -5.2992 0.1156 0.9151
21.5290 -4.8738 0.1150 0.9155
21.5234 -4.7328 0.1148 0.9156
21.5183 -4.5924 0.1146 0.9157
21.4842 -4.3080 0.1141 0.9161
21.5225 -3.7645 0.1138 0.9163
21.5066 -3.2157 0.1133 0.9167
21.4746 -3.0753 0.1130 0.9169
21.4971 -2.9429 0.1130 0.9169
21.4954 -2.5374 0.1127 0.9171
21.4924 -2.4024 0.1126 0.9171
21.4903 -2.2677 0.1126 0.9172
21.4703 -1.8635 0.1122 0.9174
21.5819 -1.6046 0.1127 0.9171
30.3038 -1.8764 0.1581 0.8856
28.8510 -1.0710 0.1504 0.8909
28.8502 -0.8924 0.1503 0.8910
30.2989 -0.7496 0.1579 0.8858
30.2973 -0.3747 0.1578 0.8859
28.8471 -0.1784 0.1502 0.8910
30.2948 0.1874 0.1578 0.8859
30.2923 0.7495 0.1578 0.8858
28.3348 1.2274 0.1477 0.8928
22.1934 2.0647 0.1161 0.9147
22.1953 2.2034 0.1162 0.9146
22.2034 2.4819 0.1164 0.9145
20.8874 2.5967 0.1096 0.9193
22.2101 2.9007 0.1167 0.9143
22.2107 3.0406 0.1168 0.9142
22.1081 3.4456 0.1165 0.9144
20.8497 3.3816 0.1100 0.9190
30.2722 5.2949 0.1601 0.8843
30.2713 5.4879 0.1602 0.8842
30.2783 5.6828 0.1605 0.8841
30.2775 5.8767 0.1606 0.8839
30.2681 6.2644 0.1610 0.8837
30.2670 6.4596 0.1612 0.8836
30.2662 6.6553 0.1614 0.8834
30.2653 6.8516 0.1616 0.8833
30.2644 7.0485 0.1618 0.8831
30.2635 7.2458 0.1621 0.8830
28.6532 7.4249 0.1542 0.8883
30.2600 8.0413 0.1631 0.8823
28.8115 7.8475 0.1555 0.8874
30.2573 8.6447 0.1639 0.8817
30.2564 8.8471 0.1642 0.8815
30.2537 9.4590 0.1651 0.8809
28.8054 9.2021 0.1575 0.8861
30.2518 9.8708 0.1657 0.8805
29.8841 10.5756 0.1651 0.8809
28.7748 10.5853 0.1597 0.8846
29.2128 11.1585 0.1629 0.8824
29.2060 11.3634 0.1632 0.8822
30.2389 11.9811 0.1694 0.8780
30.2328 13.0740 0.1716 0.8766
50.9150 23.5295 0.2921 0.7990
50.9936 23.9496 0.2934 0.7982
50.9917 24.3348 0.2943 0.7977
29.8476 14.9301 0.1738 0.8750
29.7271 15.1004 0.1737 0.8751
29.6068 15.2704 0.1735 0.8752
29.4868 15.4401 0.1734 0.8753
29.2472 15.7786 0.1731 0.8755
29.1294 15.9484 0.1730 0.8756
50.8893 28.2725 0.3032 0.7923
30.4716 17.4257 0.1828 0.8690
30.0359 17.4239 0.1809 0.8703
29.1207 17.1345 0.1760 0.8736
28.5874 17.0597 0.1734 0.8753
28.5259 17.2631 0.1737 0.8751
28.5248 17.5043 0.1743 0.8747
28.5226 17.9923 0.1756 0.8738
30.2018 20.9318 0.1914 0.8633
30.1980 21.7694 0.1939 0.8616
28.7521 20.9985 0.1854 0.8673
30.1954 22.3402 0.1956 0.8605
30.1927 22.9214 0.1974 0.8593
28.7541 23.2650 0.1926 0.8625
28.7161 23.5296 0.1934 0.8620
28.3228 23.5016 0.1917 0.8631
30.1802 25.6796 0.2064 0.8534
30.1772 26.3275 0.2086 0.8520
30.4184 26.8710 0.2114 0.8501
28.7003 26.9781 0.2052 0.8542
30.1646 29.0657 0.2182 0.8457
30.1630 29.4259 0.2195 0.8449
30.1613 29.7906 0.2208 0.8440
28.6875 29.7722 0.2154 0.8476
21.6007 22.6967 0.1632 0.8822
21.3291 22.6907 0.1622 0.8829
21.0595 22.6834 0.1612 0.8835
20.7116 22.8695 0.1607 0.8839
20.6756 23.4052 0.1627 0.8826
28.7148 32.9137 0.2275 0.8397
30.7945 35.7413 0.2457 0.8280
30.0282 35.7363 0.2431 0.8297
27.4712 35.7249 0.2347 0.8350
26.7723 35.7217 0.2325 0.8365
26.4277 35.7202 0.2314 0.8372
25.7481 35.7171 0.2293 0.8385
24.7512 35.7127 0.2263 0.8405
24.4894 36.7740 0.2301 0.8380
24.4734 37.2470 0.2321 0.8367
24.4061 39.2257 0.2406 0.8313
24.3706 40.2706 0.2452 0.8284
24.3523 40.8081 0.2475 0.8269
24.3024 42.4967 0.2550 0.8222
24.2638 43.6740 0.2602 0.8189
24.2029 45.5341 0.2686 0.8136
24.1817 46.1811 0.2715 0.8118
24.1427 47.5280 0.2777 0.8080
24.0959 48.9253 0.2840 0.8040
24.0717 49.6485 0.2874 0.8020
24.0469 50.3888 0.2908 0.7998
23.9410 53.5346 0.3054 0.7909
23.1478 54.4496 0.3082 0.7893
23.8302 57.0319 0.3219 0.7809
23.7359 59.9071 0.3356 0.7728
23.6348 63.0427 0.3507 0.7639
23.6020 64.1594 0.3561 0.7607
23.5638 65.2990 0.3616 0.7575
-4.4704 55.4860 0.2899 0.8004
-4.8183 55.5131 0.2902 0.8002
-5.1670 55.5404 0.2905 0.8000
-6.2169 55.6181 0.2915 0.7994
-6.7756 57.3984 0.3010 0.7936
-7.4961 57.3953 0.3015 0.7933
-7.8498 57.3397 0.3014 0.7933
-8.9441 57.3889 0.3025 0.7927
-10.0371 57.3842 0.3034 0.7921
-10.4030 57.3825 0.3037 0.7919
-10.7696 57.3809 0.3041 0.7917
-11.8931 57.4652 0.3056 0.7908
-12.6159 57.3729 0.3059 0.7906
-13.3612 57.3696 0.3068 0.7901
-3.1787 12.9228 0.0693 0.9482
-3.2551 12.8894 0.0692 0.9482
-3.3427 12.8995 0.0694 0.9481
-5.9350 21.7897 0.1176 0.9136
-6.2224 21.2798 0.1155 0.9151
-6.3653 21.2792 0.1157 0.9150
-6.4822 21.1919 0.1154 0.9152
-6.7278 21.0601 0.1152 0.9154
-7.3495 20.7678 0.1147 0.9157
-7.3852 20.0757 0.1114 0.9180
-7.3832 19.6935 0.1095 0.9193
-7.4388 19.4748 0.1086 0.9200
-5.9013 14.8941 0.0834 0.9379
-6.0081 14.6326 0.0824 0.9387
-6.0069 14.3760 0.0811 0.9396
-5.9369 13.9650 0.0791 0.9411
-6.0524 13.7615 0.0783 0.9416
-6.2118 13.4416 0.0771 0.9425
-6.5437 13.2864 0.0771 0.9425
-6.6182 13.2307 0.0771 0.9425
-5.9099 11.6344 0.0680 0.9491
-5.9937 11.6208 0.0681 0.9490
-5.8721 10.8845 0.0644 0.9517
-6.0534 10.5853 0.0635 0.9524
-6.1342 10.4252 0.0630 0.9528
-6.1573 10.3179 0.0626 0.9531
-6.2789 10.3754 0.0632 0.9526
-6.3396 10.3309 0.0631 0.9527
-6.5214 10.1978 0.0630 0.9527
-6.6796 10.0302 0.0628 0.9529
-6.7394 9.9856 0.0627 0.9530
-6.8178 9.8372 0.0623 0.9533
-7.0015 9.8400 0.0629 0.9528
-7.0839 9.8266 0.0631 0.9527
-7.2503 9.7996 0.0635 0.9524
-7.3343 9.7859 0.0637 0.9523
-7.3369 9.6643 0.0632 0.9526
-7.3363 9.5405 0.0627 0.9530
-7.3358 9.4187 0.0622 0.9534
-7.3352 9.2987 0.0617 0.9537
-7.3347 9.1807 0.0612 0.9541
-7.3341 9.0646 0.0607 0.9544
-7.3336 8.9501 0.0603 0.9548
-7.3250 8.7175 0.0593 0.9555
-7.3888 8.6838 0.0594 0.9554
-7.3860 8.0548 0.0569 0.9572
-7.3855 7.9550 0.0565 0.9575
-7.3850 7.8564 0.0562 0.9578
-7.2964 7.5723 0.0547 0.9588
-7.3270 7.5105 0.0546 0.9589
-7.3262 7.3261 0.0540 0.9594
-7.3257 7.2357 0.0536 0.9596
-7.2881 7.1100 0.0530 0.9601
-7.2829 7.0176 0.0527 0.9604
-7.3808 6.9379 0.0528 0.9603
-7.3800 6.7672 0.0522 0.9607
-7.3789 6.5183 0.0513 0.9614
-7.3838 6.2043 0.0502 0.9622
-7.3771 6.1213 0.0499 0.9624
-7.2788 5.9642 0.0490 0.9631
-7.3180 5.5556 0.0479 0.9639
-7.3177 5.4844 0.0476 0.9641
-7.3174 5.4138 0.0474 0.9642
-7.3171 5.3438 0.0472 0.9644
-6.1036 4.3429 0.0390 0.9705
-6.0895 4.2763 0.0388 0.9707
-5.9330 3.7941 0.0367 0.9722
-5.9574 3.6558 0.0364 0.9724
-5.9572 3.6051 0.0363 0.9725
-5.9561 3.3574 0.0356 0.9730
-5.9559 3.3089 0.0355 0.9731
-5.9552 3.1654 0.0351 0.9734
-5.8423 3.0133 0.0342 0.9740
-5.8831 2.9884 0.0343 0.9740
-5.9146 2.9585 0.0344 0.9739
-5.9883 2.8124 0.0345 0.9739
-6.0067 2.7759 0.0345 0.9739
-6.0436 2.7027 0.0345 0.9739
-6.0621 2.6661 0.0345 0.9739
-6.0806 2.6295 0.0345 0.9738
-6.0991 2.5929 0.0345 0.9738
-6.1029 2.5058 0.0344 0.9740
-6.3462 2.4692 0.0355 0.9731
-6.3867 2.4395 0.0356 0.9730
-6.4755 2.3368 0.0359 0.9728
-6.5940 2.2877 0.0364 0.9725
-6.6365 2.2566 0.0365 0.9724
-6.6794 2.2252 0.0367 0.9722
-6.7227 2.1935 0.0368 0.9721
-6.7454 2.0633 0.0367 0.9722
-6.7547 2.0205 0.0367 0.9722
-6.8111 1.9916 0.0370 0.9720
-7.1146 1.9852 0.0385 0.9709
-7.3460 1.9521 0.0396 0.9701
-7.5303 1.9513 0.0405 0.9694
-7.7234 1.9505 0.0415 0.9686
-7.9261 1.9496 0.0425 0.9679
-8.1389 1.9487 0.0436 0.9671
-8.3032 1.9338 0.0444 0.9665
-9.3167 2.0487 0.0497 0.9626
-10.3315 1.9391 0.0547 0.9588
-10.6874 1.9375 0.0566 0.9575
-11.0677 1.9359 0.0585 0.9561
-11.4752 1.9341 0.0606 0.9545
-11.9129 1.9321 0.0629 0.9529
-13.1622 1.9680 0.0693 0.9482
-13.6819 1.9593 0.0720 0.9462
-32.1719 3.9996 0.1689 0.8784
-32.1692 3.3945 0.1685 0.8786
-32.1683 3.1934 0.1684 0.8787
-32.1656 2.5915 0.1681 0.8789
-32.1647 2.3914 0.1680 0.8790
-32.1639 2.1914 0.1679 0.8790
-32.1603 1.3931 0.1677 0.8792
-32.1595 1.1938 0.1676 0.8792
-32.1402 -0.3975 -0.0712 0.8794
-32.1393 -0.5963 -0.0712 0.8793
-32.1367 -1.1930 -0.0713 0.8793
-32.1358 -1.3920 -0.0713 0.8793
-32.1332 -1.9897 -0.0714 0.8792
-32.1314 -2.3889 -0.0714 0.8791
-32.1306 -2.5887 -0.0714 0.8790
-32.1244 -3.9937 -0.0717 0.8785
-32.1235 -4.1955 -0.0718 0.8785
-32.1190 -5.2094 -0.0721 0.8780
-13.1288 -2.4641 -0.0296 0.9480
-11.8402 -2.3742 -0.0268 0.9528
-11.1096 -2.3710 -0.0252 0.9556
-10.7758 -2.3695 -0.0245 0.9568
-10.4607 -2.3681 -0.0238 0.9580
-10.1627 -2.3669 -0.0231 0.9591
-9.0534 -2.4059 -0.0208 0.9632
-8.1811 -2.3374 -0.0189 0.9665
-8.0629 -2.3576 -0.0186 0.9670
-7.8790 -2.3569 -0.0182 0.9676
-7.7026 -2.3561 -0.0179 0.9683
-7.3707 -2.3546 -0.0171 0.9695
-7.1064 -2.3675 -0.0166 0.9705
-7.0073 -2.3827 -0.0164 0.9708
-6.8160 -2.4121 -0.0160 0.9715
-6.6081 -2.4309 -0.0156 0.9722
-6.6370 -2.4882 -0.0157 0.9720
-6.6618 -2.5446 -0.0158 0.9719
-6.5768 -2.6058 -0.0157 0.9721
-6.4516 -2.6957 -0.0155 0.9724
-6.3676 -2.7070 -0.0153 0.9727
-6.3656 -2.7528 -0.0154 0.9726
-6.3293 -2.7837 -0.0153 0.9727
-6.2493 -2.8412 -0.0152 0.9729
-6.2097 -2.8697 -0.0152 0.9730
-6.1704 -2.8979 -0.0151 0.9731
-5.9705 -2.9865 -0.0148 0.9737
-5.9137 -3.0966 -0.0148 0.9737
-5.8759 -3.1700 -0.0148 0.9736
-5.8569 -3.2067 -0.0148 0.9736
-5.7812 -3.3537 -0.0148 0.9736
-5.7353 -3.3746 -0.0147 0.9737
-5.7105 -3.4078 -0.0147 0.9738
-5.8229 -3.5732 -0.0151 0.9730
-5.8226 -3.6228 -0.0152 0.9729
-5.8224 -3.6728 -0.0153 0.9728
-5.7952 -3.8593 -0.0154 0.9725
-5.8213 -3.9288 -0.0156 0.9723
-5.8208 -4.0342 -0.0157 0.9721
-5.8204 -4.1413 -0.0158 0.9718
-5.8018 -4.1825 -0.0159 0.9718
-5.6975 -4.2153 -0.0157 0.9720
-5.7070 -4.2772 -0.0158 0.9719
-5.9674 -4.7073 -0.0168 0.9701
-5.9448 -4.7494 -0.0169 0.9700
-7.1614 -6.2478 -0.0211 0.9627
-7.1207 -6.3691 -0.0212 0.9625
-7.2176 -6.5366 -0.0216 0.9618
-7.2172 -6.6179 -0.0217 0.9616
-7.2169 -6.7002 -0.0218 0.9614
-7.2157 -6.9528 -0.0222 0.9607
-7.2154 -7.0390 -0.0223 0.9605
-7.2150 -7.1262 -0.0225 0.9602
