ply
format ascii 1.0
element vertex 1543
property float32 x
property float32 y
property float32 z
property float32 I
end_header
-4.8320 -7.5560 -0.3530 0.9647
-4.8335 -7.6624 -0.3566 0.9644
-5.3465 -8.5929 -0.3983 0.9603
-5.1622 -8.6505 -0.3965 0.9605
-5.0920 -8.6539 -0.3952 0.9606
-5.0221 -8.6573 -0.3939 0.9607
-4.9528 -8.6607 -0.3927 0.9608
-4.8838 -8.6641 -0.3915 0.9610
-4.8153 -8.6674 -0.3903 0.9611
-4.7472 -8.6707 -0.3891 0.9612
-4.6123 -8.6773 -0.3868 0.9614
-4.5454 -8.6805 -0.3857 0.9615
-4.4789 -8.6838 -0.3846 0.9616
-4.3886 -8.6395 -0.3814 0.9620
-4.3454 -8.6872 -0.3823 0.9619
-2.4861 -5.1276 -0.2243 0.9774
-2.3713 -5.1312 -0.2225 0.9776
-2.3334 -5.1323 -0.2219 0.9777
-2.1839 -5.1370 -0.2197 0.9779
-2.1469 -5.1382 -0.2192 0.9780
-2.0736 -5.1405 -0.2182 0.9781
-2.0372 -5.1416 -0.2177 0.9781
-1.9648 -5.1439 -0.2167 0.9782
-1.9289 -5.1450 -0.2163 0.9782
-1.8931 -5.1462 -0.2158 0.9783
-1.8220 -5.1484 -0.2150 0.9784
-1.7866 -5.1495 -0.2145 0.9784
-1.6813 -5.1528 -0.2133 0.9785
-1.6464 -5.1539 -0.2130 0.9786
-1.6117 -5.1550 -0.2126 0.9786
-1.5427 -5.1572 -0.2119 0.9787
-1.4740 -5.1594 -0.2112 0.9787
-1.4399 -5.1604 -0.2109 0.9788
-1.4059 -5.1615 -0.2106 0.9788
-1.3719 -5.1626 -0.2102 0.9788
-1.3381 -5.1637 -0.2100 0.9789
-1.2706 -5.1658 -0.2094 0.9789
-1.2371 -5.1669 -0.2091 0.9790
-1.2036 -5.1679 -0.2089 0.9790
-1.1036 -5.1711 -0.2081 0.9791
-1.0373 -5.1732 -0.2077 0.9791
-1.0043 -5.1742 -0.2075 0.9791
-0.9713 -5.1753 -0.2073 0.9791
-0.9384 -5.1763 -0.2071 0.9792
-0.9056 -5.1774 -0.2069 0.9792
-0.8400 -5.1795 -0.2065 0.9792
-0.8074 -5.1805 -0.2064 0.9792
-0.7096 -5.1836 -0.2059 0.9793
-0.6771 -5.1846 -0.2058 0.9793
-0.5799 -5.1877 -0.2055 0.9793
-0.4829 -5.1908 -0.2052 0.9793
-0.4184 -5.1929 -0.2051 0.9794
-0.3539 -5.1949 -0.2049 0.9794
-0.2574 -5.1980 -0.2048 0.9794
-0.2252 -5.1990 -0.2048 0.9794
-0.1287 -5.2021 -0.2048 0.9794
-0.0644 -5.2042 -0.2048 0.9794
0.0322 -5.2073 -0.2050 0.9794
0.0644 -5.2083 -0.2050 0.9794
0.0966 -5.2094 -0.2051 0.9794
0.1935 -5.2125 -0.2053 0.9793
0.2259 -5.2135 -0.2054 0.9793
0.2582 -5.2146 -0.2055 0.9793
0.2906 -5.2156 -0.2056 0.9793
0.3230 -5.2166 -0.2057 0.9793
0.4531 -5.2208 -0.2063 0.9792
0.4858 -5.2219 -0.2064 0.9792
0.5512 -5.2240 -0.2068 0.9792
0.5840 -5.2250 -0.2069 0.9792
3.5908 -28.8831 -1.1456 0.8900
4.1130 -28.7210 -1.1420 0.8903
4.2863 -28.6662 -1.1408 0.8904
4.6314 -28.5552 -1.1386 0.8907
4.8034 -28.4992 -1.1375 0.8907
5.1462 -28.3858 -1.1355 0.8909
5.3169 -28.3285 -1.1345 0.8910
5.4873 -28.2708 -1.1335 0.8911
5.6573 -28.2127 -1.1325 0.8912
5.8269 -28.1542 -1.1316 0.8913
5.9961 -28.0952 -1.1307 0.8914
6.1649 -28.0359 -1.1298 0.8914
6.3335 -27.9762 -1.1290 0.8915
6.5016 -27.9160 -1.1282 0.8916
6.8367 -27.7945 -1.1266 0.8917
7.0038 -27.7331 -1.1258 0.8918
7.1705 -27.6713 -1.1251 0.8919
7.6687 -27.4834 -1.1231 0.8921
7.9991 -27.3561 -1.1218 0.8922
8.4924 -27.1621 -1.1201 0.8923
8.6562 -27.0965 -1.1196 0.8924
8.9830 -26.9642 -1.1186 0.8925
9.1460 -26.8975 -1.1182 0.8925
9.3086 -26.8303 -1.1178 0.8925
9.6331 -26.6945 -1.1170 0.8926
9.9564 -26.5571 -1.1163 0.8927
10.1176 -26.4878 -1.1160 0.8927
10.2787 -26.4180 -1.1157 0.8927
10.4394 -26.3479 -1.1155 0.8927
10.5999 -26.2771 -1.1152 0.8928
10.7601 -26.2062 -1.1150 0.8928
11.0799 -26.0627 -1.1147 0.8928
11.5578 -25.8442 -1.1143 0.8929
11.7166 -25.7705 -1.1142 0.8929
12.8222 -25.2421 -1.1143 0.8929
13.2930 -25.0087 -1.1147 0.8928
13.6059 -24.8509 -1.1151 0.8928
13.7622 -24.7712 -1.1153 0.8928
13.9182 -24.6912 -1.1156 0.8927
14.0740 -24.6106 -1.1159 0.8927
14.2297 -24.5295 -1.1162 0.8927
14.3852 -24.4480 -1.1165 0.8927
14.6958 -24.2835 -1.1172 0.8926
15.0056 -24.1171 -1.1180 0.8925
15.3150 -23.9488 -1.1189 0.8924
16.0859 -23.5192 -1.1215 0.8922
16.2397 -23.4318 -1.1221 0.8921
16.5470 -23.2554 -1.1234 0.8920
17.1601 -22.8964 -1.1262 0.8918
17.3133 -22.8053 -1.1270 0.8917
17.6189 -22.6216 -1.1286 0.8916
17.7717 -22.5289 -1.1294 0.8915
17.9244 -22.4357 -1.1303 0.8914
18.2294 -22.2476 -1.1321 0.8912
18.3819 -22.1528 -1.1330 0.8912
18.5342 -22.0574 -1.1340 0.8911
19.1430 -21.6701 -1.1381 0.8907
19.2950 -21.5719 -1.1391 0.8906
19.5989 -21.3736 -1.1414 0.8904
20.2062 -20.9701 -1.1462 0.8900
20.3579 -20.8678 -1.1475 0.8898
18.3241 -18.5521 -1.0263 0.9009
18.3336 -18.3335 -1.0205 0.9014
18.3485 -18.1229 -1.0151 0.9019
18.5185 -17.8438 -1.0122 0.9022
18.5207 -17.6263 -1.0063 0.9027
18.6238 -17.5063 -1.0060 0.9027
18.6320 -17.2982 -1.0007 0.9032
18.6523 -16.8923 -0.9905 0.9042
18.6626 -16.6928 -0.9855 0.9046
18.6718 -16.4942 -0.9806 0.9051
18.6837 -16.3001 -0.9759 0.9055
18.5650 -15.9955 -0.9645 0.9066
18.5433 -15.3867 -0.9484 0.9080
18.5555 -15.2041 -0.9442 0.9084
18.8340 -15.0469 -0.9488 0.9080
19.0787 -15.0500 -0.9564 0.9073
19.3616 -15.0799 -0.9659 0.9064
22.9146 -16.7352 -1.1168 0.8926
23.0571 -16.6216 -1.1187 0.8925
23.1997 -16.5074 -1.1207 0.8923
23.4851 -16.2767 -1.1247 0.8919
23.6279 -16.1602 -1.1267 0.8917
23.9137 -15.9251 -1.1308 0.8914
24.0566 -15.8065 -1.1330 0.8912
24.1997 -15.6871 -1.1351 0.8910
24.4861 -15.4460 -1.1395 0.8906
24.6295 -15.3243 -1.1417 0.8904
24.7729 -15.2019 -1.1440 0.8902
24.9164 -15.0787 -1.1463 0.8900
25.3252 -13.8656 -1.1364 0.8908
25.3351 -13.6680 -1.1330 0.8912
25.3643 -13.0822 -1.1233 0.8920
25.7217 -12.8663 -1.1320 0.8913
26.2553 -12.7297 -1.1484 0.8898
26.2926 -11.9538 -1.1368 0.8908
26.3018 -11.7623 -1.1340 0.8911
26.3381 -11.0051 -1.1235 0.8920
26.3470 -10.8180 -1.1210 0.8922
26.3649 -10.4462 -1.1162 0.8927
26.3914 -9.8942 -1.1094 0.8933
26.4692 -9.7371 -1.1101 0.8932
19.1940 -6.6592 -0.7996 0.9219
19.1990 -6.3960 -0.7965 0.9222
19.2035 -6.2659 -0.7951 0.9223
19.2066 -6.1357 -0.7936 0.9225
19.2164 -5.7482 -0.7895 0.9228
19.2198 -5.6200 -0.7882 0.9230
19.2230 -5.4921 -0.7869 0.9231
19.2278 -5.3651 -0.7857 0.9232
19.2334 -5.1111 -0.7833 0.9234
19.2412 -4.8592 -0.7811 0.9236
19.2528 -4.4839 -0.7781 0.9239
19.2642 -4.1114 -0.7753 0.9242
19.2683 -3.9878 -0.7745 0.9243
19.2724 -3.8645 -0.7737 0.9243
19.2762 -3.7414 -0.7729 0.9244
19.2803 -3.6186 -0.7721 0.9245
19.3048 -3.0087 -0.7690 0.9248
19.3365 -2.7691 -0.7688 0.9248
19.5520 -2.5535 -0.7761 0.9241
26.7253 -2.9873 -1.0584 0.8979
26.7334 -2.8209 -1.0580 0.8980
26.7414 -2.6547 -1.0577 0.8980
26.7495 -2.4885 -1.0574 0.8980
26.7575 -2.3225 -1.0571 0.8981
26.7655 -2.1564 -1.0569 0.8981
26.7736 -1.9905 -1.0567 0.8981
26.8057 -1.3273 -1.0563 0.8981
26.8137 -1.1615 -1.0564 0.8981
26.8218 -0.9957 -1.0564 0.8981
26.8379 -0.6640 -1.0566 0.8981
26.6912 -0.3301 -1.0506 0.8987
26.7166 -0.1652 -1.0516 0.8986
26.7785 -0.0000 -1.0540 0.8983
20.1859 0.3746 -0.7946 0.9224
19.6027 0.4850 -0.7718 0.9245
19.0305 0.5887 -0.7494 0.9266
20.3264 0.7546 -0.8006 0.9218
20.3440 0.8812 -0.8015 0.9217
20.3588 1.1343 -0.8026 0.9216
20.3663 1.2611 -0.8031 0.9216
19.1124 1.4210 -0.7543 0.9261
19.0031 1.5311 -0.7504 0.9265
20.3918 1.7699 -0.8056 0.9213
20.3984 1.8977 -0.8063 0.9213
20.4052 2.0257 -0.8071 0.9212
20.4100 2.1537 -0.8078 0.9211
20.3220 2.3989 -0.8054 0.9213
19.0258 2.3653 -0.7546 0.9261
19.6737 2.6933 -0.7816 0.9236
28.5614 4.0901 -1.1356 0.8909
28.5885 4.6368 -1.1399 0.8905
28.5949 4.8195 -1.1414 0.8904
28.6218 5.3719 -1.1462 0.8900
28.6308 5.5571 -1.1479 0.8898
28.6581 6.1162 -1.1534 0.8893
27.0383 5.9455 -1.0896 0.8951
27.2266 6.5187 -1.1019 0.8940
28.7041 7.0604 -1.1635 0.8884
28.7227 7.4429 -1.1679 0.8880
28.7321 7.6353 -1.1701 0.8878
28.7415 7.8284 -1.1725 0.8876
28.7510 8.0223 -1.1748 0.8874
28.7700 8.4125 -1.1798 0.8869
28.7989 9.0042 -1.1876 0.8862
27.7834 9.0654 -1.1503 0.8896
27.8120 9.4569 -1.1562 0.8891
27.8230 9.6530 -1.1591 0.8888
27.8564 9.8580 -1.1630 0.8884
28.8746 10.4197 -1.2082 0.8844
28.8977 11.0381 -1.2175 0.8835
28.9213 11.6665 -1.2275 0.8826
50.2128 20.9810 -2.1419 0.8042
50.2310 21.3544 -2.1483 0.8037
50.2493 21.7301 -2.1548 0.8032
50.2676 22.1080 -2.1614 0.8027
50.2861 22.4884 -2.1681 0.8021
28.8102 13.0985 -1.2456 0.8810
28.6001 13.4323 -1.2437 0.8812
28.4953 13.5988 -1.2427 0.8813
28.3906 13.7650 -1.2419 0.8813
28.0775 14.2625 -1.2395 0.8816
34.7767 18.4850 -1.5501 0.8541
29.3658 15.8426 -1.3133 0.8750
27.9195 15.5112 -1.2571 0.8800
27.5505 15.5299 -1.2448 0.8811
27.4655 16.3902 -1.2589 0.8798
27.4772 16.6284 -1.2641 0.8794
27.4890 16.8687 -1.2694 0.8789
27.5008 17.1110 -1.2748 0.8784
27.6574 17.4465 -1.2871 0.8773
29.0552 18.8346 -1.3628 0.8706
29.3000 19.2517 -1.3799 0.8691
27.9872 18.8888 -1.3290 0.8736
27.8564 19.0523 -1.3283 0.8736
29.3951 21.1906 -1.4263 0.8650
29.4092 21.4783 -1.4334 0.8643
29.4524 22.3594 -1.4554 0.8624
27.9594 21.4998 -1.3882 0.8683
27.9735 21.7873 -1.3956 0.8677
27.9623 22.0577 -1.4018 0.8671
29.5280 23.5905 -1.4876 0.8596
29.5359 23.8976 -1.4954 0.8589
29.5587 24.5271 -1.5118 0.8575
29.5746 24.8507 -1.5204 0.8567
29.1965 24.8426 -1.5089 0.8577
28.0528 25.4059 -1.4896 0.8594
29.6912 27.2258 -1.5856 0.8511
29.7626 28.6782 -1.6268 0.8475
29.7996 29.4333 -1.6486 0.8456
28.2671 28.2671 -1.5734 0.8521
28.3295 29.0391 -1.5968 0.8501
28.3271 29.3982 -1.6069 0.8492
28.3461 29.7844 -1.6183 0.8482
28.3654 30.1762 -1.6301 0.8472
23.1539 24.9393 -1.3394 0.8726
29.7945 34.1513 -1.7838 0.8341
29.4399 34.1691 -1.7752 0.8348
29.0887 34.1868 -1.7667 0.8355
28.7409 34.2043 -1.7584 0.8362
28.0547 34.2387 -1.7422 0.8376
27.3811 34.2726 -1.7266 0.8389
27.0487 34.2893 -1.7190 0.8396
26.7193 34.3058 -1.7115 0.8402
26.0688 34.3385 -1.6969 0.8415
25.7477 34.3546 -1.6898 0.8421
25.4293 34.3706 -1.6828 0.8427
25.1134 34.3864 -1.6759 0.8433
24.4391 34.8006 -1.6737 0.8435
24.4581 35.7602 -1.7052 0.8408
24.4679 36.2536 -1.7215 0.8394
24.4779 36.7566 -1.7382 0.8380
24.5090 38.3260 -1.7906 0.8335
24.5198 38.8704 -1.8089 0.8320
24.5421 39.9936 -1.8469 0.8287
24.5613 40.5857 -1.8672 0.8270
24.5997 42.4059 -1.9296 0.8218
24.6267 43.6887 -1.9739 0.8181
24.6551 45.0321 -2.0207 0.8142
24.6754 45.7384 -2.0455 0.8122
24.6899 46.4505 -2.0705 0.8101
24.7048 47.1803 -2.0962 0.8080
24.7201 47.9284 -2.1226 0.8058
24.7358 48.6956 -2.1497 0.8036
24.7518 49.4827 -2.1777 0.8013
24.7826 51.1147 -2.2358 0.7966
24.8016 51.9702 -2.2665 0.7941
24.8212 52.8496 -2.2981 0.7916
24.8413 53.7539 -2.3307 0.7890
24.2034 53.2355 -2.3018 0.7913
24.8833 55.6419 -2.3991 0.7835
24.9027 56.6223 -2.4346 0.7807
24.9247 57.6369 -2.4716 0.7777
24.9474 58.6828 -2.5098 0.7747
24.9708 59.7617 -2.5493 0.7716
25.0240 62.0347 -2.6328 0.7651
25.0731 64.4427 -2.7216 0.7582
-4.7294 69.4147 -2.7384 0.7569
-5.0408 62.5651 -2.4705 0.7778
-5.3712 57.7357 -2.2823 0.7929
-6.8344 57.8967 -2.2946 0.7919
-7.1999 57.9147 -2.2970 0.7917
-7.5563 57.8563 -2.2964 0.7917
-7.9212 57.8609 -2.2986 0.7915
-9.0261 57.9151 -2.3070 0.7909
-10.5290 58.0780 -2.3232 0.7896
-10.9039 58.0964 -2.3266 0.7893
-11.2624 58.0248 -2.3264 0.7893
-12.0166 58.0617 -2.3337 0.7887
-12.3954 58.0803 -2.3375 0.7884
-15.4181 68.1052 -2.7484 0.7561
-15.7447 67.6039 -2.7321 0.7574
-16.6396 67.6477 -2.7420 0.7566
-6.7761 22.1525 -0.9118 0.9114
-7.0843 21.7120 -0.8989 0.9126
-4.4023 13.2144 -0.5482 0.9458
-7.6710 21.2574 -0.8895 0.9135
-7.9669 21.2505 -0.8933 0.9132
-8.1111 21.2348 -0.8947 0.9130
-8.2183 21.1225 -0.8921 0.9133
-8.2772 20.1590 -0.8577 0.9165
-8.3479 19.6365 -0.8398 0.9181
-8.3262 18.9316 -0.8140 0.9205
-8.3816 18.4354 -0.7971 0.9221
-7.1254 15.1714 -0.6597 0.9351
-7.1677 15.0193 -0.6550 0.9356
-7.1782 14.8052 -0.6476 0.9363
-7.0863 14.3882 -0.6313 0.9378
-7.1665 14.3270 -0.6305 0.9379
-7.2839 14.1222 -0.6254 0.9384
-7.3813 13.8868 -0.6190 0.9390
-7.6003 13.8817 -0.6229 0.9386
-7.6823 13.8279 -0.6226 0.9386
-7.7644 13.7742 -0.6223 0.9387
-7.9283 13.6670 -0.6219 0.9387
-7.3198 11.9283 -0.5508 0.9455
-7.3346 11.6274 -0.5411 0.9465
-7.2291 11.3045 -0.5282 0.9477
-7.3807 11.0830 -0.5241 0.9481
-7.5167 10.8456 -0.5194 0.9485
-7.5426 10.7405 -0.5166 0.9488
-7.7471 10.7466 -0.5214 0.9483
-7.8157 10.7017 -0.5216 0.9483
-7.8844 10.6567 -0.5218 0.9483
-7.9291 10.5796 -0.5204 0.9485
-8.0219 10.5667 -0.5222 0.9483
-8.0908 10.5216 -0.5224 0.9483
-8.3429 10.3113 -0.5221 0.9483
-8.4402 10.3007 -0.5241 0.9481
-8.6373 10.2791 -0.5284 0.9477
-8.7370 10.2682 -0.5307 0.9475
-8.7576 10.1645 -0.5281 0.9477
-8.7807 9.6955 -0.5148 0.9490
-8.7863 9.5819 -0.5117 0.9493
-8.8616 9.1967 -0.5027 0.9502
-8.8669 9.0890 -0.4998 0.9504
-8.8789 8.9894 -0.4973 0.9507
-8.8824 8.7732 -0.4914 0.9513
-8.9046 8.4746 -0.4838 0.9520
-8.8626 8.0264 -0.4706 0.9533
-8.8672 7.9313 -0.4683 0.9535
-8.8719 7.8372 -0.4659 0.9537
-8.8764 7.7440 -0.4636 0.9539
-8.8469 7.6224 -0.4596 0.9543
-8.8467 7.5274 -0.4572 0.9546
-8.9529 7.3358 -0.4556 0.9547
-8.9572 7.2473 -0.4535 0.9549
-8.9615 7.1595 -0.4515 0.9551
-8.9657 7.0725 -0.4495 0.9553
-8.9865 6.6487 -0.4400 0.9562
-8.9906 6.5661 -0.4382 0.9564
-8.9020 6.4173 -0.4319 0.9570
-8.9480 6.2838 -0.4304 0.9572
-8.9519 6.2042 -0.4287 0.9573
-8.9596 6.0469 -0.4254 0.9577
-8.9634 5.9691 -0.4239 0.9578
-8.4576 5.2623 -0.3921 0.9609
-7.7369 4.5524 -0.3533 0.9647
-7.6596 4.3803 -0.3473 0.9653
-7.5784 4.2719 -0.3424 0.9658
-7.5954 4.2197 -0.3420 0.9658
-7.7071 4.0356 -0.3424 0.9658
-7.7129 3.9179 -0.3405 0.9660
-7.7186 3.8014 -0.3386 0.9661
-7.7214 3.7437 -0.3377 0.9662
-7.7242 3.6862 -0.3369 0.9663
-7.7270 3.6291 -0.3360 0.9664
-7.6172 3.4631 -0.3293 0.9671
-7.7208 3.3388 -0.3311 0.9669
-7.7989 3.2022 -0.3318 0.9668
-7.8250 3.1565 -0.3321 0.9668
-7.8512 3.1107 -0.3324 0.9668
-7.9036 3.0190 -0.3330 0.9667
-7.8860 2.9565 -0.3315 0.9668
-7.9295 2.9170 -0.3325 0.9667
-8.1226 2.9311 -0.3399 0.9660
-8.3018 2.7657 -0.3444 0.9656
-8.4085 2.7436 -0.3481 0.9652
-8.5268 2.6660 -0.3516 0.9649
-8.5869 2.6266 -0.3534 0.9647
-8.5963 2.5714 -0.3532 0.9647
-8.5663 2.5048 -0.3513 0.9649
-8.8681 2.4745 -0.3624 0.9638
-9.0225 2.4575 -0.3681 0.9633
-9.7979 2.4744 -0.3978 0.9604
-11.7910 2.6693 -0.4758 0.9528
-12.6039 2.6085 -0.5066 0.9498
-13.1355 2.6339 -0.5273 0.9478
-13.7124 2.6615 -0.5498 0.9456
-33.8754 5.7095 -1.3521 0.8715
-33.8858 5.4959 -1.3512 0.8716
-33.8962 5.2827 -1.3502 0.8717
-33.9065 5.0697 -1.3494 0.8718
-33.9168 4.8570 -1.3486 0.8718
-33.9374 4.4324 -1.3471 0.8720
-33.9477 4.2204 -1.3465 0.8720
-33.9888 3.3741 -1.3444 0.8722
-33.9991 3.1629 -1.3440 0.8722
-34.0809 1.4763 -1.3427 0.8724
-34.0911 1.2656 -1.3427 0.8724
-34.1218 0.6331 -1.3432 0.8723
-34.1469 0.0000 -1.5980 0.8722
-34.1571 -0.2112 -1.5985 0.8722
-34.1674 -0.4226 -1.5991 0.8721
-34.1776 -0.6341 -1.5997 0.8721
-34.1981 -1.0578 -1.6012 0.8720
-34.2084 -1.2699 -1.6020 0.8719
-34.2290 -1.6948 -1.6038 0.8718
-34.2392 -1.9077 -1.6048 0.8717
-34.2496 -2.1208 -1.6059 0.8716
-34.2702 -2.5479 -1.6082 0.8714
-34.2806 -2.7619 -1.6095 0.8713
-15.7332 -1.5619 -0.7399 0.9387
-15.0907 -1.5924 -0.7101 0.9410
-13.9492 -1.6466 -0.6573 0.9453
-13.4398 -1.6708 -0.6338 0.9472
-12.5229 -1.7144 -0.5915 0.9506
-11.3559 -1.7698 -0.5379 0.9550
-10.2239 -1.7232 -0.4852 0.9593
-9.6543 -1.7502 -0.4592 0.9615
-9.3918 -1.7627 -0.4472 0.9625
-9.1863 -1.7830 -0.4379 0.9632
-8.8996 -1.8419 -0.4253 0.9643
-8.6917 -1.9112 -0.4165 0.9650
-8.4826 -2.0309 -0.4082 0.9657
-8.4147 -2.0698 -0.4055 0.9659
-8.3477 -2.1081 -0.4029 0.9661
-8.3010 -2.1511 -0.4013 0.9662
-8.1422 -2.3263 -0.3963 0.9667
-8.1031 -2.3694 -0.3951 0.9668
-8.0643 -2.4122 -0.3939 0.9669
-8.0256 -2.4549 -0.3928 0.9670
-7.9913 -2.4985 -0.3918 0.9670
-7.9699 -2.5460 -0.3915 0.9671
-7.9272 -2.6409 -0.3910 0.9671
-7.8847 -2.7355 -0.3906 0.9671
-7.8635 -2.7828 -0.3904 0.9671
-7.8423 -2.8300 -0.3902 0.9672
-7.8211 -2.8771 -0.3900 0.9672
-7.7999 -2.9242 -0.3898 0.9672
-7.7881 -2.9748 -0.3902 0.9672
-7.8173 -3.1534 -0.3945 0.9668
-7.8055 -3.2615 -0.3959 0.9667
-7.7936 -3.3703 -0.3974 0.9666
-7.7877 -3.4251 -0.3981 0.9665
-7.8098 -3.5507 -0.4015 0.9662
-7.8643 -3.8129 -0.4090 0.9656
-7.9939 -3.9987 -0.4183 0.9648
-8.1460 -4.2655 -0.4303 0.9638
-8.4429 -4.6225 -0.4505 0.9622
-9.4106 -5.3816 -0.5073 0.9575
-9.1842 -5.5581 -0.5024 0.9579
-8.9517 -5.5697 -0.4934 0.9587
-8.8385 -5.5754 -0.4890 0.9590
-8.5628 -5.5507 -0.4776 0.9600
-8.4851 -5.5752 -0.4751 0.9602
-8.4933 -5.7322 -0.4795 0.9598
-9.5311 -6.6932 -0.5450 0.9544
-8.0305 -5.7139 -0.4612 0.9613
-9.4498 -6.9915 -0.5501 0.9540
-9.4363 -7.0722 -0.5519 0.9539
-8.9911 -7.0925 -0.5359 0.9552
-8.8838 -7.0974 -0.5321 0.9555
-8.6290 -7.0705 -0.5221 0.9563
-8.3265 -7.0848 -0.5116 0.9572
-8.1630 -7.1217 -0.5070 0.9575
-8.1602 -7.2085 -0.5095 0.9573
-7.9868 -7.2332 -0.5043 0.9578
-8.1519 -7.4750 -0.5176 0.9567
-8.0143 -7.4406 -0.5118 0.9572
-9.2582 -8.8111 -0.5981 0.9501
-9.1494 -8.8161 -0.5946 0.9504
-8.9357 -8.8259 -0.5878 0.9510
-8.8309 -8.8309 -0.5844 0.9512
-8.7272 -8.8358 -0.5812 0.9515
-8.3234 -8.8548 -0.5687 0.9525
-8.1908 -8.8223 -0.5634 0.9529
-8.1031 -8.9473 -0.5649 0.9528
-8.0989 -9.0547 -0.5685 0.9525
-7.9289 -8.9757 -0.5605 0.9532
-8.7619 -10.0431 -0.6237 0.9480
-8.7062 -10.1047 -0.6242 0.9480
-8.4358 -10.4261 -0.6276 0.9477
-8.3975 -10.5111 -0.6296 0.9476
-8.3204 -10.6829 -0.6337 0.9472
-8.2814 -10.7695 -0.6358 0.9471
-8.2433 -10.9989 -0.6432 0.9464
-8.8179 -12.8926 -0.7310 0.9394
-5.0421 -7.4708 -0.4218 0.9646
-4.9659 -7.4569 -0.4193 0.9648
-4.9087 -7.4708 -0.4183 0.9648
-4.8649 -7.5048 -0.4185 0.9648
-4.8320 -7.5560 -0.4197 0.9647
-4.8297 -7.6564 -0.4236 0.9644
-5.2347 -8.6501 -0.4732 0.9603
-5.1640 -8.6535 -0.4716 0.9605
-5.0937 -8.6569 -0.4701 0.9606
-5.0238 -8.6603 -0.4685 0.9607
-4.9545 -8.6637 -0.4671 0.9608
-4.8855 -8.6670 -0.4656 0.9609
-4.6138 -8.6802 -0.4600 0.9614
-4.5469 -8.6834 -0.4587 0.9615
-4.4803 -8.6867 -0.4574 0.9616
-4.3900 -8.6423 -0.4536 0.9619
-4.3437 -8.6837 -0.4544 0.9619
-2.5257 -5.1283 -0.2675 0.9774
-2.4870 -5.1295 -0.2668 0.9774
-2.4485 -5.1307 -0.2660 0.9775
-2.4102 -5.1319 -0.2653 0.9776
-2.2966 -5.1355 -0.2633 0.9777
-2.2591 -5.1366 -0.2626 0.9778
-2.2218 -5.1378 -0.2620 0.9778
-2.1847 -5.1390 -0.2613 0.9779
-2.1110 -5.1412 -0.2601 0.9780
-2.0379 -5.1435 -0.2589 0.9781
-1.9656 -5.1458 -0.2578 0.9782
-1.7872 -5.1514 -0.2552 0.9784
-1.7520 -5.1525 -0.2547 0.9784
-1.7169 -5.1536 -0.2542 0.9785
-1.6819 -5.1547 -0.2537 0.9785
-1.6471 -5.1558 -0.2533 0.9786
-1.5777 -5.1579 -0.2524 0.9786
-1.5432 -5.1591 -0.2520 0.9787
-1.4064 -5.1634 -0.2504 0.9788
-1.3048 -5.1666 -0.2494 0.9789
-1.2711 -5.1676 -0.2490 0.9789
-1.2040 -5.1697 -0.2484 0.9790
-1.1706 -5.1708 -0.2481 0.9790
-1.0046 -5.1760 -0.2467 0.9791
-0.9387 -5.1781 -0.2463 0.9791
-0.9059 -5.1792 -0.2461 0.9792
-0.7750 -5.1833 -0.2453 0.9792
-0.7099 -5.1854 -0.2449 0.9793
-0.6449 -5.1875 -0.2446 0.9793
-0.5154 -5.1916 -0.2441 0.9793
-0.4186 -5.1947 -0.2439 0.9793
-0.3863 -5.1957 -0.2438 0.9794
-0.3219 -5.1978 -0.2437 0.9794
-0.2896 -5.1988 -0.2437 0.9794
-0.2575 -5.1998 -0.2436 0.9794
-0.1931 -5.2019 -0.2436 0.9794
-0.1609 -5.2029 -0.2436 0.9794
-0.1287 -5.2039 -0.2436 0.9794
-0.0644 -5.2060 -0.2436 0.9794
-0.0322 -5.2070 -0.2437 0.9794
0.0322 -5.2091 -0.2438 0.9794
0.0645 -5.2101 -0.2438 0.9794
0.1290 -5.2122 -0.2440 0.9793
0.2583 -5.2163 -0.2444 0.9793
0.2907 -5.2174 -0.2445 0.9793
0.3231 -5.2185 -0.2447 0.9793
0.3556 -5.2195 -0.2448 0.9793
0.4207 -5.2216 -0.2452 0.9792
0.4533 -5.2226 -0.2453 0.9792
0.5187 -5.2247 -0.2457 0.9792
0.5843 -5.2269 -0.2461 0.9792
0.6171 -5.2279 -0.2464 0.9791
3.4570 -26.4683 -1.2492 0.8986
3.7768 -26.3731 -1.2468 0.8988
3.9362 -26.3250 -1.2456 0.8989
4.0951 -26.2762 -1.2445 0.8990
4.5701 -26.1279 -1.2413 0.8992
4.7277 -26.0774 -1.2403 0.8993
5.0418 -25.9755 -1.2383 0.8995
5.1983 -25.9238 -1.2373 0.8995
5.6659 -25.7664 -1.2346 0.8997
5.8211 -25.7131 -1.2338 0.8998
6.5923 -25.4399 -1.2299 0.9001
6.8986 -25.3278 -1.2285 0.9002
7.2037 -25.2137 -1.2272 0.9003
7.3558 -25.1562 -1.2265 0.9004
7.8104 -24.9807 -1.2249 0.9005
8.2625 -24.8014 -1.2234 0.9006
9.0105 -24.4938 -1.2214 0.9008
9.3079 -24.3677 -1.2207 0.9008
9.4562 -24.3041 -1.2204 0.9008
9.6042 -24.2399 -1.2202 0.9009
9.8996 -24.1103 -1.2197 0.9009
10.0470 -24.0449 -1.2195 0.9009
10.4876 -23.8458 -1.2191 0.9009
10.9261 -23.6428 -1.2189 0.9010
11.2174 -23.5052 -1.2188 0.9010
11.5078 -23.3657 -1.2189 0.9010
11.7973 -23.2245 -1.2190 0.9009
12.0861 -23.0814 -1.2193 0.9009
12.2302 -23.0092 -1.2194 0.9009
12.3741 -22.9365 -1.2196 0.9009
12.8045 -22.7156 -1.2203 0.9008
12.9477 -22.6411 -1.2206 0.9008
13.0906 -22.5660 -1.2209 0.9008
13.3760 -22.4146 -1.2215 0.9008
13.5184 -22.3381 -1.2219 0.9007
13.6606 -22.2611 -1.2223 0.9007
13.8027 -22.1838 -1.2227 0.9007
13.9446 -22.1058 -1.2231 0.9006
14.5106 -21.7894 -1.2251 0.9005
15.0741 -21.4651 -1.2275 0.9003
15.3549 -21.2999 -1.2288 0.9002
15.4951 -21.2166 -1.2295 0.9001
15.6352 -21.1328 -1.2302 0.9001
15.7752 -21.0484 -1.2310 0.9000
15.9149 -20.9635 -1.2317 0.9000
16.0546 -20.8782 -1.2325 0.8999
16.3336 -20.7059 -1.2342 0.8998
16.8900 -20.3549 -1.2378 0.8995
17.0289 -20.2659 -1.2388 0.8994
17.3062 -20.0861 -1.2408 0.8993
17.4446 -19.9954 -1.2418 0.8992
17.8594 -19.7201 -1.2451 0.8989
18.8239 -19.0581 -1.2536 0.8983
18.9613 -18.9612 -1.2549 0.8982
18.3920 -17.9426 -1.2024 0.9022
18.5403 -17.2131 -1.1839 0.9037
18.5608 -16.8095 -1.1719 0.9046
18.6558 -16.2759 -1.1586 0.9056
18.6211 -16.0438 -1.1503 0.9063
18.5352 -15.5746 -1.1330 0.9076
18.5680 -15.2144 -1.1234 0.9083
18.8573 -15.0654 -1.1295 0.9079
19.1136 -15.0775 -1.1393 0.9071
19.9328 -15.1324 -1.1712 0.9046
20.8854 -15.4521 -1.2158 0.9012
20.9666 -15.3125 -1.2150 0.9013
21.0939 -15.2063 -1.2169 0.9011
21.3485 -14.9921 -1.2208 0.9008
21.4758 -14.8841 -1.2228 0.9007
21.6030 -14.7753 -1.2248 0.9005
21.7302 -14.6659 -1.2269 0.9003
21.9846 -14.4450 -1.2310 0.9000
22.1117 -14.3336 -1.2332 0.8999
22.3659 -14.1086 -1.2375 0.8995
22.4930 -13.9951 -1.2397 0.8994
22.6201 -13.8808 -1.2420 0.8992
23.0013 -13.5339 -1.2489 0.8986
23.1284 -13.4168 -1.2513 0.8985
23.3825 -13.1804 -1.2561 0.8981
23.5095 -13.0611 -1.2586 0.8979
23.6366 -12.9410 -1.2611 0.8977
23.8907 -12.6987 -1.2662 0.8973
24.0178 -12.5763 -1.2687 0.8971
24.2720 -12.3294 -1.2740 0.8967
24.6534 -11.9530 -1.2822 0.8961
24.9076 -11.6980 -1.2878 0.8957
25.0348 -11.5694 -1.2906 0.8954
25.1620 -11.4398 -1.2935 0.8952
25.4165 -11.1783 -1.2994 0.8948
25.5438 -11.0463 -1.3024 0.8945
25.6711 -10.9134 -1.3054 0.8943
26.0532 -10.5095 -1.3147 0.8936
26.4964 -9.7471 -1.3212 0.8931
26.8185 -9.6777 -1.3343 0.8921
26.9461 -9.5358 -1.3377 0.8918
19.1999 -6.5285 -0.9490 0.9220
19.2135 -6.1379 -0.9439 0.9224
19.2202 -6.0093 -0.9424 0.9225
19.2235 -5.8801 -0.9408 0.9227
19.2270 -5.7514 -0.9392 0.9228
19.2263 -5.4930 -0.9358 0.9231
19.2326 -5.2384 -0.9328 0.9233
19.2365 -5.1119 -0.9315 0.9234
19.2596 -4.3601 -0.9241 0.9240
19.2634 -4.2359 -0.9230 0.9241
19.2710 -3.9883 -0.9210 0.9242
19.2786 -3.7419 -0.9190 0.9244
19.2904 -3.3741 -0.9165 0.9246
19.2942 -3.2519 -0.9157 0.9246
19.2982 -3.1300 -0.9149 0.9247
19.3312 -2.7683 -0.9139 0.9248
19.3688 -2.6516 -0.9149 0.9247
19.5494 -2.5532 -0.9226 0.9241
20.7859 -2.5841 -0.9802 0.9195
26.7297 -2.9878 -1.2587 0.8979
26.7378 -2.8214 -1.2582 0.8979
26.7620 -2.3229 -1.2571 0.8980
26.7701 -2.1568 -1.2568 0.8980
26.8183 -1.1617 -1.2562 0.8981
19.1340 -0.5919 -0.8959 0.9262
19.0573 -0.1179 -0.8919 0.9265
19.0382 0.0000 -0.8909 0.9266
19.0016 0.2351 -0.8893 0.9267
18.9795 0.3522 -0.8884 0.9268
18.9968 0.4700 -0.8893 0.9267
19.0049 0.5878 -0.8898 0.9267
19.0074 0.7056 -0.8901 0.9267
18.9832 0.9400 -0.8895 0.9267
20.3565 1.1342 -0.9541 0.9216
20.3644 1.2610 -0.9548 0.9215
19.5034 1.3288 -0.9148 0.9247
19.1147 1.4211 -0.8970 0.9261
26.2493 2.6058 -1.2344 0.8998
19.4484 2.0522 -0.9152 0.9247
19.2833 2.1555 -0.9080 0.9252
26.2018 3.0930 -1.2347 0.8997
20.1221 2.5016 -0.9489 0.9220
19.5123 2.6712 -0.9216 0.9242
19.5393 2.7981 -0.9237 0.9240
26.9151 4.1947 -1.2748 0.8967
26.9321 4.5393 -1.2781 0.8964
26.9406 4.7122 -1.2799 0.8963
26.9492 4.8856 -1.2817 0.8961
27.2553 7.4236 -1.3220 0.8930
27.2643 7.6075 -1.3246 0.8928
27.2914 8.1637 -1.3331 0.8922
27.3005 8.3507 -1.3360 0.8920
27.3189 8.7273 -1.3421 0.8915
27.8503 9.4699 -1.3766 0.8889
27.8639 9.8607 -1.3832 0.8884
28.9940 10.6659 -1.4458 0.8836
29.0182 11.2903 -1.4572 0.8828
29.0264 11.5007 -1.4611 0.8825
29.0347 11.7122 -1.4651 0.8822
42.6234 17.5009 -2.1563 0.8315
42.7623 17.8678 -2.1688 0.8306
42.9013 18.2384 -2.1816 0.8297
43.0402 18.6125 -2.1945 0.8288
43.1793 18.9904 -2.2075 0.8279
28.8090 13.0980 -1.4810 0.8810
28.5989 13.4317 -1.4786 0.8812
28.4941 13.5982 -1.4775 0.8812
28.3895 13.7645 -1.4765 0.8813
28.2850 13.9305 -1.4755 0.8814
28.1806 14.0963 -1.4746 0.8815
27.9723 14.4274 -1.4729 0.8816
44.7109 23.4119 -2.3619 0.8170
34.7562 18.4741 -1.8420 0.8542
28.0992 15.6110 -1.5043 0.8792
27.7279 15.6299 -1.4896 0.8803
27.4364 15.6900 -1.4791 0.8811
27.4478 15.9226 -1.4850 0.8807
27.4593 16.1570 -1.4910 0.8802
27.4709 16.3933 -1.4971 0.8798
27.4826 16.6317 -1.5033 0.8793
27.4944 16.8720 -1.5096 0.8788
27.5063 17.1144 -1.5161 0.8783
29.0533 18.8334 -1.6203 0.8705
29.3059 19.2556 -1.6410 0.8690
29.3191 19.5250 -1.6485 0.8684
27.9737 18.8796 -1.5794 0.8736
27.8445 19.0441 -1.5787 0.8736
29.3733 20.6276 -1.6797 0.8661
27.9140 20.1229 -1.6104 0.8713
29.4296 21.7736 -1.7132 0.8636
29.4441 22.0674 -1.7220 0.8630
29.4587 22.3641 -1.7309 0.8623
27.5563 22.0153 -1.6506 0.8683
29.5340 23.8960 -1.7779 0.8589
29.5495 24.2125 -1.7878 0.8581
29.5653 24.5325 -1.7979 0.8574
29.5812 24.8562 -1.8082 0.8567
29.2030 24.8482 -1.7945 0.8577
28.1365 25.4816 -1.7765 0.8590
29.7334 27.9493 -1.9097 0.8492
29.7696 28.6850 -1.9347 0.8474
29.7881 29.0602 -1.9475 0.8465
20.9443 21.4689 -1.4036 0.8868
20.7114 21.4945 -1.3969 0.8873
20.4746 21.5135 -1.3899 0.8879
20.0326 21.5772 -1.3779 0.8888
19.8909 21.6921 -1.3773 0.8888
19.8464 22.1885 -1.3931 0.8876
29.7833 34.1384 -2.1201 0.8341
28.7302 34.1916 -2.0900 0.8362
27.7062 34.2432 -2.0614 0.8383
27.3711 34.2601 -2.0521 0.8390
26.0595 34.3262 -2.0169 0.8415
25.1045 34.3743 -1.9920 0.8433
24.6381 34.6268 -1.9888 0.8435
24.4556 35.2863 -2.0091 0.8420
24.5060 37.8040 -2.1083 0.8349
24.5166 38.3379 -2.1296 0.8334
24.5275 38.8826 -2.1514 0.8319
24.5386 39.4387 -2.1737 0.8303
24.5809 41.1911 -2.2448 0.8252
24.6070 42.4184 -2.2949 0.8217
24.6342 43.7019 -2.3477 0.8180
24.6483 44.3661 -2.3751 0.8161
24.6628 45.0460 -2.4033 0.8141
24.6980 46.4656 -2.4626 0.8100
24.7603 49.4996 -2.5901 0.8012
24.7769 50.3080 -2.6244 0.7989
24.8503 53.7732 -2.7722 0.7888
24.1829 53.1906 -2.7341 0.7914
24.8926 55.6624 -2.8535 0.7834
24.9348 57.6601 -2.9399 0.7776
24.9576 58.7068 -2.9853 0.7746
24.9812 59.7865 -3.0323 0.7715
25.0055 60.9007 -3.0809 0.7683
25.0354 62.0631 -3.1318 0.7649
-1.7388 56.2162 -2.6321 0.7983
-3.5503 57.3356 -2.6883 0.7945
-5.3695 57.7180 -2.7127 0.7928
-5.7316 57.7358 -2.7152 0.7927
-6.0942 57.7536 -2.7178 0.7925
-6.4576 57.7714 -2.7204 0.7923
-7.5522 57.8251 -2.7291 0.7917
-8.0957 54.1443 -2.5620 0.8031
-9.3934 57.9154 -2.7457 0.7906
-10.1364 57.9518 -2.7532 0.7901
-10.8836 57.9884 -2.7611 0.7896
-11.2589 58.0067 -2.7653 0.7893
-11.6353 58.0251 -2.7695 0.7890
-12.3916 58.0621 -2.7784 0.7884
-15.6780 67.3175 -3.2346 0.7582
-15.8882 66.3597 -3.1933 0.7609
-17.2126 66.4243 -3.2112 0.7597
-17.6575 66.4461 -3.2175 0.7593
-17.8223 65.4335 -3.1737 0.7622
-6.7734 22.1440 -1.0837 0.9114
-4.4005 13.2091 -0.6516 0.9458
-4.4719 13.1516 -0.6501 0.9459
-7.5889 21.4445 -1.0645 0.9129
-7.6683 21.2501 -1.0572 0.9135
-7.8204 21.2590 -1.0601 0.9133
-7.9642 21.2433 -1.0617 0.9132
-8.1084 21.2277 -1.0634 0.9130
-8.2317 20.7760 -1.0458 0.9144
-8.2746 20.1526 -1.0195 0.9165
-8.3297 19.9351 -1.0111 0.9171
-8.2719 19.1283 -0.9753 0.9199
-8.3232 18.9247 -0.9675 0.9205
-8.3050 18.5709 -0.9520 0.9218
-8.3788 18.4292 -0.9474 0.9221
-7.0379 15.2291 -0.7851 0.9350
-7.1229 15.1662 -0.7841 0.9351
-7.1652 15.0142 -0.7785 0.9356
-7.2230 14.2194 -0.7464 0.9381
-7.3394 14.0164 -0.7404 0.9386
-7.5155 13.9307 -0.7407 0.9386
-7.5976 13.8769 -0.7404 0.9386
-7.7617 13.7696 -0.7397 0.9387
-7.8437 13.7160 -0.7394 0.9387
-7.4122 12.5972 -0.6840 0.9432
-7.1880 12.0452 -0.6564 0.9454
-7.2785 12.0271 -0.6579 0.9453
-7.3252 11.7731 -0.6489 0.9460
-7.2270 11.3012 -0.6278 0.9477
-7.3325 11.1596 -0.6249 0.9479
-7.3783 11.0795 -0.6229 0.9481
-7.4240 10.9999 -0.6210 0.9482
-7.5143 10.8422 -0.6173 0.9485
-7.6759 10.7878 -0.6196 0.9484
-7.9264 10.5760 -0.6185 0.9485
-8.0880 10.5180 -0.6209 0.9483
-8.3396 10.3073 -0.6205 0.9483
-8.4369 10.2967 -0.6230 0.9481
-8.5350 10.2859 -0.6255 0.9479
-8.6339 10.2751 -0.6281 0.9477
-8.7336 10.2642 -0.6307 0.9475
-8.7556 10.1621 -0.6277 0.9477
-8.7603 9.3195 -0.5986 0.9501
-8.7601 9.2046 -0.5946 0.9504
-8.8702 8.9805 -0.5907 0.9507
-8.8955 8.4659 -0.5747 0.9520
-8.9004 8.3663 -0.5716 0.9523
-8.8607 8.0246 -0.5594 0.9533
-8.8654 7.9296 -0.5566 0.9535
-8.8746 7.7424 -0.5511 0.9539
-8.8449 7.5260 -0.5435 0.9546
-8.9510 7.3344 -0.5415 0.9547
-8.9640 7.0711 -0.5343 0.9553
-8.9682 6.9849 -0.5320 0.9555
-8.9724 6.8995 -0.5297 0.9557
-8.9766 6.8148 -0.5274 0.9559
-8.9462 6.2826 -0.5116 0.9572
-8.9579 6.0458 -0.5058 0.9576
-8.9617 5.9680 -0.5039 0.9578
-8.4246 5.3143 -0.4661 0.9609
-7.8170 4.7306 -0.4276 0.9641
-7.6979 4.4655 -0.4165 0.9650
-7.7058 4.0349 -0.4071 0.9658
-7.7115 3.9172 -0.4048 0.9660
-7.7200 3.7430 -0.4015 0.9662
-7.7256 3.6284 -0.3994 0.9664
-7.6263 3.4106 -0.3910 0.9671
-7.6926 3.3832 -0.3933 0.9669
-7.7186 3.3378 -0.3935 0.9669
-7.7445 3.2924 -0.3938 0.9669
-7.7967 3.2013 -0.3944 0.9668
-7.8228 3.1556 -0.3948 0.9668
-7.8489 3.1098 -0.3951 0.9668
-7.9014 3.0181 -0.3958 0.9667
-7.9265 2.9159 -0.3952 0.9667
-8.1192 2.9299 -0.4039 0.9660
-8.2318 2.8559 -0.4078 0.9657
-8.2889 2.8185 -0.4097 0.9655
-8.4636 2.7038 -0.4158 0.9650
-8.5830 2.6254 -0.4200 0.9647
-8.5962 2.5714 -0.4199 0.9647
-8.5662 2.5048 -0.4177 0.9649
-8.6217 2.4633 -0.4196 0.9647
-8.8604 2.4723 -0.4305 0.9638
-9.1913 2.4425 -0.4451 0.9626
-9.4783 2.4561 -0.4582 0.9616
-10.1068 2.4860 -0.4871 0.9592
-10.1813 2.4377 -0.4899 0.9589
-11.5189 2.5329 -0.5519 0.9539
-11.7771 2.5135 -0.5636 0.9529
-12.5795 2.6035 -0.6012 0.9499
-13.6835 2.6559 -0.6523 0.9457
-13.9389 2.6161 -0.6637 0.9448
-14.9996 2.6236 -0.7126 0.9408
-16.6148 2.6948 -0.7877 0.9348
-33.9010 5.0689 -1.6041 0.8717
-33.9319 4.4317 -1.6014 0.8719
-33.9833 3.3736 -1.5982 0.8722
-33.9935 3.1624 -1.5977 0.8722
-34.6641 3.0087 -1.6283 0.8699
-60.4400 3.7425 -2.8339 0.7847
-60.1082 3.3490 -2.8173 0.7858
-34.0856 1.2654 -1.5962 0.8723
-34.0958 1.0546 -1.5964 0.8723
-34.1060 0.8439 -1.5966 0.8723
-34.1264 0.4221 -1.5972 0.8723
-34.1413 0.0000 -1.8519 0.8722
-34.1516 -0.2112 -1.8525 0.8721
-34.2773 -0.6360 -1.8596 0.8717
-34.2384 -0.8471 -1.8577 0.8718
-34.3082 -1.2736 -1.8622 0.8715
-34.2692 -1.4844 -1.8606 0.8716
-34.2543 -2.3338 -1.8623 0.8715
-34.2646 -2.5475 -1.8637 0.8714
-34.2750 -2.7615 -1.8651 0.8713
-15.7661 -1.5651 -0.8594 0.9385
-13.9750 -1.6497 -0.7633 0.9452
-12.1284 -1.7369 -0.6646 0.9521
-10.7041 -1.8041 -0.5888 0.9574
-10.3973 -1.8186 -0.5725 0.9586
-10.1070 -1.8323 -0.5572 0.9597
-9.5707 -1.8576 -0.5288 0.9617
-8.6935 -1.9681 -0.4835 0.9649
-8.6232 -2.0083 -0.4803 0.9652
-8.4178 -2.1258 -0.4709 0.9658
-8.3549 -2.1650 -0.4682 0.9660
-8.2745 -2.2538 -0.4652 0.9662
-8.2346 -2.2977 -0.4637 0.9663
-8.1950 -2.3413 -0.4623 0.9664
-8.1557 -2.3848 -0.4609 0.9665
-8.1166 -2.4279 -0.4595 0.9666
-8.0659 -2.5767 -0.4593 0.9666
-7.9368 -2.8641 -0.4577 0.9668
-7.9153 -2.9118 -0.4575 0.9668
-7.8339 -2.9924 -0.4549 0.9670
-7.8281 -3.0457 -0.4556 0.9669
-7.8078 -3.5498 -0.4652 0.9662
-7.8212 -3.6144 -0.4673 0.9661
-7.8484 -3.7455 -0.4717 0.9658
-7.8622 -3.8120 -0.4739 0.9656
-7.8761 -3.8790 -0.4762 0.9654
-7.9898 -3.9966 -0.4846 0.9648
-8.0902 -4.1727 -0.4938 0.9642
-8.1418 -4.2632 -0.4985 0.9639
-8.1417 -4.3276 -0.5001 0.9637
-9.4017 -5.2233 -0.5834 0.9578
-9.4052 -5.3016 -0.5856 0.9577
-9.4088 -5.3806 -0.5879 0.9575
-9.4124 -5.4602 -0.5902 0.9573
-9.4163 -5.5405 -0.5926 0.9572
-9.3089 -5.5551 -0.5880 0.9575
-9.1893 -5.5611 -0.5826 0.9579
-8.7320 -5.5840 -0.5622 0.9593
-8.6226 -5.5895 -0.5574 0.9597
-8.4603 -5.5588 -0.5491 0.9603
-8.3549 -5.5639 -0.5445 0.9606
-8.2513 -5.5689 -0.5400 0.9609
-8.1494 -5.5737 -0.5355 0.9612
-8.1246 -5.6309 -0.5362 0.9612
-8.1205 -5.7780 -0.5406 0.9609
-9.4698 -6.9161 -0.6361 0.9541
-9.2147 -7.0858 -0.6305 0.9545
-8.9952 -7.0957 -0.6214 0.9551
-8.8878 -7.1006 -0.6170 0.9555
-8.5748 -7.1152 -0.6044 0.9563
-8.3733 -7.1246 -0.5963 0.9569
-8.2745 -7.1293 -0.5924 0.9572
-8.1349 -7.0971 -0.5856 0.9577
-8.0686 -7.3073 -0.5905 0.9573
-7.8996 -7.2437 -0.5814 0.9580
-8.0623 -7.4852 -0.5967 0.9569
-9.2619 -8.8147 -0.6935 0.9501
-9.0457 -8.8247 -0.6855 0.9506
-8.6282 -8.8443 -0.6702 0.9517
-8.5266 -8.8490 -0.6665 0.9520
-8.4262 -8.8537 -0.6630 0.9522
-8.0005 -9.0567 -0.6555 0.9527
-8.5952 -10.2291 -0.7247 0.9479
-8.4830 -10.3529 -0.7260 0.9478
-8.2813 -10.7694 -0.7369 0.9470
-8.2554 -10.8742 -0.7406 0.9468
-8.1697 -11.3328 -0.7578 0.9456
-8.9685 -12.9404 -0.8540 0.9389
-8.9149 -13.0345 -0.8566 0.9387
-5.0459 -7.4764 -0.4892 0.9645
-4.9671 -7.4588 -0.4861 0.9647
-4.9097 -7.4723 -0.4850 0.9648
-4.8320 -7.5560 -0.4865 0.9647
-5.0954 -8.6599 -0.5450 0.9605
-5.0256 -8.6633 -0.5432 0.9607
-4.8872 -8.6700 -0.5398 0.9609
-4.6827 -8.6798 -0.5350 0.9613
-4.5484 -8.6863 -0.5318 0.9615
-4.4818 -8.6896 -0.5303 0.9616
-4.3915 -8.6453 -0.5260 0.9619
-4.2634 -8.6565 -0.5234 0.9621
-2.4880 -5.1315 -0.3093 0.9774
-2.4495 -5.1327 -0.3085 0.9775
-2.3730 -5.1350 -0.3068 0.9776
-2.2226 -5.1397 -0.3037 0.9778
-2.1855 -5.1409 -0.3030 0.9779
-2.1485 -5.1420 -0.3023 0.9779
-2.0387 -5.1454 -0.3002 0.9781
-2.0024 -5.1465 -0.2995 0.9781
-1.9303 -5.1488 -0.2983 0.9782
-1.8945 -5.1499 -0.2976 0.9783
-1.8588 -5.1510 -0.2970 0.9783
-1.7879 -5.1532 -0.2959 0.9784
-1.6825 -5.1565 -0.2942 0.9785
-1.6129 -5.1587 -0.2932 0.9786
-1.5094 -5.1620 -0.2917 0.9787
-1.3729 -5.1663 -0.2900 0.9788
-1.2379 -5.1705 -0.2884 0.9789
-1.1377 -5.1737 -0.2873 0.9790
-1.1044 -5.1747 -0.2870 0.9790
-1.0050 -5.1779 -0.2861 0.9791
-0.9720 -5.1789 -0.2858 0.9791
-0.9062 -5.1810 -0.2853 0.9792
-0.7753 -5.1851 -0.2844 0.9792
-0.7101 -5.1872 -0.2840 0.9792
-0.6127 -5.1903 -0.2835 0.9793
-0.5803 -5.1913 -0.2833 0.9793
-0.5479 -5.1924 -0.2832 0.9793
-0.4832 -5.1944 -0.2830 0.9793
-0.4509 -5.1954 -0.2829 0.9793
-0.3864 -5.1975 -0.2827 0.9793
-0.2254 -5.2026 -0.2825 0.9794
-0.1932 -5.2037 -0.2824 0.9794
-0.0966 -5.2068 -0.2825 0.9794
-0.0644 -5.2078 -0.2825 0.9794
-0.0322 -5.2088 -0.2825 0.9793
0.0322 -5.2109 -0.2827 0.9793
0.0645 -5.2119 -0.2827 0.9793
0.0967 -5.2129 -0.2828 0.9793
0.1290 -5.2140 -0.2829 0.9793
0.1613 -5.2151 -0.2830 0.9793
0.1936 -5.2161 -0.2831 0.9793
0.2908 -5.2192 -0.2835 0.9793
0.3558 -5.2213 -0.2839 0.9793
0.3883 -5.2223 -0.2840 0.9792
0.4208 -5.2234 -0.2842 0.9792
0.4535 -5.2244 -0.2844 0.9792
0.5188 -5.2266 -0.2849 0.9792
0.5517 -5.2276 -0.2851 0.9792
3.0465 -24.5048 -1.3394 0.9058
3.3433 -24.4212 -1.3370 0.9060
3.4912 -24.3789 -1.3358 0.9061
3.7860 -24.2927 -1.3336 0.9062
3.9330 -24.2489 -1.3325 0.9063
4.0796 -24.2048 -1.3314 0.9064
4.2259 -24.1601 -1.3304 0.9064
4.5176 -24.0696 -1.3284 0.9066
4.6629 -24.0237 -1.3274 0.9066
4.8080 -23.9773 -1.3265 0.9067
4.9527 -23.9305 -1.3255 0.9067
5.0972 -23.8833 -1.3246 0.9068
5.2413 -23.8356 -1.3238 0.9069
5.3852 -23.7875 -1.3229 0.9069
5.6720 -23.6900 -1.3213 0.9070
5.9577 -23.5907 -1.3198 0.9071
6.1001 -23.5404 -1.3190 0.9072
6.5257 -23.3870 -1.3170 0.9073
6.6669 -23.3350 -1.3164 0.9074
6.8079 -23.2825 -1.3158 0.9074
6.9487 -23.2296 -1.3152 0.9074
7.2294 -23.1225 -1.3141 0.9075
7.5091 -23.0136 -1.3131 0.9076
8.4799 -22.6189 -1.3103 0.9078
9.0294 -22.3837 -1.3092 0.9078
9.1661 -22.3238 -1.3090 0.9079
9.3026 -22.2635 -1.3088 0.9079
9.8465 -22.0176 -1.3083 0.9079
9.9819 -21.9551 -1.3082 0.9079
10.1171 -21.8920 -1.3081 0.9079
10.6556 -21.6355 -1.3081 0.9079
10.7897 -21.5702 -1.3082 0.9079
11.0573 -21.4383 -1.3084 0.9079
11.3242 -21.3046 -1.3087 0.9079
11.5902 -21.1691 -1.3091 0.9078
11.7229 -21.1006 -1.3093 0.9078
11.8554 -21.0317 -1.3095 0.9078
11.9877 -20.9623 -1.3098 0.9078
12.2518 -20.8221 -1.3104 0.9078
12.3835 -20.7513 -1.3108 0.9077
12.6465 -20.6084 -1.3115 0.9077
12.7776 -20.5362 -1.3119 0.9077
13.1702 -20.3169 -1.3133 0.9076
13.8209 -19.9417 -1.3161 0.9074
13.9505 -19.8652 -1.3167 0.9073
14.0800 -19.7882 -1.3173 0.9073
14.3384 -19.6328 -1.3187 0.9072
14.5963 -19.4755 -1.3201 0.9071
14.9818 -19.2357 -1.3225 0.9069
15.2381 -19.0733 -1.3242 0.9068
15.3660 -18.9914 -1.3251 0.9068
15.4938 -18.9090 -1.3260 0.9067
15.6214 -18.8260 -1.3269 0.9067
15.7488 -18.7425 -1.3279 0.9066
15.8762 -18.6585 -1.3289 0.9065
16.0033 -18.5740 -1.3299 0.9065
16.2573 -18.4035 -1.3319 0.9063
16.3840 -18.3174 -1.3330 0.9062
16.5106 -18.2308 -1.3341 0.9062
16.7635 -18.0561 -1.3364 0.9060
17.0158 -17.8791 -1.3388 0.9059
17.2676 -17.7001 -1.3413 0.9057
17.5188 -17.5188 -1.3438 0.9055
17.6443 -17.4274 -1.3452 0.9054
18.0199 -17.1497 -1.3493 0.9052
18.1449 -17.0560 -1.3508 0.9051
18.5190 -16.7716 -1.3552 0.9048
18.7679 -16.5791 -1.3583 0.9046
18.5108 -15.7504 -1.3183 0.9072
18.5230 -15.5644 -1.3123 0.9076
18.6129 -15.4446 -1.3119 0.9077
19.5118 -15.9877 -1.3683 0.9039
19.6354 -15.8870 -1.3700 0.9038
19.8823 -15.6839 -1.3736 0.9035
20.2518 -15.3746 -1.3792 0.9032
20.4977 -15.1656 -1.3830 0.9029
20.7431 -14.9535 -1.3870 0.9026
20.8742 -14.6591 -1.3835 0.9029
20.8875 -14.2860 -1.3726 0.9036
20.8942 -14.1016 -1.3673 0.9040
20.9007 -13.9187 -1.3621 0.9043
20.9135 -13.5569 -1.3519 0.9050
20.9262 -13.2004 -1.3420 0.9056
21.0380 -12.5545 -1.3289 0.9065
21.1517 -12.4455 -1.3312 0.9064
21.2653 -12.3360 -1.3335 0.9062
21.3788 -12.2258 -1.3358 0.9061
21.4923 -12.1149 -1.3382 0.9059
21.6056 -12.0033 -1.3406 0.9057
21.7189 -11.8911 -1.3431 0.9056
21.8321 -11.7781 -1.3455 0.9054
21.9453 -11.6646 -1.3480 0.9052
22.0583 -11.5503 -1.3506 0.9051
22.1712 -11.4353 -1.3531 0.9049
22.2841 -11.3196 -1.3557 0.9047
22.6224 -10.9683 -1.3637 0.9042
23.0724 -10.4898 -1.3747 0.9035
23.1847 -10.3683 -1.3776 0.9033
23.2970 -10.2461 -1.3805 0.9031
23.5213 -9.9994 -1.3863 0.9027
23.6333 -9.8749 -1.3893 0.9025
23.8571 -9.6236 -1.3954 0.9021
24.4156 -8.9816 -1.4111 0.9010
19.2053 -6.6632 -1.1026 0.9218
19.2207 -6.4033 -1.0989 0.9220
19.2674 -5.8935 -1.0929 0.9225
19.2863 -5.7691 -1.0919 0.9225
19.2337 -5.4951 -1.0850 0.9230
19.2335 -5.3667 -1.0831 0.9231
19.2397 -5.1128 -1.0798 0.9233
19.2474 -4.8608 -1.0768 0.9236
19.2512 -4.7353 -1.0753 0.9237
19.2551 -4.6101 -1.0739 0.9238
19.2589 -4.4853 -1.0726 0.9238
19.2704 -4.1126 -1.0688 0.9241
19.2739 -3.9889 -1.0676 0.9242
19.2775 -3.8655 -1.0665 0.9243
19.2853 -3.6195 -1.0643 0.9244
19.2931 -3.3746 -1.0624 0.9245
19.2971 -3.2524 -1.0615 0.9246
19.3050 -3.0087 -1.0598 0.9247
19.3119 -2.8875 -1.0591 0.9248
19.3296 -2.7681 -1.0592 0.9248
19.3662 -2.6512 -1.0602 0.9247
26.7260 -3.1548 -1.4597 0.8978
26.7340 -2.9883 -1.4591 0.8978
26.7502 -2.6555 -1.4581 0.8979
26.7583 -2.4893 -1.4577 0.8979
26.7745 -2.1572 -1.4570 0.8980
26.7826 -1.9912 -1.4567 0.8980
26.7906 -1.8253 -1.4565 0.8980
19.8431 -0.9825 -1.0776 0.9235
26.8229 -1.1619 -1.4563 0.8980
19.0375 -0.5888 -1.0331 0.9265
19.0249 -0.4707 -1.0323 0.9266
19.0005 -0.2350 -1.0307 0.9267
18.9776 0.0000 -1.0294 0.9268
18.9670 0.1173 -1.0288 0.9268
18.9607 0.7039 -1.0292 0.9268
18.9732 1.0571 -1.0307 0.9267
18.9733 1.2927 -1.0315 0.9266
18.9734 1.4106 -1.0320 0.9266
18.9710 1.5285 -1.0323 0.9266
18.9760 1.6471 -1.0332 0.9265
18.9809 1.7658 -1.0340 0.9265
18.9948 2.1232 -1.0367 0.9263
19.0003 2.3621 -1.0385 0.9262
19.0952 2.4939 -1.0445 0.9258
19.4489 2.6626 -1.0648 0.9244
19.4552 2.7861 -1.0660 0.9243
26.6629 3.9867 -1.4623 0.8976
26.6713 4.1567 -1.4642 0.8975
26.6797 4.3272 -1.4661 0.8974
26.6881 4.4981 -1.4680 0.8973
26.7136 5.0138 -1.4743 0.8968
26.7710 5.1962 -1.4792 0.8965
26.9833 5.5845 -1.4946 0.8955
26.9920 5.7606 -1.4971 0.8953
27.0008 5.9373 -1.4996 0.8952
26.4181 5.9807 -1.4692 0.8972
27.2137 6.8726 -1.5224 0.8937
27.2404 7.4196 -1.5314 0.8931
27.2494 7.6033 -1.5345 0.8929
27.2584 7.7879 -1.5377 0.8926
27.2674 7.9732 -1.5410 0.8924
27.8608 9.4735 -1.5962 0.8888
27.8770 9.8653 -1.6040 0.8883
28.5069 10.2870 -1.6438 0.8857
27.9383 10.4742 -1.6184 0.8873
27.9581 10.8778 -1.6272 0.8868
29.1404 11.5458 -1.7002 0.8820
37.0324 15.2053 -2.1714 0.8518
37.3987 16.4481 -2.2161 0.8490
37.4893 16.7654 -2.2275 0.8483
28.5427 13.4053 -1.7104 0.8813
28.4930 13.5977 -1.7125 0.8812
28.3883 13.7639 -1.7113 0.8813
28.2838 13.9299 -1.7101 0.8814
28.1794 14.0957 -1.7091 0.8814
27.9801 14.4314 -1.7077 0.8815
27.9211 14.6203 -1.7095 0.8814
34.7356 18.4632 -2.1337 0.8542
27.8339 15.0162 -1.7154 0.8810
28.0831 15.6020 -1.7426 0.8792
27.7122 15.6211 -1.7255 0.8804
27.4417 15.6930 -1.7147 0.8811
27.4646 16.1602 -1.7285 0.8802
27.4880 16.6349 -1.7428 0.8792
27.4998 16.8753 -1.7501 0.8788
27.5117 17.1177 -1.7575 0.8783
28.1502 17.7574 -1.8053 0.8752
27.6919 17.7086 -1.7828 0.8766
27.4928 17.8218 -1.7772 0.8770
27.5121 18.3215 -1.7929 0.8760
27.9908 19.1442 -1.8394 0.8730
28.0445 19.4366 -1.8508 0.8722
28.2485 20.6307 -1.8974 0.8692
28.3458 21.2443 -1.9214 0.8677
27.9647 21.7804 -1.9226 0.8676
27.2177 22.0219 -1.8990 0.8691
28.7553 23.8604 -2.0268 0.8610
28.8386 24.5381 -2.0539 0.8593
24.1838 21.3635 -1.7503 0.8787
24.1311 21.5840 -1.7561 0.8784
28.1430 25.4875 -2.0595 0.8589
27.3772 25.4173 -2.0263 0.8610
29.0927 27.3470 -2.1657 0.8522
29.1083 27.7028 -2.1796 0.8513
29.1632 28.8047 -2.2234 0.8486
20.7714 21.0299 -1.6033 0.8883
20.5217 21.0357 -1.5940 0.8889
20.2843 21.0513 -1.5857 0.8895
20.0548 21.0724 -1.5779 0.8900
19.8310 21.0969 -1.5705 0.8905
19.7258 21.2468 -1.5726 0.8904
19.7202 22.3236 -1.6157 0.8875
19.7105 22.5927 -1.6263 0.8868
19.6892 22.8521 -1.6362 0.8862
28.7195 34.1789 -2.4215 0.8362
28.3753 34.1963 -2.4103 0.8369
27.6961 34.2307 -2.3883 0.8383
27.0291 34.2644 -2.3672 0.8396
25.7294 34.3301 -2.3270 0.8421
25.4112 34.3462 -2.3174 0.8427
25.0957 34.3621 -2.3080 0.8433
24.4532 34.8208 -2.3079 0.8433
24.4628 35.2966 -2.3294 0.8420
24.4825 36.2752 -2.3738 0.8392
24.4926 36.7787 -2.3968 0.8378
24.5029 37.2920 -2.4203 0.8363
24.5352 38.8948 -2.4944 0.8318
24.5464 39.4511 -2.5203 0.8302
24.5753 40.6090 -2.5746 0.8268
24.6010 41.8102 -2.6313 0.8234
24.6416 43.7151 -2.7219 0.8179
24.6558 44.3796 -2.7538 0.8160
24.6704 45.0600 -2.7865 0.8140
24.6913 45.7678 -2.8207 0.8119
24.7211 47.2113 -2.8906 0.8078
24.7366 47.9603 -2.9271 0.8056
24.7855 50.3255 -3.0428 0.7987
24.7997 51.1500 -3.0833 0.7964
24.8190 52.0066 -3.1257 0.7939
24.8388 52.8871 -3.1693 0.7913
24.8592 53.7926 -3.2143 0.7887
24.1717 53.1659 -3.1678 0.7914
24.9225 56.6673 -3.3578 0.7804
24.9448 57.6833 -3.4089 0.7774
25.0469 62.0916 -3.6316 0.7648
25.0715 63.2777 -3.6919 0.7614
-3.3758 60.5902 -3.2916 0.7842
-3.5602 57.4959 -3.1246 0.7939
-4.9032 65.9489 -3.5870 0.7673
-5.2004 59.9146 -3.2621 0.7859
-5.2933 56.8979 -3.0995 0.7954
-5.7298 57.7181 -3.1461 0.7927
-6.0924 57.7359 -3.1491 0.7925
-6.8196 57.7716 -3.1554 0.7921
-7.9162 57.8253 -3.1658 0.7915
-8.2835 57.8433 -3.1695 0.7913
-8.0925 54.1220 -2.9683 0.8031
-9.7613 57.9156 -3.1857 0.7904
-10.5062 57.9520 -3.1946 0.7898
-12.3877 58.0439 -3.2193 0.7884
-15.4077 68.0592 -3.7850 0.7561
-16.9920 65.5729 -3.6742 0.7623
-17.4311 65.5943 -3.6814 0.7619
-17.8167 65.4126 -3.6773 0.7622
-17.8854 64.0993 -3.6096 0.7660
-6.6710 22.3011 -1.2626 0.9110
-6.8679 21.9662 -1.2484 0.9119
-6.9639 21.7990 -1.2413 0.9124
-7.0809 21.7015 -1.2382 0.9126
-4.4702 13.1466 -0.7532 0.9459
-4.5591 13.1409 -0.7545 0.9458
-7.4866 20.3514 -1.1762 0.9168
-7.9615 21.2362 -1.2302 0.9132
-8.1056 21.2205 -1.2321 0.9130
-7.3260 18.8293 -1.0959 0.9223
-8.2285 20.7678 -1.2117 0.9144
-8.3417 19.6219 -1.1565 0.9181
-8.2054 18.6570 -1.1055 0.9216
-8.3759 18.4229 -1.0977 0.9221
-7.0354 15.2238 -0.9097 0.9350
-7.1205 15.1610 -0.9085 0.9351
-7.1733 14.7952 -0.8919 0.9363
-7.0815 14.3785 -0.8694 0.9378
-7.2205 14.2146 -0.8648 0.9381
-7.3763 13.8773 -0.8525 0.9390
-7.5951 13.8722 -0.8578 0.9386
-7.7591 13.7648 -0.8571 0.9387
-7.8410 13.7112 -0.8567 0.9387
-7.2758 12.0228 -0.7622 0.9453
-7.2248 11.2978 -0.7274 0.9477
-7.2688 11.2132 -0.7248 0.9479
-7.4216 10.9965 -0.7196 0.9482
-7.4669 10.9174 -0.7174 0.9484
-7.5120 10.8388 -0.7153 0.9485
-7.5376 10.7334 -0.7114 0.9488
-7.7418 10.7393 -0.7181 0.9483
-7.9237 10.5724 -0.7166 0.9484
-8.1541 10.4694 -0.7198 0.9482
-8.2230 10.4242 -0.7202 0.9482
-8.2185 10.2870 -0.7142 0.9486
-8.4337 10.2927 -0.7218 0.9481
-8.6305 10.2711 -0.7277 0.9477
-8.0227 9.4288 -0.6715 0.9516
-8.7535 10.1597 -0.7274 0.9477
-8.7766 9.6911 -0.7092 0.9490
-8.6467 9.4297 -0.6940 0.9500
-8.7584 9.3175 -0.6936 0.9501
-8.7496 9.0804 -0.6840 0.9507
-8.7548 8.9741 -0.6800 0.9510
-7.8779 7.8779 -0.6043 0.9564
-8.8785 8.7694 -0.6769 0.9512
-8.8985 8.3645 -0.6624 0.9523
-8.8095 8.1789 -0.6520 0.9530
-8.8635 7.9280 -0.6450 0.9535
-8.8435 7.6195 -0.6332 0.9543
-8.8885 7.4687 -0.6297 0.9546
-8.9536 7.2444 -0.6247 0.9549
-8.9622 7.0697 -0.6192 0.9553
-7.9317 6.1776 -0.5453 0.9605
-8.9706 6.8981 -0.6138 0.9557
-8.9789 6.7294 -0.6086 0.9560
-8.9830 6.6461 -0.6061 0.9562
-8.8983 6.4147 -0.5950 0.9570
-8.9061 6.3370 -0.5929 0.9572
-8.8178 6.1924 -0.5844 0.9578
-8.9638 5.8897 -0.5818 0.9579
-8.9675 5.8131 -0.5797 0.9581
-8.9712 5.7370 -0.5776 0.9582
-8.4222 5.3128 -0.5401 0.9609
-7.7911 4.7810 -0.4958 0.9640
-7.8168 4.7305 -0.4956 0.9641
-7.6978 4.4655 -0.4827 0.9650
-7.6594 4.3802 -0.4786 0.9653
-7.5763 4.2707 -0.4717 0.9658
-7.6986 4.1533 -0.4745 0.9656
-7.7044 4.0342 -0.4717 0.9658
-7.6872 3.8453 -0.4662 0.9662
-7.7215 3.6849 -0.4641 0.9663
-7.7243 3.6278 -0.4629 0.9664
-7.7271 3.5709 -0.4617 0.9665
-7.6139 3.4616 -0.4537 0.9671
-7.7164 3.3369 -0.4560 0.9669
-7.8205 3.1547 -0.4574 0.9668
-7.8467 3.1090 -0.4578 0.9668
-7.8991 3.0173 -0.4587 0.9667
-7.9236 2.9148 -0.4579 0.9667
-8.1717 2.8919 -0.4702 0.9659
-8.2282 2.8548 -0.4724 0.9657
-8.1844 2.7266 -0.4679 0.9660
-8.1902 2.6724 -0.4673 0.9661
-8.3132 2.5992 -0.4724 0.9657
-8.3876 2.5656 -0.4758 0.9655
-8.5395 2.4970 -0.4826 0.9650
-8.6171 2.4620 -0.4861 0.9647
-8.8527 2.4702 -0.4985 0.9639
-9.0066 2.4532 -0.5063 0.9633
-9.4643 2.4525 -0.5303 0.9616
-10.0909 2.4821 -0.5637 0.9592
-10.1648 2.4337 -0.5669 0.9590
-11.3145 2.4879 -0.6284 0.9547
-11.4637 2.4466 -0.6358 0.9541
-12.4281 2.4921 -0.6875 0.9505
-12.9716 2.5177 -0.7167 0.9484
-14.2777 2.6797 -0.7880 0.9435
-14.9586 2.7119 -0.8246 0.9409
-15.7058 2.7471 -0.8648 0.9381
-16.5297 2.7860 -0.9092 0.9351
-33.8850 5.2810 -1.8602 0.8716
-33.9057 4.8554 -1.8579 0.8718
-33.9161 4.6431 -1.8568 0.8719
-33.9264 4.4309 -1.8558 0.8719
-33.9367 4.2190 -1.8549 0.8720
-33.9469 4.0072 -1.8541 0.8720
-33.9675 3.5843 -1.8527 0.8721
-34.3974 2.9856 -1.8728 0.8708
-40.3161 3.2482 -2.1939 0.8504
-47.5561 3.5356 -2.5866 0.8261
-60.0780 3.7201 -3.2650 0.7857
-60.0370 3.3450 -3.2615 0.7859
-60.0379 2.9727 -3.2605 0.7860
-34.0698 1.4758 -1.8497 0.8723
-34.0800 1.2651 -1.8498 0.8723
-34.0903 1.0545 -1.8500 0.8723
-34.1005 0.8437 -1.8502 0.8723
-34.1107 0.6329 -1.8505 0.8723
-34.1460 -0.2112 -2.1065 0.8721
-34.2433 -1.0592 -2.1135 0.8717
-34.2586 -1.4840 -2.1154 0.8716
-34.2662 -1.6967 -2.1165 0.8715
-34.3335 -1.9129 -2.1214 0.8713
-34.2590 -2.5471 -2.1193 0.8714
-34.2693 -2.7611 -2.1210 0.8713
-34.2797 -2.9754 -2.1227 0.8712
-16.5037 -1.5354 -1.0225 0.9357
-15.7990 -1.5684 -0.9794 0.9384
-14.5538 -1.6268 -0.9034 0.9430
-13.0103 -1.6992 -0.8094 0.9488
-12.5648 -1.7201 -0.7824 0.9504
-12.1480 -1.7396 -0.7571 0.9520
-11.0450 -1.7914 -0.6903 0.9561
-10.7194 -1.8067 -0.6706 0.9574
-10.4117 -1.8211 -0.6521 0.9585
-10.1207 -1.8348 -0.6345 0.9596
-9.1585 -1.8954 -0.5770 0.9632
-8.6961 -1.9687 -0.5500 0.9649
-8.4878 -2.0878 -0.5392 0.9656
-8.1960 -2.3416 -0.5258 0.9664
-8.1175 -2.4282 -0.5227 0.9666
-8.0416 -2.5142 -0.5198 0.9668
-8.0443 -2.6247 -0.5220 0.9667
-7.9797 -2.7685 -0.5211 0.9667
-7.9582 -2.8163 -0.5208 0.9667
-7.9153 -2.9118 -0.5203 0.9668
-7.8938 -2.9594 -0.5201 0.9668
-7.9514 -3.1505 -0.5276 0.9663
-7.9542 -3.2086 -0.5291 0.9662
-7.9598 -3.3259 -0.5322 0.9660
-7.9386 -3.4330 -0.5336 0.9659
-7.9771 -3.6865 -0.5421 0.9654
-7.9800 -3.7479 -0.5439 0.9653
-7.9278 -3.7834 -0.5419 0.9654
-7.9858 -3.9946 -0.5508 0.9648
-8.0860 -4.1705 -0.5613 0.9642
-8.1375 -4.2610 -0.5667 0.9639
-8.1425 -4.3280 -0.5689 0.9637
-8.8319 -4.7647 -0.6191 0.9606
-9.4034 -5.3006 -0.6659 0.9577
-9.4145 -5.5395 -0.6739 0.9572
-9.3141 -5.5582 -0.6691 0.9575
-9.0768 -5.5700 -0.6570 0.9582
-8.5193 -5.5976 -0.6289 0.9600
-8.4132 -5.6027 -0.6236 0.9603
-8.3088 -5.6077 -0.6184 0.9606
-8.0533 -5.5815 -0.6045 0.9615
-7.9287 -5.7157 -0.6030 0.9616
-7.8722 -5.7493 -0.6014 0.9617
-9.2189 -7.0890 -0.7174 0.9545
-8.8918 -7.1039 -0.7021 0.9554
