ply
format ascii 1.0
element vertex 1573
property float32 x
property float32 y
property float32 z
property float32 I
end_header
12.0810 -3.2905 -2.1878 0.9504
12.0993 -3.2153 -2.1874 0.9504
12.1172 -3.1399 -2.1871 0.9504
12.2162 -2.6862 -2.1855 0.9505
12.2313 -2.6104 -2.1853 0.9505
12.2459 -2.5344 -2.1850 0.9505
12.2602 -2.4584 -2.1848 0.9505
12.2740 -2.3823 -2.1846 0.9505
12.2874 -2.3062 -2.1844 0.9505
12.3131 -2.1537 -2.1841 0.9505
12.3253 -2.0773 -2.1839 0.9505
12.3371 -2.0009 -2.1838 0.9505
12.3484 -1.9245 -2.1836 0.9505
12.3594 -1.8480 -2.1835 0.9505
12.3699 -1.7714 -2.1834 0.9505
12.3801 -1.6948 -2.1833 0.9505
12.4165 -1.3879 -2.1830 0.9505
12.4323 -1.2342 -2.1829 0.9505
12.4395 -1.1573 -2.1829 0.9505
12.4644 -0.8492 -2.1829 0.9505
12.4787 -0.6179 -2.1830 0.9505
12.4826 -0.5407 -2.1831 0.9505
12.4862 -0.4635 -2.1832 0.9505
12.4893 -0.3863 -2.1833 0.9505
12.4943 -0.2318 -2.1835 0.9505
12.4961 -0.1546 -2.1836 0.9505
12.4976 -0.0773 -2.1837 0.9505
12.4995 0.1546 -2.1842 0.9505
12.4993 0.2319 -2.1843 0.9505
12.4961 0.4639 -2.1849 0.9505
12.4943 0.5412 -2.1851 0.9505
12.4920 0.6186 -2.1854 0.9505
12.4862 0.7732 -2.1859 0.9505
12.4827 0.8505 -2.1861 0.9505
12.4744 1.0050 -2.1867 0.9505
12.4644 1.1596 -2.1873 0.9504
12.4588 1.2368 -2.1876 0.9504
12.4463 1.3912 -2.1882 0.9504
12.4079 1.7769 -2.1901 0.9504
12.3989 1.8539 -2.1905 0.9504
12.3798 2.0079 -2.1913 0.9503
12.3589 2.1617 -2.1922 0.9503
12.3124 2.4689 -2.1941 0.9503
12.2448 2.8517 -2.1967 0.9502
12.2148 3.0045 -2.1979 0.9502
12.1992 3.0808 -2.1985 0.9502
12.1667 3.2332 -2.1996 0.9502
12.1499 3.3093 -2.2003 0.9502
12.0968 3.5372 -2.2021 0.9501
11.9152 4.2166 -2.2084 0.9500
11.8929 4.2917 -2.2092 0.9500
11.8703 4.3667 -2.2099 0.9499
11.8472 4.4415 -2.2107 0.9499
11.7754 4.6656 -2.2131 0.9499
11.6740 4.9629 -2.2164 0.9498
11.5936 5.1847 -2.2190 0.9497
11.5659 5.2584 -2.2199 0.9497
11.4512 5.5520 -2.2236 0.9496
11.3299 5.8436 -2.2274 0.9496
11.2986 5.9162 -2.2284 0.9495
11.2668 5.9887 -2.2294 0.9495
11.2346 6.0610 -2.2304 0.9495
10.9625 6.6342 -2.2389 0.9493
10.8904 6.7760 -2.2411 0.9493
10.8537 6.8466 -2.2422 0.9492
10.7029 7.1275 -2.2468 0.9491
10.6251 7.2669 -2.2492 0.9491
10.5457 7.4057 -2.2516 0.9490
10.5054 7.4751 -2.2528 0.9490
10.4235 7.6126 -2.2553 0.9489
10.3400 7.7495 -2.2578 0.9489
10.2977 7.8177 -2.2590 0.9489
10.2118 7.9535 -2.2616 0.9488
10.0352 8.2227 -2.2669 0.9487
9.9445 8.3561 -2.2696 0.9486
9.8523 8.4886 -2.2723 0.9486
9.7584 8.6204 -2.2751 0.9485
9.6146 8.8162 -2.2793 0.9484
9.5168 8.9457 -2.2822 0.9483
9.4673 9.0101 -2.2836 0.9483
9.4174 9.0743 -2.2851 0.9483
9.3671 9.1382 -2.2865 0.9482
9.3165 9.2020 -2.2880 0.9482
9.2655 9.2654 -2.2895 0.9482
9.2140 9.3285 -2.2910 0.9482
9.1621 9.3916 -2.2925 0.9481
9.1099 9.4543 -2.2940 0.9481
8.9509 9.6410 -2.2986 0.9480
8.8430 9.7643 -2.3018 0.9479
8.7885 9.8255 -2.3033 0.9479
8.7336 9.8865 -2.3049 0.9478
8.5100 10.1277 -2.3114 0.9477
8.4532 10.1873 -2.3130 0.9477
8.3960 10.2467 -2.3146 0.9476
8.3384 10.3057 -2.3163 0.9476
8.2804 10.3645 -2.3179 0.9476
8.1043 10.5392 -2.3230 0.9474
7.9851 10.6542 -2.3264 0.9474
7.9249 10.7113 -2.3281 0.9473
7.8643 10.7681 -2.3298 0.9473
7.7421 10.8808 -2.3333 0.9472
7.6804 10.9367 -2.3351 0.9472
7.5559 11.0475 -2.3386 0.9471
7.4932 11.1025 -2.3404 0.9471
7.4301 11.1571 -2.3422 0.9470
7.3666 11.2114 -2.3440 0.9470
7.3027 11.2655 -2.3458 0.9469
7.2385 11.3191 -2.3476 0.9469
7.1740 11.3725 -2.3494 0.9469
7.1090 11.4256 -2.3512 0.9468
6.9121 11.5828 -2.3568 0.9467
6.8458 11.6346 -2.3587 0.9467
6.7121 11.7370 -2.3624 0.9466
6.6446 11.7877 -2.3643 0.9465
6.5088 11.8881 -2.3681 0.9465
6.2330 12.0848 -2.3759 0.9463
6.1632 12.1330 -2.3778 0.9462
6.0227 12.2285 -2.3817 0.9462
5.9518 12.2757 -2.3837 0.9461
5.8807 12.3225 -2.3857 0.9461
5.8092 12.3690 -2.3877 0.9460
5.6653 12.4608 -2.3917 0.9459
5.5038 12.5140 -2.3887 0.9460
2.3757 5.5883 -1.0610 0.9756
2.2942 5.5875 -1.0554 0.9758
2.2550 5.5900 -1.0532 0.9758
2.1777 5.5972 -1.0494 0.9759
2.1397 5.6016 -1.0477 0.9759
2.1022 5.6074 -1.0464 0.9760
2.0653 5.6143 -1.0452 0.9760
2.0285 5.6214 -1.0442 0.9760
1.9559 5.6376 -1.0426 0.9761
1.9201 5.6469 -1.0421 0.9761
1.8843 5.6561 -1.0417 0.9761
1.8487 5.6658 -1.0413 0.9761
1.8132 5.6759 -1.0411 0.9761
1.7777 5.6858 -1.0409 0.9761
1.7429 5.6981 -1.0412 0.9761
1.5754 5.7840 -1.0474 0.9760
1.5437 5.8092 -1.0503 0.9759
1.5141 5.8430 -1.0546 0.9758
1.4856 5.8825 -1.0601 0.9757
1.4622 5.9444 -1.0696 0.9754
1.4245 6.1165 -1.0973 0.9748
1.4226 6.4693 -1.1574 0.9735
1.4122 6.6171 -1.1822 0.9729
1.3925 6.9444 -1.2375 0.9716
1.8737 10.7121 -1.9001 0.9568
1.8050 10.7093 -1.8976 0.9569
1.7365 10.7066 -1.8952 0.9569
1.6691 10.7095 -1.8938 0.9569
1.6018 10.7128 -1.8926 0.9570
1.4677 10.7210 -1.8907 0.9570
1.4013 10.7295 -1.8907 0.9570
1.3355 10.7426 -1.8915 0.9570
1.2084 10.8108 -1.9007 0.9568
1.1507 10.9048 -1.9160 0.9565
1.0592 11.3852 -1.9979 0.9546
1.0192 11.7426 -2.0595 0.9533
1.0683 14.3684 -2.5175 0.9432
0.9804 14.3883 -2.5199 0.9431
0.5376 14.4799 -2.5318 0.9429
0.4212 13.6177 -2.3805 0.9462
0.3373 13.6330 -2.3828 0.9461
0.0846 13.6757 -2.3896 0.9460
0.0000 13.6889 -2.3918 0.9459
-0.0847 13.7017 -2.3941 0.9459
-0.3398 13.7368 -2.4009 0.9457
-0.4252 13.7475 -2.4032 0.9457
-0.5963 13.7673 -2.4078 0.9456
-0.7680 13.7850 -2.4124 0.9455
-0.9402 13.8007 -2.4170 0.9454
-1.1995 13.8203 -2.4239 0.9452
-1.2862 13.8257 -2.4262 0.9452
-1.3729 13.8307 -2.4285 0.9451
-1.4598 13.8350 -2.4308 0.9451
-1.5469 13.8389 -2.4331 0.9450
-1.6339 13.8422 -2.4354 0.9450
-1.7241 13.8683 -2.4418 0.9448
-1.8115 13.8704 -2.4441 0.9448
-1.7597 12.8543 -2.2669 0.9487
-1.7464 12.1949 -2.1525 0.9512
-1.9563 12.0620 -2.1351 0.9516
-2.2972 12.6715 -2.2501 0.9491
-2.4648 12.6988 -2.2602 0.9488
-2.7787 13.8574 -2.4695 0.9442
-2.8670 13.8529 -2.4718 0.9442
-3.0438 13.8422 -2.4764 0.9441
-3.1322 13.8359 -2.4787 0.9440
-3.3978 13.8139 -2.4856 0.9439
-3.4864 13.8054 -2.4879 0.9438
-3.5750 13.7963 -2.4902 0.9438
-3.6637 13.7867 -2.4925 0.9437
-3.9296 13.7544 -2.4994 0.9436
-4.0183 13.7424 -2.5017 0.9435
-4.1070 13.7299 -2.5040 0.9435
-4.1957 13.7168 -2.5063 0.9434
-4.5503 13.6586 -2.5155 0.9432
-4.7274 13.6260 -2.5201 0.9431
-4.9044 13.5911 -2.5246 0.9430
-4.9913 13.5683 -2.5261 0.9430
-5.0582 13.4922 -2.5177 0.9432
-5.1271 13.4229 -2.5106 0.9433
-5.1957 13.3540 -2.5037 0.9435
-3.5938 9.0703 -1.7047 0.9612
-3.6318 8.8452 -1.6707 0.9619
-3.6958 8.8450 -1.6750 0.9618
-3.7601 8.8448 -1.6793 0.9617
-3.9552 8.8443 -1.6928 0.9614
-4.0209 8.8440 -1.6975 0.9613
-4.1716 8.8822 -1.7146 0.9609
-4.2387 8.8821 -1.7196 0.9608
-4.3063 8.8819 -1.7247 0.9607
-4.3743 8.8817 -1.7299 0.9606
-4.4426 8.8816 -1.7352 0.9605
-4.0247 7.4602 -1.4811 0.9662
-4.0413 7.2742 -1.4540 0.9668
-4.0840 7.2452 -1.4532 0.9668
-4.2079 7.2537 -1.4652 0.9665
-4.3079 7.1184 -1.4538 0.9668
-4.5143 7.1564 -1.4784 0.9662
-4.5763 7.1563 -1.4842 0.9661
-4.7018 7.1559 -1.4961 0.9658
-4.8293 7.1555 -1.5084 0.9656
-4.8938 7.1553 -1.5147 0.9654
-4.9589 7.1551 -1.5211 0.9653
-5.1575 7.1545 -1.5410 0.9648
-4.2618 5.7603 -1.2520 0.9713
-4.4151 5.8156 -1.2758 0.9708
-4.4757 5.6022 -1.2529 0.9713
-4.5325 5.6019 -1.2591 0.9712
-4.6795 5.6395 -1.2804 0.9707
-4.7384 5.6391 -1.2870 0.9705
-4.7979 5.6388 -1.2936 0.9704
-4.9188 5.6380 -1.3073 0.9701
-5.0423 5.6373 -1.3215 0.9698
-5.2327 5.6362 -1.3438 0.9693
-5.4298 5.6351 -1.3673 0.9687
-5.4971 5.6347 -1.3755 0.9685
-5.6340 5.6340 -1.3922 0.9682
-5.8455 5.6325 -1.4184 0.9676
-5.9910 5.6315 -1.4367 0.9672
-6.0652 5.6310 -1.4461 0.9670
-6.1404 5.6305 -1.4557 0.9667
-4.9716 4.2835 -1.1466 0.9737
-4.9235 4.1893 -1.1295 0.9741
-4.8768 4.0978 -1.1130 0.9745
-4.8314 4.0090 -1.0970 0.9748
-4.7252 3.8718 -1.0674 0.9755
-4.7076 3.7610 -1.0528 0.9758
-4.6904 3.6531 -1.0388 0.9761
-4.6736 3.5481 -1.0253 0.9765
-4.6790 3.3293 -1.0034 0.9770
-4.6912 3.2513 -0.9973 0.9771
-4.6972 3.2127 -0.9943 0.9772
-4.7092 3.1361 -0.9886 0.9773
-4.7210 3.0603 -0.9830 0.9774
-4.7905 2.9807 -0.9858 0.9773
-4.8063 2.9494 -0.9853 0.9774
-4.8221 2.9182 -0.9848 0.9774
-4.8536 2.8558 -0.9840 0.9774
-4.8850 2.7936 -0.9833 0.9774
-4.9007 2.7625 -0.9830 0.9774
-4.9163 2.7314 -0.9827 0.9774
-4.9477 2.6693 -0.9823 0.9774
-4.9790 2.6072 -0.9820 0.9774
-4.9724 2.5258 -0.9745 0.9776
-4.9979 2.5001 -0.9764 0.9776
-5.0493 2.4481 -0.9805 0.9775
-5.0752 2.4220 -0.9826 0.9774
-5.1011 2.3958 -0.9847 0.9774
-5.2327 2.2628 -0.9961 0.9771
-5.3245 2.1862 -1.0057 0.9769
-5.4084 2.1429 -1.0165 0.9767
-5.4510 2.1209 -1.0220 0.9765
-5.5377 2.0761 -1.0333 0.9763
-5.5817 2.0533 -1.0392 0.9761
-5.6262 2.0303 -1.0451 0.9760
-5.8971 2.0052 -1.0883 0.9750
-5.9788 1.9918 -1.1011 0.9747
-6.0625 1.9781 -1.1143 0.9744
-6.1482 1.9641 -1.1278 0.9741
-6.2558 1.9559 -1.1452 0.9737
-6.3923 1.9553 -1.1680 0.9732
-6.6823 1.9539 -1.2165 0.9721
-6.9975 1.9525 -1.2694 0.9709
-7.3413 1.9509 -1.3273 0.9696
-7.5252 1.9500 -1.3583 0.9689
-7.5623 1.9098 -1.3628 0.9688
-7.9206 1.8964 -1.4231 0.9675
-8.8357 2.0003 -1.5829 0.9639
-8.8355 1.9429 -1.5807 0.9639
-8.8652 1.8920 -1.5839 0.9639
-9.9878 1.9386 -1.7777 0.9595
-10.6756 1.9354 -1.8957 0.9569
-12.0684 2.0340 -2.1384 0.9515
-12.5950 1.9629 -2.2273 0.9496
-12.5947 1.8832 -2.2251 0.9496
-13.4255 1.9226 -2.3698 0.9464
-15.8122 2.0651 -2.7863 0.9373
-15.8383 1.8696 -2.7866 0.9373
-15.8819 1.4775 -2.7870 0.9373
-15.8910 1.3793 -2.7871 0.9373
-15.9071 1.1827 -2.7871 0.9373
-15.9141 1.0842 -2.7871 0.9373
-15.9203 0.9858 -2.7871 0.9373
-15.9381 0.5917 -2.7868 0.9373
-15.9407 0.4931 -2.7866 0.9373
-15.9427 0.3945 -2.7865 0.9373
-15.9439 0.2959 -2.7863 0.9373
-15.9443 0.1972 -2.7861 0.9373
-15.9441 0.0986 -2.7859 0.9373
-15.1568 -0.0937 -2.7645 0.9402
-15.1516 -0.2811 -2.7640 0.9402
-15.1438 -0.4684 -2.7634 0.9403
-15.1389 -0.5620 -2.7631 0.9403
-15.1333 -0.6555 -2.7627 0.9403
-15.1270 -0.7490 -2.7624 0.9403
-15.1201 -0.8424 -2.7620 0.9403
-15.1041 -1.0291 -2.7612 0.9403
-15.0952 -1.1223 -2.7608 0.9403
-15.0855 -1.2154 -2.7604 0.9403
-15.0136 -1.7723 -2.7573 0.9404
-14.9992 -1.8647 -2.7568 0.9404
-14.9842 -1.9570 -2.7562 0.9404
-14.9686 -2.0492 -2.7556 0.9404
-14.9177 -2.3249 -2.7537 0.9405
-12.4741 -2.3412 -2.3149 0.9497
-12.4737 -2.4211 -2.3175 0.9496
-11.8128 -2.4448 -2.2002 0.9521
-10.8736 -2.3206 -2.0279 0.9558
-10.7872 -2.3720 -2.0145 0.9561
-8.7154 -2.3161 -1.6448 0.9640
-8.7151 -2.3737 -1.6475 0.9639
-8.7148 -2.4317 -1.6502 0.9639
-8.6354 -2.4672 -1.6380 0.9641
-8.2252 -2.4051 -1.5630 0.9658
-7.5359 -2.3051 -1.4373 0.9685
-7.0573 -2.3511 -1.3567 0.9702
-6.6484 -2.3528 -1.2863 0.9717
-6.3925 -2.3516 -1.2423 0.9727
-6.2710 -2.3510 -1.2215 0.9731
-6.0505 -2.3541 -1.1841 0.9739
-5.9721 -2.3662 -1.1716 0.9742
-5.8200 -2.3897 -1.1475 0.9747
-5.7463 -2.4010 -1.1359 0.9750
-5.6740 -2.4122 -1.1245 0.9752
-5.6080 -2.4252 -1.1144 0.9755
-5.5211 -2.4691 -1.1031 0.9757
-5.4783 -2.4907 -1.0976 0.9758
-5.2934 -2.5262 -1.0698 0.9764
-5.2527 -2.5468 -1.0647 0.9765
-5.1447 -2.6134 -1.0525 0.9768
-5.1182 -2.6398 -1.0504 0.9769
-5.0916 -2.6662 -1.0483 0.9769
-5.0653 -2.6924 -1.0462 0.9769
-4.9347 -2.8220 -1.0368 0.9772
-4.8341 -2.9255 -1.0306 0.9773
-4.8579 -2.9811 -1.0396 0.9771
-4.8092 -3.0754 -1.0412 0.9771
-4.7930 -3.1070 -1.0418 0.9770
-4.7767 -3.1386 -1.0425 0.9770
-4.7604 -3.1702 -1.0432 0.9770
-4.7441 -3.2018 -1.0439 0.9770
-4.7277 -3.2335 -1.0447 0.9770
-4.7113 -3.2653 -1.0455 0.9770
-4.6785 -3.3289 -1.0473 0.9769
-4.6621 -3.3608 -1.0482 0.9769
-4.6134 -3.3693 -1.0419 0.9770
-4.5977 -3.4016 -1.0431 0.9770
-4.5912 -3.4410 -1.0465 0.9769
-4.5846 -3.4806 -1.0499 0.9769
-4.6178 -3.5966 -1.0676 0.9765
-4.6111 -3.6374 -1.0712 0.9764
-4.6043 -3.6785 -1.0749 0.9763
-4.5746 -3.7959 -1.0842 0.9761
-4.5324 -3.8084 -1.0797 0.9762
-4.5150 -3.8417 -1.0813 0.9762
-4.5965 -3.9603 -1.1066 0.9756
-4.6051 -4.0176 -1.1146 0.9755
-4.6227 -4.1348 -1.1312 0.9751
-4.6408 -4.2555 -1.1484 0.9747
-4.6617 -4.3280 -1.1602 0.9745
-4.7124 -4.4296 -1.1796 0.9740
-4.7649 -4.5348 -1.1997 0.9736
-5.0272 -4.9044 -1.2810 0.9718
-5.0445 -4.9825 -1.2932 0.9716
-6.0255 -6.0255 -1.5542 0.9659
-5.8779 -6.0252 -1.5352 0.9664
-5.8055 -6.0250 -1.5260 0.9666
-5.7339 -6.0248 -1.5170 0.9667
-5.5241 -6.0244 -1.4908 0.9673
-5.4557 -6.0241 -1.4824 0.9675
-5.3211 -6.0236 -1.4659 0.9678
-5.2549 -6.0234 -1.4579 0.9680
-5.0607 -6.0227 -1.4348 0.9685
-4.9973 -6.0226 -1.4274 0.9687
-4.9346 -6.0224 -1.4201 0.9688
-4.8111 -6.0220 -1.4058 0.9691
-4.7502 -6.0218 -1.3989 0.9693
-4.5126 -6.0211 -1.3724 0.9699
-4.4546 -6.0209 -1.3660 0.9700
-4.3971 -6.0207 -1.3598 0.9701
-4.2562 -5.9818 -1.3390 0.9706
-4.1541 -6.0737 -1.3421 0.9705
-4.0132 -6.1079 -1.3330 0.9707
-4.8220 -7.5404 -1.6324 0.9643
-4.7563 -7.5400 -1.6260 0.9644
-4.6265 -7.5392 -1.6133 0.9647
-4.4986 -7.5385 -1.6012 0.9649
-4.4354 -7.5381 -1.5952 0.9651
-4.3104 -7.5373 -1.5836 0.9653
-4.2485 -7.5369 -1.5780 0.9654
-4.1260 -7.5361 -1.5670 0.9657
-3.9252 -7.4963 -1.5433 0.9662
-3.9030 -7.5673 -1.5530 0.9660
-3.8717 -7.7402 -1.5785 0.9654
-3.8562 -7.8297 -1.5919 0.9651
-3.8404 -7.9208 -1.6055 0.9648
-3.6395 -7.6262 -1.5412 0.9662
-4.3508 -9.2638 -1.8667 0.9592
-3.6373 -7.8708 -1.5814 0.9654
-4.2114 -9.2630 -1.8559 0.9595
-4.1422 -9.2625 -1.8506 0.9596
-4.0735 -9.2621 -1.8455 0.9597
-4.0051 -9.2616 -1.8404 0.9598
-3.9371 -9.2612 -1.8354 0.9599
-3.8695 -9.2607 -1.8306 0.9600
-3.8021 -9.2601 -1.8258 0.9601
-3.6024 -9.2589 -1.8120 0.9604
-3.5365 -9.2585 -1.8076 0.9605
-3.4709 -9.2581 -1.8034 0.9606
-3.4559 -9.3946 -1.8257 0.9601
-4.3233 -12.7146 -2.4494 0.9469
-4.1581 -12.7439 -2.4450 0.9470
-4.0755 -12.7578 -2.4427 0.9470
-3.9929 -12.7711 -2.4405 0.9470
-3.8277 -12.7962 -2.4361 0.9471
-3.4972 -12.8400 -2.4272 0.9473
-1.8218 -6.8554 -1.2938 0.9716
-1.7312 -6.8551 -1.2895 0.9717
-1.6861 -6.8548 -1.2875 0.9717
-1.6412 -6.8546 -1.2856 0.9717
-1.5963 -6.8545 -1.2836 0.9718
-1.5071 -6.8541 -1.2800 0.9719
-1.4627 -6.8539 -1.2782 0.9719
-1.3743 -6.8535 -1.2749 0.9720
-1.3302 -6.8533 -1.2733 0.9720
-1.2424 -6.8529 -1.2703 0.9721
-1.1986 -6.8527 -1.2688 0.9721
-1.1704 -7.2161 -1.3333 0.9707
-1.3868 -8.8984 -1.6426 0.9640
-1.2742 -8.8979 -1.6394 0.9641
-1.1620 -8.8974 -1.6366 0.9642
-1.1061 -8.8972 -1.6352 0.9642
-0.8231 -8.8474 -1.6206 0.9645
-0.8785 -12.8954 -2.3574 0.9488
-0.7981 -12.8890 -2.3553 0.9488
-0.7177 -12.8822 -2.3532 0.9489
-0.6375 -12.8748 -2.3511 0.9489
-0.5573 -12.8670 -2.3490 0.9490
-0.3177 -12.8407 -2.3427 0.9491
-0.2380 -12.8310 -2.3406 0.9492
-0.1586 -12.8208 -2.3385 0.9492
-0.0792 -12.8101 -2.3365 0.9492
0.0791 -12.7874 -2.3323 0.9493
0.2369 -12.7629 -2.3282 0.9494
0.3155 -12.7499 -2.3262 0.9495
0.3940 -12.7365 -2.3241 0.9495
0.5505 -12.7083 -2.3200 0.9496
0.6286 -12.6935 -2.3180 0.9496
0.7841 -12.6626 -2.3139 0.9497
0.8616 -12.6465 -2.3119 0.9498
1.0933 -12.5955 -2.3059 0.9499
1.0891 -11.7069 -2.1444 0.9533
0.9679 -9.7498 -1.7870 0.9609
0.9279 -8.3009 -1.5234 0.9666
0.8972 -7.2169 -1.3264 0.9709
0.8506 -5.9398 -1.0944 0.9759
0.8293 -5.3209 -0.9822 0.9783
0.8514 -5.2495 -0.9700 0.9786
0.8847 -5.2488 -0.9708 0.9786
0.9179 -5.2481 -0.9717 0.9786
0.9513 -5.2474 -0.9727 0.9785
0.9848 -5.2466 -0.9736 0.9785
1.0182 -5.2460 -0.9747 0.9785
1.0518 -5.2452 -0.9757 0.9785
1.0854 -5.2445 -0.9768 0.9785
1.1191 -5.2438 -0.9779 0.9784
1.2548 -5.2409 -0.9829 0.9783
1.2890 -5.2402 -0.9842 0.9783
1.3232 -5.2394 -0.9856 0.9783
1.4265 -5.2372 -0.9900 0.9782
1.6009 -5.2336 -0.9982 0.9780
1.6361 -5.2328 -1.0000 0.9780
1.6714 -5.2321 -1.0018 0.9779
1.7069 -5.2313 -1.0036 0.9779
1.7425 -5.2306 -1.0055 0.9778
1.8503 -5.2283 -1.0115 0.9777
1.9593 -5.2260 -1.0179 0.9776
1.9959 -5.2252 -1.0202 0.9775
2.1442 -5.2221 -1.0296 0.9773
2.2194 -5.2205 -1.0346 0.9772
2.2953 -5.2189 -1.0399 0.9771
2.4496 -5.2157 -1.0510 0.9768
2.4887 -5.2149 -1.0539 0.9768
2.5676 -5.2132 -1.0599 0.9766
2.6073 -5.2124 -1.0630 0.9766
2.6473 -5.2115 -1.0661 0.9765
2.6875 -5.2107 -1.0693 0.9764
2.7688 -5.2090 -1.0759 0.9763
2.8097 -5.2081 -1.0793 0.9762
2.8510 -5.2072 -1.0828 0.9762
2.8925 -5.2064 -1.0863 0.9761
2.9343 -5.2055 -1.0899 0.9760
2.9764 -5.2046 -1.0935 0.9759
3.0187 -5.2037 -1.0972 0.9758
3.0614 -5.2029 -1.1010 0.9758
3.1043 -5.2020 -1.1049 0.9757
3.1475 -5.2011 -1.1088 0.9756
3.2350 -5.1993 -1.1169 0.9754
3.3686 -5.1965 -1.1295 0.9751
3.4593 -5.1946 -1.1383 0.9749
3.5052 -5.1936 -1.1428 0.9748
3.5982 -5.1917 -1.1521 0.9746
3.6453 -5.1907 -1.1569 0.9745
3.6927 -5.1897 -1.1617 0.9744
3.7888 -5.1877 -1.1717 0.9742
3.8865 -5.1857 -1.1820 0.9740
3.9361 -5.1847 -1.1873 0.9739
4.9120 -6.3066 -1.4580 0.9680
4.9122 -6.2272 -1.4466 0.9683
4.9159 -6.1532 -1.4365 0.9685
4.9195 -6.0802 -1.4265 0.9687
4.9379 -6.0264 -1.4210 0.9688
5.0029 -5.9539 -1.4184 0.9689
5.0691 -5.8833 -1.4164 0.9689
5.1105 -5.8578 -1.4178 0.9689
5.3228 -5.7332 -1.4269 0.9687
5.5067 -5.6446 -1.4383 0.9684
5.5549 -5.6240 -1.4418 0.9684
5.6602 -5.5906 -1.4510 0.9682
5.7114 -5.5719 -1.4553 0.9681
5.9797 -5.4832 -1.4797 0.9676
6.0987 -5.4550 -1.4924 0.9673
6.2301 -5.4353 -1.5080 0.9669
9.4796 -7.8659 -2.2467 0.9511
9.5674 -7.7410 -2.2446 0.9512
9.6108 -7.6782 -2.2436 0.9512
9.6538 -7.6153 -2.2426 0.9512
9.6964 -7.5520 -2.2416 0.9513
9.9845 -7.1042 -2.2350 0.9514
10.0241 -7.0395 -2.2341 0.9514
10.1023 -6.9094 -2.2323 0.9515
10.1409 -6.8441 -2.2314 0.9515
10.1790 -6.7787 -2.2305 0.9515
10.2542 -6.6472 -2.2288 0.9515
10.3643 -6.4486 -2.2263 0.9516
10.4709 -6.2485 -2.2240 0.9516
10.5400 -6.1143 -2.2224 0.9517
10.6739 -5.8439 -2.2195 0.9517
10.7063 -5.7759 -2.2188 0.9517
10.7702 -5.6395 -2.2174 0.9518
10.8015 -5.5711 -2.2167 0.9518
10.8325 -5.5025 -2.2160 0.9518
10.8631 -5.4337 -2.2153 0.9518
10.9231 -5.2960 -2.2141 0.9518
10.9525 -5.2268 -2.2134 0.9519
10.9815 -5.1576 -2.2128 0.9519
11.0385 -5.0190 -2.2116 0.9519
11.0939 -4.8791 -2.2104 0.9519
11.1741 -4.6690 -2.2088 0.9520
11.2000 -4.5986 -2.2082 0.9520
11.2256 -4.5282 -2.2077 0.9520
11.2508 -4.4577 -2.2072 0.9520
11.2755 -4.3870 -2.2067 0.9520
11.3000 -4.3162 -2.2062 0.9520
11.3239 -4.2454 -2.2057 0.9520
11.3475 -4.1744 -2.2053 0.9520
11.3708 -4.1032 -2.2048 0.9520
11.4161 -3.9607 -2.2039 0.9521
11.4381 -3.8893 -2.2035 0.9521
11.4597 -3.8177 -2.2031 0.9521
11.5224 -3.6025 -2.2019 0.9521
11.5424 -3.5306 -2.2015 0.9521
11.5815 -3.3865 -2.2008 0.9521
11.6004 -3.3143 -2.2004 0.9521
11.6370 -3.1696 -2.1998 0.9521
11.6547 -3.0971 -2.1995 0.9522
11.6721 -3.0246 -2.1992 0.9522
11.6890 -2.9519 -2.1989 0.9522
11.7056 -2.8792 -2.1986 0.9522
11.7374 -2.7336 -2.1981 0.9522
11.7528 -2.6606 -2.1978 0.9522
11.7965 -2.4414 -2.1971 0.9522
11.8102 -2.3682 -2.1969 0.9522
11.8366 -2.2215 -2.1965 0.9522
11.8492 -2.1481 -2.1964 0.9522
11.8613 -2.0747 -2.1962 0.9522
11.8845 -1.9275 -2.1959 0.9522
11.8955 -1.8539 -2.1958 0.9522
11.9162 -1.7064 -2.1956 0.9522
11.9260 -1.6327 -2.1955 0.9522
11.9354 -1.5588 -2.1954 0.9522
11.9612 -1.3370 -2.1952 0.9522
11.9900 -1.0407 -2.1951 0.9522
11.9962 -0.9665 -2.1950 0.9522
12.0019 -0.8923 -2.1951 0.9522
12.0123 -0.7438 -2.1951 0.9522
12.0169 -0.6695 -2.1951 0.9522
12.0249 -0.5209 -2.1953 0.9522
12.0283 -0.4465 -2.1953 0.9522
12.0338 -0.2977 -2.1955 0.9522
12.0401 0.0000 -2.1960 0.9522
12.0390 0.3724 -2.1968 0.9522
12.0376 0.4469 -2.1970 0.9522
12.0357 0.5213 -2.1972 0.9522
12.0335 0.5958 -2.1974 0.9522
12.0308 0.6703 -2.1977 0.9522
12.0243 0.8192 -2.1982 0.9522
12.0115 1.0426 -2.1990 0.9522
12.0065 1.1170 -2.1993 0.9522
11.9951 1.2657 -2.1999 0.9521
11.9822 1.4144 -2.2006 0.9521
11.9676 1.5630 -2.2013 0.9521
11.9428 1.7857 -2.2024 0.9521
11.9336 1.8598 -2.2028 0.9521
11.9039 2.0821 -2.2041 0.9521
11.8932 2.1561 -2.2045 0.9520
11.8821 2.2301 -2.2050 0.9520
11.8587 2.3779 -2.2059 0.9520
11.8336 2.5255 -2.2069 0.9520
11.8205 2.5993 -2.2074 0.9520
11.8070 2.6729 -2.2079 0.9520
11.7787 2.8201 -2.2090 0.9519
11.7640 2.8936 -2.2096 0.9519
11.7333 3.0404 -2.2107 0.9519
11.7173 3.1138 -2.2113 0.9519
11.7010 3.1870 -2.2119 0.9519
11.6842 3.2602 -2.2125 0.9519
11.6495 3.4064 -2.2137 0.9518
11.6132 3.5522 -2.2150 0.9518
11.5154 3.9155 -2.2184 0.9517
11.4946 3.9879 -2.2191 0.9517
11.4518 4.1325 -2.2205 0.9517
11.4074 4.2767 -2.2220 0.9517
11.3139 4.5639 -2.2251 0.9516
11.2896 4.6354 -2.2259 0.9516
11.2648 4.7069 -2.2267 0.9516
11.2140 4.8494 -2.2284 0.9515
11.1617 4.9916 -2.2301 0.9515
11.0521 5.2744 -2.2336 0.9514
11.0238 5.3448 -2.2345 0.9514
10.9950 5.4151 -2.2354 0.9514
10.9063 5.6252 -2.2382 0.9513
10.8759 5.6949 -2.2391 0.9513
10.8452 5.7649 -2.2401 0.9513
10.8141 5.8341 -2.2411 0.9513
10.7825 5.9033 -2.2421 0.9512
10.7182 6.0415 -2.2441 0.9512
10.6523 6.1792 -2.2461 0.9512
10.5849 6.3163 -2.2482 0.9511
10.5507 6.3846 -2.2492 0.9511
10.4453 6.5890 -2.2525 0.9510
10.4095 6.6567 -2.2536 0.9510
10.2620 6.9259 -2.2581 0.9509
10.2242 6.9928 -2.2592 0.9509
10.1859 7.0595 -2.2604 0.9509
10.0689 7.2585 -2.2639 0.9508
10.0291 7.3245 -2.2651 0.9508
9.9075 7.5214 -2.2687 0.9507
9.8244 7.6517 -2.2712 0.9506
9.7398 7.7813 -2.2737 0.9506
9.6969 7.8457 -2.2750 0.9505
9.6536 7.9100 -2.2763 0.9505
9.4316 8.2284 -2.2829 0.9504
9.3861 8.2914 -2.2842 0.9504
9.3401 8.3542 -2.2855 0.9503
9.2471 8.4792 -2.2883 0.9503
9.2000 8.5414 -2.2897 0.9502
9.1048 8.6651 -2.2924 0.9502
9.0566 8.7265 -2.2939 0.9501
8.9097 8.9097 -2.2981 0.9501
8.8600 8.9703 -2.2996 0.9500
8.8100 9.0306 -2.3010 0.9500
8.7087 9.1505 -2.3040 0.9499
8.6575 9.2102 -2.3055 0.9499
8.6060 9.2695 -2.3070 0.9499
8.4491 9.4461 -2.3115 0.9498
8.3961 9.5045 -2.3130 0.9497
8.1803 9.7353 -2.3192 0.9496
8.1255 9.7924 -2.3208 0.9496
7.9588 9.9619 -2.3256 0.9495
7.7888 10.1289 -2.3304 0.9494
7.4394 10.4554 -2.3404 0.9492
7.3799 10.5088 -2.3421 0.9491
7.3201 10.5619 -2.3438 0.9491
7.1994 10.6671 -2.3472 0.9490
7.1385 10.7193 -2.3489 0.9490
7.0158 10.8228 -2.3524 0.9489
6.9538 10.8740 -2.3542 0.9489
6.7661 11.0259 -2.3595 0.9488
6.7029 11.0759 -2.3612 0.9487
6.6393 11.1256 -2.3630 0.9487
6.5753 11.1749 -2.3648 0.9486
6.3815 11.3210 -2.3703 0.9485
6.3163 11.3690 -2.3721 0.9485
6.2507 11.4167 -2.3739 0.9485
6.1848 11.4641 -2.3758 0.9484
6.0520 11.5577 -2.3795 0.9483
5.7143 11.7858 -2.3889 0.9481
5.5606 11.8396 -2.3857 0.9482
5.4224 11.9267 -2.3896 0.9481
2.3904 5.4352 -1.0830 0.9761
2.3150 5.4454 -1.0792 0.9762
2.2772 5.4498 -1.0773 0.9763
2.2393 5.4537 -1.0753 0.9763
2.2015 5.4576 -1.0733 0.9764
2.1268 5.4662 -1.0698 0.9764
2.0905 5.4730 -1.0686 0.9765
2.0544 5.4797 -1.0674 0.9765
1.9833 5.4961 -1.0657 0.9765
1.9481 5.5047 -1.0650 0.9765
1.8784 5.5242 -1.0642 0.9766
1.7748 5.5557 -1.0638 0.9766
1.7408 5.5678 -1.0640 0.9766
1.7067 5.5797 -1.0642 0.9766
1.6729 5.5927 -1.0647 0.9765
1.6058 5.6204 -1.0661 0.9765
1.5108 5.6850 -1.0729 0.9764
1.4804 5.7126 -1.0763 0.9763
1.3945 6.1599 -1.1519 0.9746
1.3759 6.8617 -1.2764 0.9719
1.3632 7.0232 -1.3049 0.9713
1.2790 7.3125 -1.3540 0.9703
1.8043 10.7049 -1.9800 0.9568
1.6675 10.6993 -1.9750 0.9569
1.4643 10.6964 -1.9691 0.9571
1.3980 10.7038 -1.9688 0.9571
1.3326 10.7188 -1.9700 0.9570
1.2683 10.7442 -1.9732 0.9570
1.0994 11.0747 -2.0298 0.9558
1.0267 11.8282 -2.1655 0.9529
1.1075 13.7453 -2.5151 0.9455
0.9391 13.7827 -2.5196 0.9454
0.8546 13.8007 -2.5219 0.9453
0.6851 13.8352 -2.5265 0.9452
0.6001 13.8517 -2.5288 0.9452
0.4858 13.0838 -2.3880 0.9482
0.4034 13.0414 -2.3798 0.9483
0.3231 13.0555 -2.3819 0.9483
0.2425 13.0691 -2.3841 0.9482
0.0810 13.0948 -2.3884 0.9481
-0.0811 13.1187 -2.3927 0.9481
-0.2438 13.1405 -2.3971 0.9480
-0.3253 13.1507 -2.3993 0.9479
-0.4070 13.1604 -2.4015 0.9479
-0.4888 13.1696 -2.4036 0.9478
-0.5708 13.1783 -2.4058 0.9478
-0.7351 13.1942 -2.4102 0.9477
-0.8174 13.2014 -2.4124 0.9476
-0.8998 13.2081 -2.4146 0.9476
-0.9824 13.2144 -2.4168 0.9475
-1.0651 13.2200 -2.4190 0.9475
-1.1479 13.2252 -2.4212 0.9475
-1.3138 13.2341 -2.4256 0.9474
-1.4800 13.2408 -2.4300 0.9473
-1.7470 12.1993 -2.2477 0.9511
-1.8806 12.0670 -2.2275 0.9516
-1.9571 12.0667 -2.2296 0.9515
-2.0337 12.0664 -2.2318 0.9515
-2.1224 12.1342 -2.2467 0.9511
-2.2972 12.6712 -2.3488 0.9490
-2.3781 12.6709 -2.3514 0.9489
-2.4653 12.7017 -2.3599 0.9488
-2.6570 13.2506 -2.4649 0.9465
-2.7413 13.2458 -2.4671 0.9465
-3.0791 13.2209 -2.4759 0.9463
-3.1636 13.2133 -2.4781 0.9463
-3.4172 13.1874 -2.4847 0.9461
-3.5018 13.1776 -2.4869 0.9461
-3.8402 13.1331 -2.4956 0.9459
-3.9247 13.1206 -2.4978 0.9458
-4.0093 13.1076 -2.5000 0.9458
-4.0939 13.0940 -2.5022 0.9457
-4.1784 13.0799 -2.5044 0.9457
-4.2629 13.0651 -2.5066 0.9457
-4.3474 13.0499 -2.5088 0.9456
-4.6007 13.0007 -2.5153 0.9455
-4.8537 12.9466 -2.5218 0.9453
-4.9379 12.9274 -2.5240 0.9453
-5.1061 12.8874 -2.5283 0.9452
-3.6324 9.0047 -1.7710 0.9613
-3.6475 8.8835 -1.7515 0.9617
-3.7118 8.8833 -1.7560 0.9616
-3.8413 8.8829 -1.7651 0.9614
-3.9723 8.8825 -1.7747 0.9612
-4.1715 8.8821 -1.7898 0.9609
-4.2387 8.8819 -1.7950 0.9608
-3.6749 7.4616 -1.5170 0.9667
-3.7323 7.4614 -1.5216 0.9666
-3.8481 7.4609 -1.5311 0.9664
-3.9654 7.4604 -1.5410 0.9662
-3.9768 7.2636 -1.5104 0.9669
-4.1295 7.3259 -1.5338 0.9664
-4.1428 7.2443 -1.5221 0.9666
-4.2479 7.1185 -1.5119 0.9669
-4.3916 7.1566 -1.5315 0.9664
-4.7018 7.1558 -1.5617 0.9658
-4.7652 7.1556 -1.5680 0.9656
-4.8292 7.1554 -1.5745 0.9655
-5.0245 7.1548 -1.5946 0.9651
-5.0907 7.1545 -1.6015 0.9649
-5.1505 7.1447 -1.6064 0.9648
-4.2396 5.7304 -1.3001 0.9714
-4.3669 5.7522 -1.3172 0.9711
-4.3755 5.6901 -1.3092 0.9712
-4.3839 5.6287 -1.3013 0.9714
-4.4756 5.6021 -1.3078 0.9713
-4.5634 5.6400 -1.3232 0.9709
-4.6794 5.6394 -1.3365 0.9706
-4.7383 5.6390 -1.3434 0.9705
-4.8579 5.6383 -1.3574 0.9702
-4.9801 5.6376 -1.3720 0.9699
-5.0422 5.6372 -1.3794 0.9697
-5.2326 5.6361 -1.4027 0.9692
-5.5650 5.6343 -1.4444 0.9683
-5.7740 5.6329 -1.4713 0.9677
-5.8454 5.6324 -1.4805 0.9675
-5.9177 5.6319 -1.4900 0.9673
-5.9909 5.6314 -1.4996 0.9671
-6.1858 5.4645 -1.5054 0.9670
-5.1978 4.5347 -1.2581 0.9723
-4.9213 4.1874 -1.1785 0.9741
-4.7853 3.9211 -1.1284 0.9752
-4.7750 3.8635 -1.1203 0.9753
-4.7661 3.8078 -1.1126 0.9755
-4.7573 3.7528 -1.1052 0.9757
-4.7402 3.6451 -1.0906 0.9760
-4.6594 3.4473 -1.0571 0.9767
-4.6718 3.3679 -1.0504 0.9769
-4.6780 3.3285 -1.0471 0.9769
-4.6840 3.2894 -1.0439 0.9770
-4.6962 3.2119 -1.0377 0.9771
-4.7021 3.1735 -1.0347 0.9772
-4.7140 3.0974 -1.0288 0.9773
-4.7199 3.0596 -1.0259 0.9774
-4.7258 3.0221 -1.0231 0.9775
-4.7361 2.9876 -1.0213 0.9775
-4.7896 2.9801 -1.0289 0.9773
-4.8369 2.8865 -1.0273 0.9774
-4.8997 2.7620 -1.0259 0.9774
-4.9311 2.6998 -1.0254 0.9774
-4.9468 2.6687 -1.0252 0.9774
-4.9624 2.6377 -1.0250 0.9774
-5.0743 2.4216 -1.0255 0.9774
-5.1003 2.3954 -1.0277 0.9773
-5.1263 2.3690 -1.0300 0.9773
-5.1788 2.3160 -1.0347 0.9772
-5.2053 2.2893 -1.0371 0.9771
-5.2853 2.2084 -1.0447 0.9770
-5.3238 2.1859 -1.0497 0.9769
-5.3655 2.1644 -1.0552 0.9768
-5.4076 2.1426 -1.0609 0.9766
-5.5369 2.0758 -1.0785 0.9762
-5.5809 2.0530 -1.0846 0.9761
-5.7386 2.0308 -1.1103 0.9756
-5.8166 2.0181 -1.1229 0.9753
-5.8965 2.0050 -1.1359 0.9750
-6.0619 1.9779 -1.1630 0.9744
-6.1475 1.9639 -1.1771 0.9741
-6.2555 1.9558 -1.1954 0.9737
-6.3920 1.9552 -1.2191 0.9732
-6.5340 1.9545 -1.2439 0.9727
-6.9970 1.9524 -1.3249 0.9709
-7.1757 1.9069 -1.3542 0.9703
-7.3284 1.8990 -1.3808 0.9697
-7.5161 1.8982 -1.4139 0.9690
-8.8339 1.9999 -1.6520 0.9638
-8.8337 1.9425 -1.6497 0.9639
-8.8645 1.8918 -1.6532 0.9638
-9.3798 1.9412 -1.7470 0.9618
-9.9869 1.9384 -1.8555 0.9595
-10.3197 1.9369 -1.9151 0.9582
-10.6746 1.9352 -1.9787 0.9568
-10.9345 1.9126 -2.0246 0.9559
-15.0203 2.0562 -2.7651 0.9402
-15.0336 1.9634 -2.7653 0.9402
-15.0464 1.8706 -2.7654 0.9402
-15.0804 1.5913 -2.7658 0.9402
-15.0904 1.4980 -2.7659 0.9402
-15.0997 1.4047 -2.7659 0.9402
-15.1084 1.3114 -2.7660 0.9402
-15.1237 1.1244 -2.7660 0.9402
-15.1362 0.9372 -2.7660 0.9402
-15.1415 0.8436 -2.7659 0.9402
-15.1461 0.7499 -2.7659 0.9402
-15.1500 0.6562 -2.7658 0.9402
-15.1532 0.5625 -2.7657 0.9402
-15.1558 0.4688 -2.7656 0.9402
-15.1588 0.2813 -2.7653 0.9402
-14.4438 -0.0893 -2.7454 0.9429
-14.4418 -0.1786 -2.7452 0.9429
-14.4358 -0.3572 -2.7447 0.9429
-14.4318 -0.4464 -2.7444 0.9429
-14.4219 -0.6247 -2.7438 0.9429
-14.4160 -0.7138 -2.7434 0.9429
-14.3860 -1.0696 -2.7419 0.9430
-14.3770 -1.1583 -2.7415 0.9430
-14.3672 -1.2470 -2.7411 0.9430
-14.3459 -1.4241 -2.7402 0.9430
-14.3342 -1.5126 -2.7397 0.9430
-14.3220 -1.6009 -2.7392 0.9430
-14.2956 -1.7772 -2.7381 0.9430
-14.2513 -2.0409 -2.7364 0.9431
-14.2186 -2.2160 -2.7352 0.9431
-14.1649 -2.4776 -2.7332 0.9431
-13.1461 -2.3833 -2.5394 0.9471
-12.4715 -2.3407 -2.4119 0.9496
-11.9977 -2.4831 -2.3287 0.9513
-9.3671 -2.3656 -1.8363 0.9614
-9.1246 -2.3644 -1.7916 0.9623
-8.7130 -2.4312 -1.7193 0.9638
-8.6360 -2.4673 -1.7071 0.9641
-7.5892 -2.4245 -1.5143 0.9681
-7.0582 -2.3030 -1.4112 0.9702
-6.9234 -2.3542 -1.3899 0.9707
-6.7836 -2.3535 -1.3648 0.9712
-6.5186 -2.3523 -1.3172 0.9722
-6.3928 -2.3517 -1.2947 0.9726
-6.2713 -2.3511 -1.2730 0.9731
-6.1538 -2.3506 -1.2521 0.9735
-5.5638 -2.4470 -1.1553 0.9756
-5.3519 -2.5541 -1.1271 0.9761
-5.3108 -2.5749 -1.1218 0.9763
-5.2296 -2.6159 -1.1114 0.9765
-5.1657 -2.6643 -1.1048 0.9766
-5.1389 -2.6909 -1.1026 0.9767
-5.0858 -2.7437 -1.0984 0.9767
-5.0593 -2.7700 -1.0963 0.9768
-5.0067 -2.8222 -1.0924 0.9769
-4.9805 -2.8482 -1.0905 0.9769
-4.9545 -2.8741 -1.0887 0.9769
-4.8767 -2.9512 -1.0834 0.9771
-4.8570 -2.9805 -1.0832 0.9771
-4.7759 -3.1380 -1.0862 0.9770
-4.7596 -3.1696 -1.0869 0.9770
-4.7432 -3.2013 -1.0877 0.9770
-4.6433 -3.4354 -1.0978 0.9768
-4.6367 -3.4751 -1.1014 0.9767
-4.6301 -3.5151 -1.1049 0.9766
-4.6100 -3.6366 -1.1160 0.9764
-4.5951 -3.9591 -1.1529 0.9756
-4.6212 -4.1335 -1.1785 0.9751
-4.6302 -4.1933 -1.1873 0.9749
-4.6592 -4.3256 -1.2084 0.9744
-4.8164 -4.6410 -1.2713 0.9731
-4.8449 -4.7265 -1.2865 0.9728
-5.9514 -6.0255 -1.6097 0.9661
-5.7341 -6.0250 -1.5809 0.9667
-5.6633 -6.0249 -1.5717 0.9669
-5.5934 -6.0247 -1.5626 0.9671
-5.4558 -6.0242 -1.5448 0.9674
-5.3881 -6.0240 -1.5362 0.9676
-5.2551 -6.0235 -1.5194 0.9680
-5.1249 -6.0231 -1.5032 0.9683
-5.0609 -6.0229 -1.4953 0.9685
-4.8726 -6.0223 -1.4724 0.9690
-4.8112 -6.0221 -1.4651 0.9691
-4.5127 -6.0212 -1.4302 0.9698
-4.3972 -6.0208 -1.4171 0.9701
-4.1456 -5.9816 -1.3833 0.9708
-4.0862 -6.1359 -1.4012 0.9704
-4.0753 -6.2024 -1.4106 0.9702
-3.9253 -6.1382 -1.3849 0.9708
-4.6266 -7.5394 -1.6813 0.9646
-4.5624 -7.5391 -1.6749 0.9648
-4.4987 -7.5387 -1.6686 0.9649
-4.4355 -7.5383 -1.6624 0.9650
-4.3728 -7.5380 -1.6564 0.9651
-4.1871 -7.5367 -1.6387 0.9655
-4.1261 -7.5363 -1.6331 0.9656
-4.0655 -7.5359 -1.6275 0.9657
-3.8663 -7.4961 -1.6031 0.9662
-3.8373 -7.5543 -1.6105 0.9661
-3.6014 -7.6682 -1.6102 0.9661
-3.5508 -7.6836 -1.6088 0.9661
-3.8696 -9.2609 -1.9077 0.9600
-3.6687 -9.2594 -1.8930 0.9603
-3.4709 -9.2582 -1.8793 0.9605
-4.3791 -12.1354 -2.4522 0.9488
-4.0635 -12.1974 -2.4436 0.9490
-3.8264 -12.2384 -2.4372 0.9491
-3.7473 -12.2511 -2.4351 0.9492
-3.6683 -12.2632 -2.4329 0.9492
-3.3520 -12.3068 -2.4244 0.9494
-1.7764 -6.8554 -1.3460 0.9716
-1.6412 -6.8548 -1.3397 0.9717
-1.5517 -6.8544 -1.3358 0.9718
-1.5072 -6.8542 -1.3339 0.9718
-1.4628 -6.8540 -1.3321 0.9719
-1.4184 -6.8538 -1.3303 0.9719
-1.2862 -6.8532 -1.3253 0.9720
-1.2424 -6.8530 -1.3238 0.9720
-1.1690 -7.2074 -1.3878 0.9707
-1.3868 -8.8985 -1.7118 0.9640
-1.3304 -8.8983 -1.7101 0.9640
-1.1620 -8.8975 -1.7055 0.9641
-1.1061 -8.8973 -1.7041 0.9642
-1.0502 -8.8971 -1.7028 0.9642
-0.8231 -8.8475 -1.6889 0.9645
-0.8431 -12.3753 -2.3576 0.9508
-0.6888 -12.3634 -2.3536 0.9508
-0.5349 -12.3497 -2.3495 0.9509
-0.4581 -12.3422 -2.3475 0.9510
-0.3815 -12.3342 -2.3455 0.9510
-0.3049 -12.3258 -2.3435 0.9510
-0.2285 -12.3169 -2.3415 0.9511
-0.1522 -12.3076 -2.3395 0.9511
0.0000 -12.2875 -2.3355 0.9512
0.1518 -12.2657 -2.3315 0.9513
0.2274 -12.2542 -2.3296 0.9513
0.3783 -12.2297 -2.3256 0.9514
0.4536 -12.2168 -2.3237 0.9514
0.5287 -12.2034 -2.3217 0.9515
0.6036 -12.1897 -2.3197 0.9515
0.7530 -12.1608 -2.3159 0.9516
0.9761 -12.1144 -2.3101 0.9517
1.0956 -11.7765 -2.2480 0.9530
0.9706 -9.7771 -1.8675 0.9608
0.9307 -8.3261 -1.5924 0.9665
0.9146 -7.7483 -1.4829 0.9687
0.9483 -7.2606 -1.3917 0.9706
0.8537 -5.9615 -1.1447 0.9758
0.8515 -5.2498 -1.0109 0.9786
0.8847 -5.2491 -1.0118 0.9786
1.0183 -5.2463 -1.0158 0.9785
1.0519 -5.2455 -1.0169 0.9785
1.1530 -5.2434 -1.0204 0.9784
1.1869 -5.2427 -1.0217 0.9784
1.2208 -5.2420 -1.0230 0.9783
1.2549 -5.2412 -1.0244 0.9783
1.2890 -5.2405 -1.0258 0.9783
1.3233 -5.2398 -1.0272 0.9782
1.3576 -5.2390 -1.0287 0.9782
1.4612 -5.2369 -1.0334 0.9781
1.4960 -5.2361 -1.0351 0.9781
1.5309 -5.2354 -1.0368 0.9780
1.5658 -5.2346 -1.0385 0.9780
1.6010 -5.2339 -1.0403 0.9780
1.7070 -5.2316 -1.0460 0.9778
1.7427 -5.2309 -1.0480 0.9778
1.7784 -5.2301 -1.0500 0.9778
1.8143 -5.2294 -1.0521 0.9777
1.8866 -5.2279 -1.0564 0.9776
1.9229 -5.2271 -1.0586 0.9776
2.0698 -5.2240 -1.0680 0.9774
2.1070 -5.2232 -1.0705 0.9773
2.1443 -5.2224 -1.0730 0.9773
2.2955 -5.2193 -1.0837 0.9771
2.3338 -5.2184 -1.0865 0.9770
2.3722 -5.2176 -1.0894 0.9769
2.4109 -5.2168 -1.0923 0.9769
2.4889 -5.2152 -1.0984 0.9767
2.5677 -5.2135 -1.1046 0.9766
2.6075 -5.2127 -1.1078 0.9765
2.6877 -5.2110 -1.1145 0.9764
2.7689 -5.2094 -1.1213 0.9763
2.8100 -5.2085 -1.1249 0.9762
2.8512 -5.2076 -1.1285 0.9761
2.9766 -5.2050 -1.1397 0.9759
3.0189 -5.2041 -1.1435 0.9758
3.1045 -5.2023 -1.1515 0.9756
3.1913 -5.2005 -1.1597 0.9755
3.3239 -5.1978 -1.1727 0.9752
3.3688 -5.1969 -1.1772 0.9751
3.4140 -5.1959 -1.1817 0.9750
3.5055 -5.1940 -1.1910 0.9748
3.5518 -5.1930 -1.1958 0.9747
3.5985 -5.1921 -1.2007 0.9746
3.8868 -5.1861 -1.2318 0.9740
4.8907 -6.3600 -1.5249 0.9679
4.8891 -6.2773 -1.5123 0.9681
4.8918 -6.1231 -1.4896 0.9686
4.8956 -6.0506 -1.4794 0.9688
4.8993 -5.9792 -1.4693 0.9690
4.9062 -5.9126 -1.4603 0.9692
4.9533 -5.8214 -1.4528 0.9694
4.9936 -5.7958 -1.4541 0.9693
5.1643 -5.7023 -1.4623 0.9692
5.2896 -5.6272 -1.4679 0.9690
5.3773 -5.5806 -1.4730 0.9689
5.5155 -5.5155 -1.4826 0.9687
5.5640 -5.4956 -1.4864 0.9687
5.6661 -5.4596 -1.4956 0.9685
5.7682 -5.4221 -1.5047 0.9683
5.8208 -5.4041 -1.5097 0.9682
5.8736 -5.3859 -1.5147 0.9681
6.2477 -5.3829 -1.5675 0.9670
6.5257 -5.5526 -1.6286 0.9657
9.1359 -7.5806 -2.2564 0.9528
9.3043 -7.3395 -2.2525 0.9529
9.3455 -7.2788 -2.2515 0.9529
9.5069 -7.0337 -2.2478 0.9530
9.5854 -6.9100 -2.2460 0.9530
9.7382 -6.6604 -2.2425 0.9531
9.7755 -6.5975 -2.2416 0.9531
9.8490 -6.4713 -2.2399 0.9532
9.8852 -6.4079 -2.2391 0.9532
9.9210 -6.3444 -2.2383 0.9532
9.9565 -6.2806 -2.2375 0.9532
10.0608 -6.0885 -2.2352 0.9532
10.0948 -6.0241 -2.2344 0.9533
10.1618 -5.8948 -2.2329 0.9533
10.2272 -5.7650 -2.2315 0.9533
10.2913 -5.6345 -2.2300 0.9534
10.3538 -5.5033 -2.2287 0.9534
10.3845 -5.4376 -2.2280 0.9534
10.4744 -5.2394 -2.2261 0.9534
10.5036 -5.1731 -2.2254 0.9534
10.5325 -5.1066 -2.2248 0.9535
10.5891 -4.9732 -2.2236 0.9535
10.6168 -4.9063 -2.2230 0.9535
10.6442 -4.8393 -2.2224 0.9535
10.6712 -4.7722 -2.2219 0.9535
10.6978 -4.7049 -2.2213 0.9535
10.7499 -4.5700 -2.2202 0.9536
10.8005 -4.4346 -2.2192 0.9536
10.8253 -4.3666 -2.2187 0.9536
10.9205 -4.0941 -2.2167 0.9536
10.9433 -4.0257 -2.2163 0.9536
10.9879 -3.8886 -2.2154 0.9537
11.0096 -3.8196 -2.2150 0.9537
11.0310 -3.7508 -2.2146 0.9537
11.0519 -3.6819 -2.2141 0.9537
11.0725 -3.6128 -2.2138 0.9537
11.0927 -3.5433 -2.2134 0.9537
11.1320 -3.4048 -2.2126 0.9537
11.1511 -3.3356 -2.2123 0.9537
11.2060 -3.1268 -2.2113 0.9537
11.2574 -2.9171 -2.2104 0.9538
11.2898 -2.7770 -2.2098 0.9538
11.3500 -2.4958 -2.2088 0.9538
11.4040 -2.2134 -2.2080 0.9538
11.4166 -2.1427 -2.2078 0.9538
11.4287 -2.0719 -2.2077 0.9538
11.4519 -1.9301 -2.2074 0.9538
11.4837 -1.7171 -2.2070 0.9538
11.4936 -1.6459 -2.2069 0.9538
11.5030 -1.5747 -2.2068 0.9538
11.5121 -1.5035 -2.2067 0.9538
11.5208 -1.4322 -2.2066 0.9538
11.5445 -1.2182 -2.2065 0.9538
11.5584 -1.0753 -2.2064 0.9538
11.5648 -1.0038 -2.2064 0.9538
11.5815 -0.7890 -2.2064 0.9538
11.5863 -0.7174 -2.2064 0.9538
11.5907 -0.6458 -2.2065 0.9538
11.5984 -0.5024 -2.2066 0.9538
11.6017 -0.4307 -2.2066 0.9538
11.6070 -0.2872 -2.2068 0.9538
11.6107 -0.1436 -2.2070 0.9538
11.6121 -0.0718 -2.2072 0.9538
11.6135 0.0718 -2.2074 0.9538
11.6134 0.2155 -2.2077 0.9538
11.6128 0.2873 -2.2079 0.9538
11.6117 0.3592 -2.2081 0.9538
11.6103 0.4310 -2.2083 0.9538
11.6085 0.5029 -2.2085 0.9538
11.5973 0.7902 -2.2094 0.9538
11.5935 0.8620 -2.2097 0.9538
11.5894 0.9337 -2.2099 0.9538
11.5848 1.0055 -2.2102 0.9538
11.5562 1.3642 -2.2117 0.9537
11.5493 1.4358 -2.2121 0.9537
11.5420 1.5074 -2.2124 0.9537
11.5344 1.5790 -2.2128 0.9537
11.5263 1.6506 -2.2132 0.9537
11.5179 1.7222 -2.2135 0.9537
11.4998 1.8652 -2.2143 0.9537
11.4697 2.0793 -2.2156 0.9536
11.4589 2.1507 -2.2160 0.9536
11.4361 2.2932 -2.2169 0.9536
11.4242 2.3643 -2.2174 0.9536
11.4118 2.4355 -2.2179 0.9536
11.3990 2.5066 -2.2184 0.9536
11.3859 2.5776 -2.2189 0.9536
11.3585 2.7195 -2.2199 0.9536
11.3441 2.7904 -2.2204 0.9535
11.2988 3.0026 -2.2221 0.9535
11.2330 3.2846 -2.2245 0.9535
11.2156 3.3549 -2.2251 0.9535
11.1419 3.6355 -2.2276 0.9534
11.1226 3.7054 -2.2283 0.9534
11.1028 3.7753 -2.2290 0.9534
11.0826 3.8450 -2.2297 0.9534
11.0621 3.9147 -2.2303 0.9533
11.0411 3.9843 -2.2311 0.9533
11.0199 4.0538 -2.2318 0.9533
10.9981 4.1232 -2.2325 0.9533
10.9307 4.3309 -2.2347 0.9533
10.8838 4.4686 -2.2363 0.9532
10.8353 4.6062 -2.2379 0.9532
10.7854 4.7434 -2.2395 0.9532
10.7597 4.8117 -2.2403 0.9531
10.7075 4.9483 -2.2420 0.9531
10.6536 5.0841 -2.2437 0.9531
10.6261 5.1522 -2.2446 0.9531
10.5699 5.2867 -2.2463 0.9530
10.5413 5.3545 -2.2473 0.9530
10.5122 5.4219 -2.2482 0.9530
10.4828 5.4891 -2.2491 0.9530
10.4530 5.5561 -2.2500 0.9529
10.4228 5.6230 -2.2510 0.9529
10.3613 5.7564 -2.2529 0.9529
10.3300 5.8229 -2.2539 0.9529
10.2982 5.8892 -2.2548 0.9528
10.2008 6.0873 -2.2579 0.9528
10.1675 6.1531 -2.2589 0.9528
10.1340 6.2187 -2.2599 0.9527
10.0656 6.3494 -2.2620 0.9527
10.0308 6.4146 -2.2631 0.9527
9.9956 6.4796 -2.2641 0.9527
9.9601 6.5444 -2.2652 0.9526
9.9243 6.6090 -2.2663 0.9526
9.8880 6.6735 -2.2674 0.9526
9.8514 6.7378 -2.2685 0.9526
9.7770 6.8659 -2.2708 0.9525
9.7010 6.9933 -2.2730 0.9525
9.4236 7.4337 -2.2813 0.9523
9.3825 7.4958 -2.2826 0.9523
9.3410 7.5578 -2.2838 0.9523
9.2991 7.6195 -2.2850 0.9522
9.2569 7.6811 -2.2863 0.9522
9.2142 7.7424 -2.2876 0.9522
9.1713 7.8036 -2.2888 0.9522
9.1280 7.8646 -2.2901 0.9521
8.9957 8.0462 -2.2940 0.9520
8.9510 8.1063 -2.2953 0.9520
8.9058 8.1662 -2.2966 0.9520
8.7681 8.3447 -2.3007 0.9519
8.7215 8.4037 -2.3020 0.9519
8.5795 8.5794 -2.3062 0.9518
8.4830 8.6955 -2.3090 0.9517
8.4343 8.7531 -2.3104 0.9517
8.3357 8.8677 -2.3132 0.9517
8.2858 8.9247 -2.3147 0.9516
8.1851 9.0378 -2.3176 0.9516
8.0829 9.1500 -2.3205 0.9515
8.0313 9.2057 -2.3220 0.9515
7.9794 9.2611 -2.3235 0.9514
7.6060 9.6420 -2.3342 0.9512
7.3290 9.9060 -2.3421 0.9511
7.2726 9.9579 -2.3437 0.9510
7.2158 10.0096 -2.3454 0.9510
7.1013 10.1121 -2.3486 0.9509
6.9855 10.2134 -2.3519 0.9509
6.8683 10.3136 -2.3552 0.9508
6.8092 10.3632 -2.3569 0.9508
6.6901 10.4615 -2.3602 0.9507
6.5089 10.6067 -2.3654 0.9506
6.4479 10.6545 -2.3671 0.9506
6.3865 10.7020 -2.3688 0.9505
6.2628 10.7960 -2.3723 0.9505
6.1379 10.8887 -2.3758 0.9504
6.0749 10.9346 -2.3776 0.9503
5.9481 11.0253 -2.3811 0.9503
5.8200 11.1147 -2.3847 0.9502
5.6908 11.2028 -2.3883 0.9501
5.6256 11.2463 -2.3901 0.9501
5.5602 11.2895 -2.3919 0.9501
5.4945 11.3324 -2.3938 0.9500
5.4284 11.3749 -2.3956 0.9500
2.4283 5.3411 -1.1152 0.9764
2.3886 5.3412 -1.1121 0.9765
2.3500 5.3433 -1.1095 0.9765
2.2677 5.3343 -1.1017 0.9767
2.2264 5.3284 -1.0976 0.9768
2.1512 5.3327 -1.0929 0.9769
2.1146 5.3371 -1.0911 0.9769
2.0787 5.3425 -1.0896 0.9769
2.0428 5.3479 -1.0881 0.9770
1.9729 5.3629 -1.0861 0.9770
1.9386 5.3722 -1.0856 0.9770
1.9048 5.3824 -1.0852 0.9770
1.8042 5.4155 -1.0849 0.9770
1.7380 5.4404 -1.0856 0.9770
1.6389 5.4788 -1.0869 0.9770
1.5402 5.5197 -1.0892 0.9769
1.5081 5.5369 -1.0908 0.9769
1.4368 5.8410 -1.1433 0.9758
1.4116 6.0610 -1.1829 0.9750
1.3839 6.4846 -1.2603 0.9734
1.3457 6.9332 -1.3424 0.9717
1.3325 7.0994 -1.3729 0.9710
1.3168 7.2635 -1.4031 0.9704
1.2851 7.3472 -1.4177 0.9701
1.0743 7.1846 -1.3808 0.9709
1.5318 10.6963 -2.0538 0.9570
1.3979 10.7036 -2.0517 0.9570
1.2060 10.7894 -2.0635 0.9568
1.1482 10.8807 -2.0796 0.9564
1.1021 11.1020 -2.1205 0.9556
1.0672 11.4712 -2.1898 0.9542
1.0376 11.9548 -2.2808 0.9523
0.9011 13.2246 -2.5194 0.9475
0.8200 13.2413 -2.5216 0.9474
0.7387 13.2577 -2.5238 0.9474
0.5757 13.2888 -2.5282 0.9473
0.3870 12.5106 -2.3790 0.9503
0.3099 12.5236 -2.3811 0.9503
0.0777 12.5600 -2.3873 0.9501
-0.0777 12.5818 -2.3915 0.9501
-0.3120 12.6112 -2.3978 0.9499
-0.4688 12.6284 -2.4019 0.9498
-0.6260 12.6436 -2.4061 0.9498
-0.7048 12.6505 -2.4082 0.9497
-0.8627 12.6629 -2.4124 0.9496
-1.1004 12.6779 -2.4188 0.9495
-1.1797 12.6819 -2.4209 0.9495
-1.2592 12.6854 -2.4230 0.9494
-1.4186 12.6910 -2.4272 0.9493
-1.4983 12.6930 -2.4293 0.9493
-1.7476 12.2036 -2.3432 0.9510
-1.8086 12.0958 -2.3246 0.9514
-1.8814 12.0718 -2.3222 0.9515
-2.0345 12.0711 -2.3267 0.9514
-2.2971 12.6710 -2.4477 0.9489
-2.4646 12.6979 -2.4586 0.9487
-2.7066 12.6825 -2.4649 0.9486
-2.7874 12.6763 -2.4670 0.9485
-3.0298 12.6547 -2.4733 0.9484
-3.1106 12.6465 -2.4754 0.9484
-3.1915 12.6377 -2.4775 0.9483
-3.6767 12.5742 -2.4901 0.9481
-3.8384 12.5488 -2.4942 0.9480
-3.9192 12.5353 -2.4963 0.9479
-4.0000 12.5213 -2.4984 0.9479
-4.1614 12.4916 -2.5026 0.9478
-4.2422 12.4760 -2.5047 0.9478
-4.4034 12.4432 -2.5088 0.9477
-4.8057 12.3519 -2.5192 0.9475
-3.6338 9.0083 -1.8463 0.9612
-3.6474 8.8832 -1.8252 0.9617
-3.7117 8.8830 -1.8299 0.9616
-3.7763 8.8828 -1.8346 0.9615
-3.9065 8.8824 -1.8444 0.9613
-3.9721 8.8822 -1.8494 0.9612
-4.1714 8.8820 -1.8651 0.9608
-4.2386 8.8818 -1.8706 0.9607
-4.4425 8.8813 -1.8875 0.9604
-3.8032 7.4872 -1.5962 0.9664
-3.8033 7.2634 -1.5584 0.9672
-4.0505 7.3982 -1.6032 0.9662
-4.0644 7.3158 -1.5907 0.9665
-4.0781 7.2347 -1.5785 0.9668
-4.1885 7.1185 -1.5699 0.9669
-4.2708 7.1568 -1.5841 0.9666
-4.3310 7.1566 -1.5900 0.9665
-4.4527 7.1564 -1.6020 0.9663
-4.5142 7.1562 -1.6082 0.9661
-4.6387 7.1559 -1.6209 0.9659
-4.7017 7.1557 -1.6274 0.9657
-4.8291 7.1553 -1.6408 0.9655
-4.9587 7.1548 -1.6546 0.9652
-4.1852 5.7305 -1.3488 0.9715
-4.3018 5.8144 -1.3747 0.9710
-4.3636 5.6026 -1.3498 0.9715
-4.5061 5.6403 -1.3722 0.9710
-4.6793 5.6392 -1.3928 0.9706
-4.7382 5.6389 -1.3999 0.9705
-4.7977 5.6385 -1.4072 0.9703
-4.8578 5.6382 -1.4146 0.9702
-5.1683 5.6363 -1.4535 0.9693
-5.2324 5.6359 -1.4617 0.9692
-5.2974 5.6355 -1.4701 0.9690
-5.4295 5.6348 -1.4873 0.9686
-5.5648 5.6341 -1.5052 0.9683
-5.8453 5.6323 -1.5429 0.9675
-5.9907 5.6313 -1.5628 0.9671
-6.0649 5.6308 -1.5730 0.9669
-6.1401 5.6303 -1.5834 0.9666
-6.1844 5.6008 -1.5859 0.9666
-6.1843 5.5316 -1.5771 0.9668
-5.1748 4.5147 -1.3053 0.9724
-4.8725 4.0942 -1.2097 0.9744
-4.8272 4.0055 -1.1923 0.9748
-4.7833 3.9194 -1.1754 0.9751
-4.7647 3.8067 -1.1592 0.9755
-4.7560 3.7517 -1.1514 0.9756
-4.7423 3.2435 -1.0920 0.9769
-4.7544 3.1661 -1.0857 0.9770
-4.7362 2.9877 -1.0644 0.9775
-4.8045 2.9483 -1.0714 0.9773
-4.8517 2.8547 -1.0700 0.9773
-4.8831 2.7925 -1.0692 0.9774
-4.8988 2.7614 -1.0689 0.9774
-4.9302 2.6993 -1.0683 0.9774
-4.9458 2.6682 -1.0681 0.9774
-4.9615 2.6372 -1.0680 0.9774
-4.9771 2.6062 -1.0679 0.9774
-4.9708 2.5250 -1.0597 0.9776
-4.9963 2.4992 -1.0618 0.9775
-5.0219 2.4733 -1.0640 0.9775
-5.0994 2.3950 -1.0708 0.9773
-5.2550 2.3112 -1.0912 0.9769
-5.2818 2.2841 -1.0938 0.9768
-5.3087 2.2568 -1.0964 0.9768
-5.3858 2.2114 -1.1066 0.9766
-5.4280 2.1896 -1.1125 0.9765
-5.6458 2.0769 -1.1434 0.9758
-5.7380 2.0306 -1.1569 0.9755
-5.8959 2.0048 -1.1837 0.9750
-6.0612 1.9777 -1.2118 0.9744
-6.5336 1.9544 -1.2962 0.9726
-6.8356 1.9530 -1.3513 0.9715
-6.9966 1.9522 -1.3806 0.9709
-7.1646 1.9514 -1.4114 0.9702
-8.1257 2.0521 -1.5930 0.9665
-8.3387 2.0511 -1.6322 0.9656
-8.3365 1.9960 -1.6293 0.9657
-8.8638 1.8917 -1.7227 0.9638
-9.3790 1.9411 -1.8205 0.9618
-9.9860 1.9383 -1.9335 0.9594
-10.3188 1.9367 -1.9955 0.9582
-10.6736 1.9351 -2.0618 0.9568
-10.9322 1.9121 -2.1095 0.9558
-12.5253 2.0315 -2.4118 0.9496
-12.5898 1.9621 -2.4219 0.9494
-12.5896 1.8824 -2.4195 0.9495
-13.4223 1.9221 -2.5772 0.9463
-14.3263 1.8711 -2.7461 0.9429
-14.3384 1.7825 -2.7463 0.9429
-14.3606 1.6052 -2.7465 0.9429
-14.3974 1.2496 -2.7468 0.9429
-14.4049 1.1606 -2.7468 0.9429
-14.4119 1.0715 -2.7469 0.9429
-14.4182 0.9823 -2.7469 0.9429
-14.4371 0.6254 -2.7466 0.9429
-14.4402 0.5361 -2.7466 0.9429
-14.4426 0.4467 -2.7464 0.9429
-14.4444 0.3574 -2.7463 0.9429
-14.4456 0.2680 -2.7462 0.9429
-14.4461 0.1787 -2.7460 0.9429
-13.7945 0.0000 -2.7282 0.9453
-13.7932 -0.0853 -2.7280 0.9453
-13.7913 -0.1706 -2.7278 0.9453
-13.7888 -0.2559 -2.7276 0.9453
-13.7819 -0.4263 -2.7270 0.9453
-13.7776 -0.5114 -2.7267 0.9453
-13.7671 -0.6817 -2.7261 0.9453
-13.7468 -0.9366 -2.7251 0.9454
-13.7211 -1.1909 -2.7239 0.9454
-13.7009 -1.3601 -2.7230 0.9454
-13.6899 -1.4446 -2.7226 0.9454
-13.6259 -1.8654 -2.7200 0.9455
-13.6113 -1.9492 -2.7195 0.9455
-13.5962 -2.0329 -2.7189 0.9455
-13.5804 -2.1165 -2.7183 0.9455
-13.5296 -2.3665 -2.7164 0.9455
-12.4689 -2.3402 -2.5091 0.9496
-11.9987 -2.4833 -2.4233 0.9513
-10.7890 -2.3724 -2.1848 0.9560
-10.4731 -2.3710 -2.1237 0.9572
-10.1743 -2.3695 -2.0661 0.9583
-9.8912 -2.3682 -2.0115 0.9594
-9.1252 -2.3646 -1.8643 0.9623
-8.7118 -2.3151 -1.7828 0.9639
-8.7114 -2.3728 -1.7857 0.9639
-8.6716 -2.4196 -1.7805 0.9640
-8.0580 -2.4648 -1.6666 0.9662
-7.8807 -2.4639 -1.6330 0.9669
-7.5876 -2.4239 -1.5754 0.9680
-7.0586 -2.3031 -1.4684 0.9702
-7.0543 -2.3501 -1.4705 0.9701
-6.7840 -2.3537 -1.4202 0.9711
-6.2716 -2.3512 -1.3247 0.9731
-6.1541 -2.3507 -1.3029 0.9735
-5.6737 -2.4120 -1.2193 0.9752
-5.6069 -2.4247 -1.2082 0.9754
-5.5632 -2.4467 -1.2020 0.9755
-5.4773 -2.4902 -1.1900 0.9758
-5.3929 -2.5329 -1.1784 0.9760
-5.3514 -2.5538 -1.1727 0.9761
-5.2695 -2.5953 -1.1617 0.9763
-5.1919 -2.6373 -1.1517 0.9765
-5.1116 -2.7170 -1.1449 0.9767
-5.0851 -2.7433 -1.1427 0.9767
-5.0323 -2.7958 -1.1385 0.9768
-5.0060 -2.8218 -1.1365 0.9768
-4.9538 -2.8737 -1.1327 0.9769
-4.9278 -2.8995 -1.1308 0.9770
-4.9019 -2.9252 -1.1290 0.9770
-4.8761 -2.9509 -1.1272 0.9770
-4.8562 -2.9800 -1.1269 0.9770
-4.8238 -3.0429 -1.1280 0.9770
-4.8076 -3.0744 -1.1286 0.9770
-4.7587 -3.1691 -1.1308 0.9770
-4.7424 -3.2007 -1.1316 0.9769
-4.6604 -3.3596 -1.1363 0.9768
-4.6488 -3.3951 -1.1385 0.9768
-4.6423 -3.4346 -1.1421 0.9767
-4.6291 -3.5143 -1.1495 0.9766
-4.6022 -3.6768 -1.1650 0.9763
-4.6022 -4.0151 -1.2079 0.9754
-4.6109 -4.0732 -1.2168 0.9752
-4.6287 -4.1920 -1.2351 0.9749
-4.6378 -4.2527 -1.2445 0.9747
-4.7073 -4.4248 -1.2777 0.9740
-4.7596 -4.5298 -1.2995 0.9736
-4.8443 -4.7259 -1.3385 0.9728
-4.9343 -4.8737 -1.3717 0.9721
-5.7342 -6.0252 -1.6450 0.9667
-5.5243 -6.0246 -1.6166 0.9672
-5.3882 -6.0241 -1.5985 0.9676
-5.2552 -6.0236 -1.5810 0.9679
-4.9976 -6.0228 -1.5478 0.9686
-4.8728 -6.0224 -1.5321 0.9689
-4.8113 -6.0222 -1.5245 0.9691
-4.7504 -6.0221 -1.5170 0.9692
-4.6304 -6.0217 -1.5023 0.9695
-4.5713 -6.0215 -1.4952 0.9696
-4.3403 -6.0208 -1.4679 0.9702
-4.0911 -5.9815 -1.4332 0.9709
-4.0511 -6.0024 -1.4322 0.9709
-4.0402 -6.0668 -1.4416 0.9707
-4.0291 -6.1320 -1.4511 0.9705
-3.9058 -6.1077 -1.4338 0.9709
-4.6913 -7.5399 -1.7563 0.9644
-4.5625 -7.5392 -1.7429 0.9647
-4.3729 -7.5381 -1.7235 0.9651
-4.2487 -7.5373 -1.7112 0.9653
-4.1873 -7.5369 -1.7052 0.9655
-4.0055 -7.5357 -1.6878 0.9658
-3.9457 -7.5353 -1.6822 0.9659
-3.7494 -7.4956 -1.6576 0.9664
-3.6914 -7.4952 -1.6524 0.9665
-3.6338 -7.4949 -1.6473 0.9666
-3.5766 -7.4946 -1.6424 0.9667
-3.5197 -7.4942 -1.6375 0.9668
-3.4248 -7.5329 -1.6366 0.9668
-3.4231 -7.6544 -1.6583 0.9664
-4.0053 -9.2621 -1.9958 0.9597
-3.9373 -9.2616 -1.9904 0.9598
-3.4588 -9.4024 -1.9814 0.9600
-4.0510 -11.6764 -2.4443 0.9509
-3.9754 -11.6914 -2.4423 0.9509
-3.8240 -11.7200 -2.4382 0.9510
-3.5211 -11.7712 -2.4300 0.9511
-3.4453 -11.7828 -2.4279 0.9512
-3.2180 -11.8147 -2.4218 0.9513
-1.8218 -6.8557 -1.4029 0.9715
-1.7312 -6.8553 -1.3984 0.9716
-1.6412 -6.8549 -1.3940 0.9717
-1.5964 -6.8547 -1.3920 0.9717
-1.5072 -6.8543 -1.3880 0.9718
-1.4628 -6.8541 -1.3861 0.9718
-1.3302 -6.8536 -1.3808 0.9719
-1.2424 -6.8532 -1.3775 0.9720
-1.1987 -6.8530 -1.3759 0.9720
-1.1700 -6.9418 -1.3923 0.9717
-1.1676 -7.1988 -1.4423 0.9707
-1.3232 -8.8499 -1.7697 0.9642
-1.2673 -8.8496 -1.7681 0.9642
-1.0445 -8.8487 -1.7622 0.9643
-0.9891 -8.8484 -1.7609 0.9643
-0.8783 -8.8479 -1.7585 0.9644
-0.8231 -8.8477 -1.7574 0.9644
-1.0336 -11.9087 -2.3641 0.9524
-0.7132 -8.8523 -1.7564 0.9644
-0.6581 -8.8520 -1.7555 0.9645
-0.7362 -11.8890 -2.3559 0.9526
-0.6621 -11.8835 -2.3539 0.9526
