ply
format ascii 1.0
element vertex 1540
property float32 x
property float32 y
property float32 z
property float32 I
end_header
-12.7576 -12.6008 -2.3158 0.9302
-12.5271 -12.8408 -2.3168 0.9302
-12.3710 -12.9986 -2.3174 0.9302
-12.2921 -13.0769 -2.3178 0.9302
-12.2129 -13.1546 -2.3181 0.9302
-12.1331 -13.2319 -2.3185 0.9302
-11.4785 -13.8332 -2.3214 0.9301
-11.3102 -13.9787 -2.3222 0.9300
-11.0545 -14.1933 -2.3234 0.9300
-10.8818 -14.3338 -2.3241 0.9300
-10.6196 -14.5408 -2.3254 0.9300
-10.5313 -14.6088 -2.3258 0.9299
-10.4426 -14.6762 -2.3262 0.9299
-10.0837 -14.9408 -2.3279 0.9299
-9.9929 -15.0057 -2.3283 0.9299
-9.5332 -15.3217 -2.3305 0.9298
-9.4400 -15.3834 -2.3309 0.9298
-9.2526 -15.5049 -2.3318 0.9298
-9.1583 -15.5648 -2.3323 0.9298
-9.0636 -15.6242 -2.3327 0.9297
-8.8732 -15.7413 -2.3336 0.9297
-8.7774 -15.7990 -2.3341 0.9297
-8.5848 -15.9128 -2.3350 0.9297
-8.4879 -15.9688 -2.3355 0.9297
-8.3907 -16.0242 -2.3360 0.9296
-8.1952 -16.1334 -2.3369 0.9296
-8.0970 -16.1871 -2.3374 0.9296
-7.8994 -16.2927 -2.3384 0.9296
-7.8001 -16.3447 -2.3389 0.9296
-7.7005 -16.3961 -2.3394 0.9295
-7.6006 -16.4468 -2.3399 0.9295
-7.3998 -16.5466 -2.3409 0.9295
-7.2988 -16.5956 -2.3414 0.9295
-7.0961 -16.6918 -2.3424 0.9295
-6.9942 -16.7390 -2.3429 0.9294
-6.8921 -16.7856 -2.3434 0.9294
-6.7896 -16.8316 -2.3439 0.9294
-6.6869 -16.8770 -2.3444 0.9294
-6.3769 -17.0094 -2.3460 0.9294
-6.2730 -17.0524 -2.3465 0.9293
-6.1688 -17.0947 -2.3470 0.9293
-6.0643 -17.1363 -2.3476 0.9293
-5.9596 -17.1774 -2.3481 0.9293
-5.8545 -17.2178 -2.3486 0.9293
-5.2190 -17.4473 -2.3519 0.9292
-5.1122 -17.4833 -2.3524 0.9292
-5.0052 -17.5186 -2.3530 0.9292
-4.8979 -17.5534 -2.3535 0.9291
-4.6826 -17.6209 -2.3546 0.9291
-4.3580 -17.7174 -2.3563 0.9291
-4.1405 -17.7785 -2.3574 0.9290
-4.0315 -17.8080 -2.3580 0.9290
-3.9222 -17.8369 -2.3586 0.9290
-3.8127 -17.8652 -2.3592 0.9290
-3.4832 -17.9459 -2.3609 0.9289
-3.3730 -17.9715 -2.3615 0.9289
-3.1520 -18.0208 -2.3626 0.9289
-2.5966 -18.1321 -2.3656 0.9288
-2.4850 -18.1524 -2.3662 0.9288
-2.3733 -18.1719 -2.3667 0.9288
-2.0373 -18.2266 -2.3685 0.9287
-1.9251 -18.2435 -2.3691 0.9287
-1.8127 -18.2597 -2.3697 0.9287
-1.3619 -18.3176 -2.3722 0.9286
-1.2489 -18.3304 -2.3728 0.9286
-1.1357 -18.3425 -2.3734 0.9286
-1.0226 -18.3539 -2.3740 0.9285
-0.9093 -18.3646 -2.3746 0.9285
-0.7959 -18.3746 -2.3752 0.9285
-0.4553 -18.4005 -2.3771 0.9285
-0.3415 -18.4078 -2.3777 0.9284
-0.2278 -18.4144 -2.3783 0.9284
0.1140 -18.4299 -2.3802 0.9284
0.3421 -18.4367 -2.3814 0.9283
0.4562 -18.4391 -2.3820 0.9283
0.6846 -18.4418 -2.3833 0.9283
1.3704 -18.4329 -2.3871 0.9282
1.4848 -18.4290 -2.3877 0.9281
1.5992 -18.4244 -2.3884 0.9281
1.8279 -18.4130 -2.3896 0.9281
2.1709 -18.3907 -2.3915 0.9280
2.3995 -18.3722 -2.3928 0.9280
2.5137 -18.3619 -2.3935 0.9280
2.6280 -18.3510 -2.3941 0.9280
2.8563 -18.3269 -2.3954 0.9279
2.9704 -18.3138 -2.3960 0.9279
3.0844 -18.3000 -2.3967 0.9279
3.1983 -18.2855 -2.3973 0.9279
3.6536 -18.2204 -2.3999 0.9278
4.1075 -18.1440 -2.4025 0.9277
4.2208 -18.1232 -2.4032 0.9277
4.4470 -18.0793 -2.4044 0.9277
4.6728 -18.0326 -2.4057 0.9276
4.8981 -17.9832 -2.4070 0.9276
5.2351 -17.9037 -2.4090 0.9275
5.6825 -17.7879 -2.4116 0.9275
5.9052 -17.7258 -2.4129 0.9274
6.2381 -17.6274 -2.4148 0.9274
6.5693 -17.5227 -2.4168 0.9273
6.7891 -17.4494 -2.4181 0.9273
6.8988 -17.4118 -2.4187 0.9272
7.0082 -17.3734 -2.4194 0.9272
7.2264 -17.2946 -2.4206 0.9272
7.3352 -17.2542 -2.4213 0.9272
7.4437 -17.2131 -2.4219 0.9272
7.5521 -17.1713 -2.4226 0.9271
7.7680 -17.0857 -2.4239 0.9271
8.1969 -16.9062 -2.4264 0.9270
8.4098 -16.8124 -2.4277 0.9270
8.6216 -16.7158 -2.4290 0.9269
8.7271 -16.6665 -2.4296 0.9269
8.9372 -16.5660 -2.4309 0.9269
9.1462 -16.4628 -2.4322 0.9269
9.2502 -16.4102 -2.4328 0.9268
9.5605 -16.2484 -2.4347 0.9268
9.6633 -16.1931 -2.4353 0.9268
9.7658 -16.1372 -2.4359 0.9267
10.0712 -15.9655 -2.4378 0.9267
10.1723 -15.9070 -2.4384 0.9267
10.4737 -15.7276 -2.4403 0.9266
10.5734 -15.6665 -2.4409 0.9266
10.6728 -15.6048 -2.4415 0.9266
10.7719 -15.5424 -2.4422 0.9266
10.9688 -15.4157 -2.4434 0.9265
11.2613 -15.2209 -2.4452 0.9265
11.3580 -15.1548 -2.4458 0.9265
11.4544 -15.0880 -2.4464 0.9264
11.5503 -15.0206 -2.4470 0.9264
11.7410 -14.8839 -2.4482 0.9264
12.1173 -14.6032 -2.4506 0.9263
12.2104 -14.5314 -2.4512 0.9263
12.3030 -14.4592 -2.4518 0.9263
12.5782 -14.2387 -2.4536 0.9262
12.6690 -14.1640 -2.4542 0.9262
12.7593 -14.0887 -2.4547 0.9262
12.8493 -14.0129 -2.4553 0.9262
13.0277 -13.8594 -2.4565 0.9262
13.1163 -13.7818 -2.4571 0.9261
13.2043 -13.7036 -2.4576 0.9261
13.2919 -13.6248 -2.4582 0.9261
13.6374 -13.3041 -2.4605 0.9260
13.9749 -12.9745 -2.4627 0.9260
14.0581 -12.8908 -2.4633 0.9260
14.1407 -12.8064 -2.4638 0.9259
14.3043 -12.6361 -2.4649 0.9259
14.4659 -12.4637 -2.4660 0.9259
14.5459 -12.3767 -2.4665 0.9259
14.6253 -12.2892 -2.4671 0.9258
14.7042 -12.2011 -2.4676 0.9258
14.8604 -12.0235 -2.4686 0.9258
15.2411 -11.5706 -2.4713 0.9257
15.3894 -11.3859 -2.4723 0.9257
15.4627 -11.2928 -2.4728 0.9257
15.5354 -11.1993 -2.4733 0.9257
15.6075 -11.1052 -2.4738 0.9257
15.6791 -11.0108 -2.4743 0.9256
15.7500 -10.9158 -2.4748 0.9256
15.8902 -10.7244 -2.4758 0.9256
15.9593 -10.6281 -2.4763 0.9256
16.0279 -10.5312 -2.4768 0.9256
16.2300 -10.2380 -2.4782 0.9255
16.4908 -9.8409 -2.4801 0.9255
16.5544 -9.7406 -2.4805 0.9255
16.6798 -9.5386 -2.4815 0.9254
16.7415 -9.4370 -2.4819 0.9254
16.8026 -9.3350 -2.4824 0.9254
16.9229 -9.1297 -2.4833 0.9254
17.1556 -8.7145 -2.4850 0.9253
17.2121 -8.6097 -2.4854 0.9253
17.2680 -8.5047 -2.4859 0.9253
17.3777 -8.2931 -2.4867 0.9253
17.4316 -8.1869 -2.4871 0.9253
17.4848 -8.0803 -2.4875 0.9253
17.5373 -7.9733 -2.4879 0.9252
17.5891 -7.8660 -2.4884 0.9252
17.6404 -7.7583 -2.4888 0.9252
17.8859 -7.2149 -2.4907 0.9252
17.9329 -7.1053 -2.4911 0.9252
18.0698 -6.7744 -2.4922 0.9251
18.1140 -6.6635 -2.4926 0.9251
18.2004 -6.4409 -2.4933 0.9251
18.3245 -6.1047 -2.4944 0.9251
18.3645 -5.9921 -2.4947 0.9250
18.4422 -5.7661 -2.4954 0.9250
18.5534 -5.4251 -2.4964 0.9250
18.5890 -5.3110 -2.4967 0.9250
18.6580 -5.0820 -2.4974 0.9250
18.6914 -4.9671 -2.4977 0.9250
18.8178 -4.5054 -2.4989 0.9249
18.8474 -4.3895 -2.4992 0.9249
18.9047 -4.1570 -2.4998 0.9249
18.9321 -4.0405 -2.5001 0.9249
19.0101 -3.6898 -2.5009 0.9249
19.0346 -3.5725 -2.5011 0.9249
19.0583 -3.4551 -2.5014 0.9249
19.1035 -3.2198 -2.5019 0.9248
19.1250 -3.1019 -2.5022 0.9248
19.1456 -2.9839 -2.5024 0.9248
19.1656 -2.8657 -2.5027 0.9248
19.1848 -2.7474 -2.5029 0.9248
19.2539 -2.2728 -2.5038 0.9248
19.2839 -2.0349 -2.5042 0.9248
19.2977 -1.9157 -2.5045 0.9248
19.3108 -1.7965 -2.5047 0.9248
19.3231 -1.6772 -2.5049 0.9248
19.3346 -1.5578 -2.5051 0.9247
19.3553 -1.3187 -2.5054 0.9247
19.3730 -1.0794 -2.5058 0.9247
19.3991 -0.6000 -2.5065 0.9247
19.4127 -0.1200 -2.5071 0.9247
19.4142 0.0000 -2.5072 0.9247
19.4140 0.3602 -2.5076 0.9247
19.4123 0.4803 -2.5078 0.9247
19.4100 0.6003 -2.5079 0.9247
19.4028 0.8405 -2.5081 0.9247
19.3926 1.0805 -2.5083 0.9247
19.3792 1.3203 -2.5085 0.9246
19.3433 1.7995 -2.5089 0.9246
19.3207 2.0387 -2.5090 0.9246
19.2809 2.3970 -2.5092 0.9246
19.2342 2.7544 -2.5093 0.9246
19.2171 2.8734 -2.5094 0.9246
19.1992 2.9922 -2.5094 0.9246
19.1612 3.2295 -2.5095 0.9246
19.1410 3.3480 -2.5095 0.9246
19.0040 4.0558 -2.5095 0.9246
18.9252 4.4076 -2.5095 0.9246
18.8973 4.5245 -2.5095 0.9246
18.8094 4.8741 -2.5094 0.9246
18.7471 5.1062 -2.5093 0.9246
18.7148 5.2219 -2.5092 0.9246
18.5782 5.6827 -2.5090 0.9246
18.5421 5.7973 -2.5089 0.9246
18.5054 5.9117 -2.5089 0.9246
18.4679 6.0258 -2.5088 0.9246
18.2695 6.5927 -2.5083 0.9247
18.1850 6.8176 -2.5081 0.9247
18.0074 7.2639 -2.5076 0.9247
17.9612 7.3747 -2.5075 0.9247
17.9142 7.4853 -2.5074 0.9247
17.8183 7.7054 -2.5071 0.9247
17.7693 7.8150 -2.5069 0.9247
17.7196 7.9243 -2.5068 0.9247
17.6691 8.0332 -2.5066 0.9247
17.3518 8.6796 -2.5056 0.9247
17.2965 8.7861 -2.5054 0.9247
17.2405 8.8922 -2.5052 0.9247
17.1266 9.1033 -2.5048 0.9248
17.0099 9.3130 -2.5044 0.9248
16.9506 9.4172 -2.5042 0.9248
16.8299 9.6245 -2.5038 0.9248
16.7066 9.8301 -2.5033 0.9248
16.6439 9.9323 -2.5031 0.9248
16.5806 10.0341 -2.5029 0.9248
15.4680 9.4919 -2.3437 0.9294
15.0320 10.1452 -2.3421 0.9295
14.9673 10.2368 -2.3418 0.9295
14.8363 10.4189 -2.3413 0.9295
14.7029 10.5991 -2.3408 0.9295
14.6354 10.6887 -2.3405 0.9295
14.5673 10.7777 -2.3402 0.9295
14.4986 10.8663 -2.3399 0.9295
14.4295 10.9544 -2.3397 0.9295
14.2893 11.1293 -2.3391 0.9296
13.8633 11.0757 -2.2916 0.9309
13.7606 11.1338 -2.2860 0.9311
13.6893 11.2168 -2.2856 0.9311
13.6179 11.2998 -2.2853 0.9311
13.5466 11.3828 -2.2851 0.9311
13.4097 11.5537 -2.2859 0.9311
13.4800 12.0572 -2.3357 0.9297
13.3261 12.2195 -2.3350 0.9297
13.2483 12.2999 -2.3347 0.9297
13.1701 12.3798 -2.3343 0.9297
13.0913 12.4591 -2.3340 0.9297
13.0121 12.5380 -2.3336 0.9297
12.8521 12.6942 -2.3329 0.9297
12.7714 12.7714 -2.3326 0.9297
12.4690 12.9405 -2.3208 0.9301
12.0439 12.9727 -2.2861 0.9311
11.9051 12.9832 -2.2749 0.9314
11.7675 12.9936 -2.2639 0.9317
11.5878 12.9553 -2.2447 0.9323
11.3202 12.9755 -2.2238 0.9329
11.0575 12.9954 -2.2036 0.9335
10.6721 13.0246 -2.1746 0.9343
10.5459 13.0342 -2.1653 0.9346
10.4208 13.0436 -2.1561 0.9349
10.3214 13.0843 -2.1522 0.9350
9.9678 13.1298 -2.1289 0.9357
9.6089 13.1570 -2.1041 0.9364
9.1430 13.1923 -2.0729 0.9373
6.2400 9.2457 -1.4405 0.9560
6.1972 9.3059 -1.4439 0.9559
8.6905 13.2265 -2.0439 0.9382
8.4689 13.2433 -2.0301 0.9386
8.3592 13.2516 -2.0234 0.9388
8.2502 13.2598 -2.0169 0.9390
8.0280 13.2658 -2.0025 0.9394
7.9876 13.3851 -2.0130 0.9391
7.8805 13.3932 -2.0069 0.9392
7.6683 13.4093 -1.9949 0.9396
7.3546 13.4330 -1.9778 0.9401
7.2512 13.4408 -1.9723 0.9403
7.1484 13.4486 -1.9669 0.9404
7.0461 13.4563 -1.9616 0.9406
6.8432 13.4717 -1.9514 0.9409
6.5427 13.4945 -1.9368 0.9413
5.9993 12.9819 -1.8469 0.9440
5.9054 12.9890 -1.8427 0.9441
5.8119 12.9961 -1.8386 0.9442
5.7188 13.0031 -1.8345 0.9443
5.4420 13.0241 -1.8229 0.9447
5.3505 13.0310 -1.8192 0.9448
4.1484 10.4701 -1.4544 0.9556
4.0610 10.4376 -1.4464 0.9558
3.9758 10.4085 -1.4389 0.9561
3.8733 10.3315 -1.4249 0.9565
4.3397 11.7971 -1.6233 0.9506
4.3878 12.1594 -1.6694 0.9492
3.9935 11.2847 -1.5459 0.9529
4.2558 12.2665 -1.6768 0.9490
4.0914 12.2812 -1.6718 0.9491
4.0102 12.2904 -1.6696 0.9492
3.9301 12.3025 -1.6679 0.9492
3.3461 10.7021 -1.4481 0.9558
3.7336 12.2062 -1.6485 0.9498
3.8545 13.8142 -1.8522 0.9438
3.7644 13.8210 -1.8499 0.9439
2.5730 10.4605 -1.3912 0.9575
2.5150 10.5045 -1.3949 0.9574
2.3362 10.6241 -1.4048 0.9571
2.6449 12.3931 -1.6365 0.9502
2.3932 11.9350 -1.5720 0.9521
2.6982 13.9016 -1.8288 0.9445
2.6104 13.9083 -1.8275 0.9445
2.5226 13.9149 -1.8263 0.9446
2.0855 13.9479 -1.8213 0.9447
1.9112 13.9611 -1.8198 0.9448
1.7372 13.9743 -1.8186 0.9448
1.6503 13.9808 -1.8181 0.9448
1.5635 13.9874 -1.8177 0.9448
1.4766 13.9940 -1.8173 0.9448
1.1296 14.0202 -1.8165 0.9448
1.0428 14.0268 -1.8165 0.9448
0.9561 14.0333 -1.8165 0.9448
0.8694 14.0399 -1.8167 0.9448
0.6090 14.0595 -1.8174 0.9448
0.5221 14.0661 -1.8178 0.9448
0.3483 14.0792 -1.8188 0.9448
0.0872 14.0990 -1.8208 0.9447
-0.0000 14.1056 -1.8217 0.9447
-0.0873 14.1122 -1.8226 0.9447
-0.4374 14.1386 -1.8268 0.9445
-0.7893 14.1652 -1.8322 0.9444
-0.8776 14.1719 -1.8337 0.9443
-1.0546 14.1853 -1.8370 0.9442
-1.1524 10.9206 -1.4182 0.9567
-1.2170 10.8872 -1.4148 0.9568
-1.2819 10.8592 -1.4121 0.9569
-1.4101 10.7969 -1.4062 0.9570
-1.5373 10.7352 -1.4005 0.9572
-2.1332 14.2667 -1.8630 0.9435
-2.5003 14.2945 -1.8741 0.9432
-2.0182 11.1324 -1.4611 0.9554
-2.8720 14.3225 -1.8865 0.9428
-2.5965 11.8078 -1.5614 0.9524
-2.6703 11.7952 -1.5618 0.9524
-3.4395 14.3654 -1.9077 0.9422
-3.5353 14.3726 -1.9115 0.9421
-2.7369 10.8373 -1.4435 0.9559
-2.8199 10.8820 -1.4518 0.9557
-3.0024 11.0232 -1.4754 0.9550
-4.2177 14.4242 -1.9408 0.9412
-4.4167 14.4392 -1.9500 0.9409
-4.6176 14.4544 -1.9596 0.9406
-4.7188 14.4620 -1.9646 0.9405
-4.8205 14.4697 -1.9697 0.9403
-4.9228 14.4774 -1.9748 0.9402
-4.4685 12.6268 -1.7298 0.9474
-4.4734 12.3965 -1.7020 0.9482
-4.5433 12.3504 -1.6995 0.9483
-4.7227 12.3639 -1.7093 0.9480
-4.8132 12.3708 -1.7143 0.9479
-4.9042 12.3776 -1.7194 0.9477
-4.7126 11.6825 -1.6269 0.9505
-4.6007 11.2049 -1.5643 0.9523
-4.6663 11.1676 -1.5631 0.9524
-4.7343 11.1363 -1.5628 0.9524
-4.8019 11.1040 -1.5624 0.9524
-5.7177 13.0005 -1.8342 0.9443
-6.5422 13.9296 -1.9875 0.9398
-5.4446 11.4087 -1.6326 0.9503
-5.5157 11.3761 -1.6327 0.9503
-6.0338 12.0625 -1.7418 0.9471
-5.8680 11.5518 -1.6733 0.9491
-6.1128 11.5003 -1.6820 0.9488
-6.1879 11.1379 -1.6455 0.9499
-6.3499 11.2648 -1.6700 0.9492
-6.4626 11.3009 -1.6812 0.9488
-6.6054 11.3866 -1.7000 0.9483
-8.8041 14.7533 -2.2188 0.9331
-8.9815 14.6362 -2.2177 0.9331
-9.1574 14.5170 -2.2166 0.9331
-9.2448 14.4566 -2.2161 0.9331
-9.3318 14.3957 -2.2156 0.9331
-9.9295 13.9550 -2.2119 0.9333
-10.1795 13.7588 -2.2103 0.9333
-10.3441 13.6254 -2.2093 0.9333
-10.4257 13.5581 -2.2088 0.9333
-10.6681 13.3531 -2.2073 0.9334
-10.7480 13.2838 -2.2068 0.9334
-10.9065 13.1439 -2.2057 0.9334
-6.2853 7.3868 -1.2526 0.9616
-6.3549 7.2842 -1.2484 0.9618
-6.3290 7.1644 -1.2346 0.9622
-6.5566 7.2397 -1.2614 0.9614
-6.5867 7.1831 -1.2586 0.9615
-6.6522 7.1651 -1.2627 0.9613
-6.9067 7.1678 -1.2855 0.9606
-7.0125 7.0997 -1.2887 0.9606
-6.9024 6.8175 -1.2529 0.9616
-7.0454 6.7886 -1.2635 0.9613
-7.2081 6.8599 -1.2851 0.9607
-7.4467 6.9998 -1.3199 0.9596
-7.7614 6.9421 -1.3448 0.9589
-7.6958 6.7983 -1.3261 0.9594
-7.9365 6.7530 -1.3458 0.9588
-8.1937 6.7989 -1.3750 0.9580
-8.2405 6.7521 -1.3758 0.9579
-8.2874 6.7053 -1.3767 0.9579
-8.2499 6.5078 -1.3570 0.9585
-8.3587 6.5102 -1.3683 0.9582
-8.4694 6.5127 -1.3798 0.9578
-8.5820 6.5152 -1.3915 0.9575
-8.7131 6.5302 -1.4062 0.9570
-9.1963 6.7163 -1.4707 0.9551
-9.8323 6.8144 -1.5449 0.9529
-9.8810 6.7580 -1.5460 0.9529
-10.0786 6.8021 -1.5703 0.9521
-10.2921 6.7624 -1.5904 0.9515
-10.1143 6.5564 -1.5566 0.9525
-10.5412 6.5587 -1.6033 0.9512
-11.1184 6.7285 -1.6783 0.9489
-11.4880 6.7595 -1.7214 0.9477
-11.5405 6.6946 -1.7230 0.9476
-12.0866 6.8130 -1.7918 0.9456
-12.2946 6.8304 -1.8164 0.9449
-12.4063 6.7924 -1.8266 0.9446
-12.2771 6.6233 -1.8015 0.9453
-13.0153 6.8151 -1.8973 0.9425
-13.2765 6.8477 -1.9292 0.9415
-13.6262 6.8159 -1.9676 0.9404
-14.0274 6.9086 -2.0194 0.9389
-13.9163 6.6413 -1.9914 0.9397
-14.6491 6.8800 -2.0901 0.9368
-14.3921 6.6510 -2.0475 0.9381
-15.3852 6.7665 -2.1706 0.9345
-15.5012 6.4770 -2.1696 0.9345
-15.5387 6.3801 -2.1693 0.9345
-15.6120 6.1857 -2.1687 0.9345
-15.6477 6.0881 -2.1684 0.9345
-15.7175 5.8925 -2.1678 0.9345
-15.7514 5.7944 -2.1675 0.9345
-15.7848 5.6961 -2.1672 0.9346
-15.8176 5.5976 -2.1669 0.9346
-15.8814 5.4001 -2.1663 0.9346
-15.9429 5.2019 -2.1658 0.9346
-15.9727 5.1026 -2.1655 0.9346
-16.2493 5.0804 -2.1987 0.9336
-16.6213 5.0842 -2.2447 0.9323
-17.1767 5.0225 -2.3112 0.9304
-17.2334 4.8086 -2.3106 0.9304
-17.2608 4.7014 -2.3103 0.9304
-17.2875 4.5940 -2.3101 0.9304
-17.3136 4.4865 -2.3098 0.9304
-17.3639 4.2710 -2.3093 0.9304
-17.3880 4.1631 -2.3090 0.9304
-17.4567 3.8386 -2.3083 0.9304
-17.4782 3.7302 -2.3081 0.9305
-17.4992 3.6216 -2.3078 0.9305
-17.5195 3.5130 -2.3076 0.9305
-17.5391 3.4042 -2.3074 0.9305
-17.5581 3.2954 -2.3071 0.9305
-17.5941 3.0774 -2.3067 0.9305
-17.6433 2.7497 -2.3060 0.9305
-17.6584 2.6403 -2.3058 0.9305
-17.6728 2.5308 -2.3056 0.9305
-17.6866 2.4212 -2.3054 0.9305
-17.7122 2.2020 -2.3051 0.9305
-17.7241 2.0922 -2.3049 0.9305
-17.7458 1.8725 -2.3045 0.9306
-17.7556 1.7626 -2.3043 0.9306
-17.7734 1.5427 -2.3040 0.9306
-17.7952 1.2124 -2.3035 0.9306
-17.8011 1.1023 -2.3033 0.9306
-17.8064 0.9921 -2.3032 0.9306
-17.8184 0.6614 -2.3027 0.9306
-17.8211 0.5512 -2.3026 0.9306
-17.8231 0.4410 -2.3025 0.9306
-17.8245 0.3307 -2.3023 0.9306
-16.8747 -0.2087 -2.3070 0.9341
-16.8657 -0.5217 -2.3067 0.9341
-16.8615 -0.6259 -2.3066 0.9341
-16.8567 -0.7302 -2.3065 0.9342
-16.8512 -0.8344 -2.3064 0.9342
-16.8451 -0.9385 -2.3063 0.9342
-16.8384 -1.0426 -2.3062 0.9342
-16.8146 -1.3547 -2.3060 0.9342
-16.8054 -1.4587 -2.3059 0.9342
-16.7852 -1.6663 -2.3058 0.9342
-16.7741 -1.7700 -2.3058 0.9342
-16.7374 -2.0808 -2.3056 0.9342
-16.7239 -2.1842 -2.3056 0.9342
-16.7098 -2.2876 -2.3055 0.9342
-16.6950 -2.3908 -2.3055 0.9342
-16.6797 -2.4940 -2.3055 0.9342
-16.5939 -3.0083 -2.3054 0.9342
-16.5553 -3.2133 -2.3054 0.9342
-16.5351 -3.3156 -2.3054 0.9342
-16.5143 -3.4178 -2.3054 0.9342
-16.4708 -3.6218 -2.3054 0.9342
-16.4011 -3.9268 -2.3054 0.9342
-16.3766 -4.0282 -2.3054 0.9342
-16.3516 -4.1295 -2.3054 0.9342
-16.3259 -4.2306 -2.3055 0.9342
-16.2996 -4.3315 -2.3055 0.9342
-16.2728 -4.4323 -2.3055 0.9342
-16.2453 -4.5329 -2.3056 0.9342
-16.1594 -4.8338 -2.3057 0.9342
-16.0991 -5.0335 -2.3058 0.9342
-16.0365 -5.2325 -2.3059 0.9342
-16.0043 -5.3318 -2.3060 0.9342
-15.9042 -5.6283 -2.3062 0.9342
-15.8696 -5.7267 -2.3063 0.9342
-15.8345 -5.8250 -2.3064 0.9342
-15.7987 -5.9230 -2.3065 0.9342
-15.7624 -6.0208 -2.3066 0.9341
-15.7255 -6.1184 -2.3067 0.9341
-15.6880 -6.2158 -2.3068 0.9341
-15.6500 -6.3130 -2.3069 0.9341
-15.6114 -6.4100 -2.3070 0.9341
-15.5721 -6.5067 -2.3071 0.9341
-15.5323 -6.6032 -2.3072 0.9341
-15.4510 -6.7955 -2.3074 0.9341
-15.4095 -6.8912 -2.3075 0.9341
-15.2378 -7.2719 -2.3081 0.9341
-15.1031 -7.5547 -2.3085 0.9341
-15.0104 -7.7420 -2.3088 0.9341
-14.6687 -8.3885 -2.3099 0.9341
-14.6176 -8.4797 -2.3101 0.9341
-14.5661 -8.5707 -2.3103 0.9340
-14.4613 -8.7516 -2.3107 0.9340
-14.4081 -8.8416 -2.3109 0.9340
-14.3544 -8.9313 -2.3111 0.9340
-14.3001 -9.0206 -2.3113 0.9340
-14.1899 -9.1984 -2.3117 0.9340
-13.9632 -9.5501 -2.3125 0.9340
-13.9052 -9.6372 -2.3128 0.9340
-13.8467 -9.7240 -2.3130 0.9340
-13.7877 -9.8104 -2.3132 0.9340
-13.7281 -9.8964 -2.3134 0.9340
-13.6680 -9.9822 -2.3137 0.9340
-13.5464 -10.1526 -2.3142 0.9339
-13.1043 -10.7376 -2.3159 0.9339
-12.8408 -11.0636 -2.3170 0.9339
-12.7737 -11.1441 -2.3173 0.9339
-12.7061 -11.2243 -2.3176 0.9338
-12.5694 -11.3834 -2.3182 0.9338
-12.5003 -11.4623 -2.3184 0.9338
-12.4308 -11.5409 -2.3187 0.9338
-12.2903 -11.6968 -2.3193 0.9338
-12.2193 -11.7741 -2.3196 0.9338
-12.0759 -11.9276 -2.3203 0.9338
-12.0036 -12.0036 -2.3206 0.9338
-11.9307 -12.0792 -2.3209 0.9338
-11.8574 -12.1545 -2.3212 0.9337
-11.7837 -12.2293 -2.3215 0.9337
-11.7095 -12.3036 -2.3219 0.9337
-11.5597 -12.4510 -2.3225 0.9337
-11.2548 -12.7406 -2.3239 0.9337
-11.1774 -12.8118 -2.3242 0.9337
-11.0214 -12.9530 -2.3249 0.9336
-10.7842 -13.1614 -2.3260 0.9336
-10.7043 -13.2299 -2.3264 0.9336
-10.5432 -13.3655 -2.3271 0.9336
-10.4620 -13.4325 -2.3275 0.9336
-10.3804 -13.4992 -2.3279 0.9336
-10.2160 -13.6310 -2.3286 0.9335
-10.1332 -13.6961 -2.3290 0.9335
-9.9663 -13.8250 -2.3298 0.9335
-9.8823 -13.8887 -2.3302 0.9335
-9.7130 -14.0146 -2.3310 0.9335
-9.6278 -14.0769 -2.3314 0.9335
-9.2832 -14.3207 -2.3330 0.9334
-9.1961 -14.3804 -2.3334 0.9334
-8.8439 -14.6139 -2.3351 0.9334
-8.6657 -14.7276 -2.3359 0.9333
-8.4860 -14.8391 -2.3368 0.9333
-8.3956 -14.8941 -2.3372 0.9333
-8.3049 -14.9486 -2.3377 0.9333
-8.0307 -15.1087 -2.3390 0.9333
-7.9387 -15.1609 -2.3394 0.9332
-7.8463 -15.2127 -2.3399 0.9332
-7.5671 -15.3646 -2.3413 0.9332
-7.4734 -15.4141 -2.3417 0.9332
-7.2853 -15.5114 -2.3427 0.9332
-6.7128 -15.7903 -2.3455 0.9331
-6.6164 -15.8347 -2.3460 0.9331
-6.5197 -15.8786 -2.3465 0.9330
-6.3254 -15.9646 -2.3474 0.9330
-6.2279 -16.0068 -2.3479 0.9330
-6.1300 -16.0484 -2.3484 0.9330
-5.9336 -16.1298 -2.3494 0.9330
-5.7361 -16.2088 -2.3504 0.9329
-5.5375 -16.2855 -2.3514 0.9329
-5.3380 -16.3598 -2.3524 0.9329
-5.1375 -16.4318 -2.3535 0.9329
-5.0369 -16.4668 -2.3540 0.9328
-4.7337 -16.5684 -2.3555 0.9328
-4.6321 -16.6010 -2.3561 0.9328
-4.5304 -16.6331 -2.3566 0.9328
-4.4284 -16.6645 -2.3571 0.9328
-4.3262 -16.6953 -2.3576 0.9327
-3.9155 -16.8124 -2.3598 0.9327
-3.5017 -16.9196 -2.3619 0.9326
-3.1894 -16.9934 -2.3636 0.9326
-3.0850 -17.0167 -2.3641 0.9326
-2.9804 -17.0395 -2.3647 0.9325
-2.8756 -17.0616 -2.3652 0.9325
-2.6656 -17.1039 -2.3663 0.9325
-2.5604 -17.1240 -2.3669 0.9325
-2.4550 -17.1436 -2.3674 0.9325
-2.2439 -17.1808 -2.3686 0.9324
-2.1381 -17.1984 -2.3691 0.9324
-2.0322 -17.2154 -2.3697 0.9324
-1.9262 -17.2318 -2.3703 0.9324
-1.8200 -17.2475 -2.3708 0.9324
-1.6073 -17.2770 -2.3720 0.9323
-1.5008 -17.2907 -2.3725 0.9323
-1.3941 -17.3039 -2.3731 0.9323
-1.2874 -17.3164 -2.3737 0.9323
-1.1806 -17.3282 -2.3743 0.9323
-0.9666 -17.3499 -2.3754 0.9323
-0.7523 -17.3690 -2.3766 0.9322
-0.6451 -17.3776 -2.3772 0.9322
-0.5378 -17.3855 -2.3777 0.9322
-0.3229 -17.3994 -2.3789 0.9322
0.0000 -17.4153 -2.3807 0.9321
0.1078 -17.4192 -2.3813 0.9321
0.2155 -17.4225 -2.3819 0.9321
0.5391 -17.4286 -2.3836 0.9320
0.6471 -17.4292 -2.3842 0.9320
0.7550 -17.4292 -2.3848 0.9320
1.0790 -17.4253 -2.3866 0.9319
1.4031 -17.4154 -2.3884 0.9319
1.5112 -17.4108 -2.3890 0.9319
1.9434 -17.3856 -2.3914 0.9318
2.1593 -17.3690 -2.3926 0.9318
2.2673 -17.3597 -2.3932 0.9318
2.3752 -17.3498 -2.3938 0.9317
2.6987 -17.3159 -2.3957 0.9317
2.8064 -17.3032 -2.3963 0.9317
2.9141 -17.2899 -2.3969 0.9317
3.0218 -17.2760 -2.3975 0.9316
3.9873 -17.1203 -2.4030 0.9315
4.0941 -17.0996 -2.4036 0.9315
4.2008 -17.0784 -2.4042 0.9315
4.3074 -17.0564 -2.4048 0.9314
4.4140 -17.0338 -2.4054 0.9314
4.6267 -16.9866 -2.4067 0.9314
4.7329 -16.9619 -2.4073 0.9314
4.9448 -16.9107 -2.4085 0.9313
5.0506 -16.8841 -2.4091 0.9313
5.3670 -16.8003 -2.4110 0.9313
5.4722 -16.7710 -2.4116 0.9313
5.5772 -16.7411 -2.4122 0.9312
5.6821 -16.7106 -2.4128 0.9312
5.7868 -16.6793 -2.4134 0.9312
6.0999 -16.5817 -2.4152 0.9312
6.2038 -16.5479 -2.4158 0.9311
6.4113 -16.4782 -2.4171 0.9311
6.6180 -16.4059 -2.4183 0.9311
6.7209 -16.3688 -2.4189 0.9311
6.8238 -16.3311 -2.4195 0.9310
7.1309 -16.2139 -2.4213 0.9310
7.2329 -16.1735 -2.4219 0.9310
7.3346 -16.1325 -2.4225 0.9310
7.5373 -16.0486 -2.4238 0.9309
7.7391 -15.9621 -2.4250 0.9309
7.8396 -15.9179 -2.4256 0.9309
8.2391 -15.7347 -2.4280 0.9308
8.3383 -15.6873 -2.4286 0.9308
8.5360 -15.5907 -2.4298 0.9308
8.6343 -15.5414 -2.4304 0.9307
8.7324 -15.4915 -2.4310 0.9307
8.9277 -15.3899 -2.4322 0.9307
9.1218 -15.2858 -2.4334 0.9307
9.4107 -15.1249 -2.4351 0.9306
9.6966 -14.9585 -2.4369 0.9306
9.7913 -14.9018 -2.4375 0.9305
9.8856 -14.8446 -2.4381 0.9305
10.1666 -14.6691 -2.4398 0.9305
10.2596 -14.6094 -2.4404 0.9305
10.4444 -14.4883 -2.4415 0.9304
10.6278 -14.3647 -2.4427 0.9304
10.8097 -14.2389 -2.4438 0.9304
10.9001 -14.1750 -2.4444 0.9304
10.9902 -14.1106 -2.4450 0.9303
11.0798 -14.0457 -2.4455 0.9303
11.1690 -13.9801 -2.4461 0.9303
11.4343 -13.7800 -2.4478 0.9303
11.7824 -13.5053 -2.4500 0.9302
11.9539 -13.3645 -2.4511 0.9302
12.1237 -13.2215 -2.4522 0.9301
12.2079 -13.1492 -2.4528 0.9301
12.2917 -13.0765 -2.4533 0.9301
12.3751 -13.0030 -2.4538 0.9301
12.7852 -12.6280 -2.4565 0.9300
12.9459 -12.4742 -2.4576 0.9300
13.0256 -12.3966 -2.4581 0.9300
13.3396 -12.0809 -2.4602 0.9299
13.4936 -11.9200 -2.4612 0.9299
13.5699 -11.8388 -2.4617 0.9299
13.6457 -11.7570 -2.4622 0.9299
13.8699 -11.5089 -2.4638 0.9298
14.0896 -11.2565 -2.4653 0.9298
14.1618 -11.1713 -2.4658 0.9298
14.2335 -11.0858 -2.4662 0.9298
14.3046 -10.9998 -2.4667 0.9297
14.3751 -10.9132 -2.4672 0.9297
14.4452 -10.8262 -2.4677 0.9297
14.5146 -10.7387 -2.4682 0.9297
14.5836 -10.6509 -2.4687 0.9297
14.6521 -10.5625 -2.4691 0.9297
14.8540 -10.2948 -2.4706 0.9296
14.9858 -10.1140 -2.4715 0.9296
15.0509 -10.0231 -2.4719 0.9296
15.2426 -9.7475 -2.4733 0.9296
15.3054 -9.6547 -2.4738 0.9295
15.4293 -9.4682 -2.4747 0.9295
15.4903 -9.3742 -2.4751 0.9295
15.5507 -9.2799 -2.4755 0.9295
15.6105 -9.1852 -2.4760 0.9295
15.6698 -9.0901 -2.4764 0.9295
15.7284 -8.9945 -2.4768 0.9295
15.8439 -8.8023 -2.4777 0.9294
15.9570 -8.6087 -2.4785 0.9294
16.0126 -8.5112 -2.4789 0.9294
16.2289 -8.1179 -2.4806 0.9294
16.2814 -8.0187 -2.4810 0.9293
16.3846 -7.8192 -2.4818 0.9293
16.5834 -7.4162 -2.4833 0.9293
16.6314 -7.3146 -2.4837 0.9293
16.7256 -7.1105 -2.4844 0.9293
16.7718 -7.0079 -2.4848 0.9292
16.8173 -6.9051 -2.4852 0.9292
16.8621 -6.8020 -2.4855 0.9292
16.9063 -6.6985 -2.4859 0.9292
16.9498 -6.5948 -2.4863 0.9292
17.0349 -6.3865 -2.4870 0.9292
17.0765 -6.2818 -2.4873 0.9292
17.1173 -6.1770 -2.4876 0.9292
17.1971 -5.9664 -2.4883 0.9291
17.2360 -5.8608 -2.4887 0.9291
17.3117 -5.6486 -2.4893 0.9291
17.4203 -5.3285 -2.4903 0.9291
17.4551 -5.2213 -2.4906 0.9291
17.4892 -5.1139 -2.4909 0.9291
17.5226 -5.0063 -2.4912 0.9291
17.5874 -4.7903 -2.4918 0.9291
17.6188 -4.6820 -2.4921 0.9290
17.7087 -4.3559 -2.4930 0.9290
17.7373 -4.2468 -2.4932 0.9290
17.8447 -3.8084 -2.4943 0.9290
17.8698 -3.6983 -2.4946 0.9290
17.9630 -3.2566 -2.4956 0.9289
17.9846 -3.1457 -2.4958 0.9289
18.0054 -3.0347 -2.4961 0.9289
18.0256 -2.9236 -2.4963 0.9289
18.0989 -2.4777 -2.4972 0.9289
18.1313 -2.2541 -2.4976 0.9289
18.1608 -2.0300 -2.4981 0.9289
18.1745 -1.9178 -2.4983 0.9289
18.2111 -1.5807 -2.4988 0.9289
18.2320 -1.3555 -2.4992 0.9288
18.2926 -0.2263 -2.5008 0.9288
18.2965 0.2263 -2.5013 0.9288
18.2956 0.3395 -2.5015 0.9288
18.2940 0.4526 -2.5016 0.9288
18.2887 0.6789 -2.5018 0.9288
18.2849 0.7920 -2.5019 0.9288
18.2804 0.9051 -2.5020 0.9288
18.2752 1.0182 -2.5021 0.9288
18.2693 1.1312 -2.5022 0.9288
18.2626 1.2442 -2.5023 0.9288
18.2470 1.4701 -2.5025 0.9288
18.2381 1.5830 -2.5025 0.9288
18.2285 1.6958 -2.5026 0.9288
18.2071 1.9212 -2.5027 0.9288
18.1696 2.2588 -2.5029 0.9287
18.1556 2.3712 -2.5030 0.9287
18.1255 2.5957 -2.5031 0.9287
18.0750 2.9316 -2.5032 0.9287
18.0567 3.0434 -2.5032 0.9287
17.9974 3.3779 -2.5032 0.9287
17.9544 3.6002 -2.5032 0.9287
17.8597 4.0432 -2.5032 0.9287
17.7812 4.3737 -2.5031 0.9287
17.6963 4.7026 -2.5031 0.9287
17.6361 4.9209 -2.5030 0.9287
17.6050 5.0298 -2.5029 0.9287
17.5407 5.2470 -2.5028 0.9287
17.5075 5.3552 -2.5027 0.9288
17.4736 5.4632 -2.5027 0.9288
17.4390 5.5710 -2.5026 0.9288
17.4037 5.6786 -2.5025 0.9288
17.3677 5.7859 -2.5025 0.9288
17.2556 6.1065 -2.5022 0.9288
17.0965 6.5304 -2.5018 0.9288
17.0550 6.6358 -2.5017 0.9288
17.0129 6.7408 -2.5016 0.9288
16.8376 7.1581 -2.5011 0.9288
16.5548 7.7751 -2.5002 0.9288
16.4045 8.0793 -2.4997 0.9288
16.3530 8.1800 -2.4995 0.9288
16.3010 8.2804 -2.4994 0.9288
16.2483 8.3805 -2.4992 0.9288
15.9754 8.8754 -2.4982 0.9289
15.9189 8.9733 -2.4980 0.9289
15.7458 9.2648 -2.4974 0.9289
14.5217 9.0353 -2.3380 0.9333
14.4642 9.1241 -2.3378 0.9333
14.4062 9.2125 -2.3376 0.9333
14.1683 9.5623 -2.3367 0.9333
14.1074 9.6487 -2.3364 0.9333
13.7950 10.0749 -2.3352 0.9334
13.6012 10.3256 -2.3344 0.9334
13.5355 10.4083 -2.3341 0.9334
13.4693 10.4906 -2.3338 0.9334
13.4026 10.5725 -2.3336 0.9334
13.3353 10.6539 -2.3333 0.9334
13.2676 10.7348 -2.3330 0.9334
12.9213 11.1329 -2.3315 0.9335
12.7792 11.2889 -2.3309 0.9335
12.7075 11.3662 -2.3306 0.9335
12.4157 11.6707 -2.3294 0.9335
12.2670 11.8200 -2.3287 0.9335
12.1163 11.9674 -2.3280 0.9336
12.0404 12.0404 -2.3277 0.9336
11.8872 12.1849 -2.3270 0.9336
11.8099 12.2565 -2.3267 0.9336
11.7322 12.3275 -2.3264 0.9336
11.4964 12.5374 -2.3253 0.9336
11.4169 12.6064 -2.3250 0.9336
11.3370 12.6748 -2.3246 0.9337
11.2566 12.7427 -2.3243 0.9337
11.0132 12.9433 -2.3232 0.9337
10.9312 13.0091 -2.3228 0.9337
10.7121 13.0733 -2.3104 0.9340
10.5854 13.0829 -2.3005 0.9343
10.4598 13.0924 -2.2908 0.9346
10.2117 13.1112 -2.2718 0.9351
10.0892 13.1205 -2.2625 0.9354
9.9676 13.1297 -2.2535 0.9356
9.8471 13.1388 -2.2445 0.9359
9.7275 13.1478 -2.2358 0.9361
9.4910 13.1657 -2.2187 0.9366
9.3741 13.1746 -2.2103 0.9368
9.2581 13.1834 -2.2022 0.9370
9.0286 13.2008 -2.1863 0.9375
6.2398 9.2455 -1.5248 0.9560
6.1964 9.3047 -1.5282 0.9559
8.6904 13.2263 -2.1634 0.9381
8.5792 13.2348 -2.1561 0.9383
8.4688 13.2431 -2.1489 0.9385
8.2501 13.2597 -2.1348 0.9389
7.8804 13.3931 -2.1243 0.9392
7.7740 13.4011 -2.1179 0.9394
7.5362 13.3694 -2.0980 0.9399
7.2511 13.4407 -2.0877 0.9402
7.0460 13.4562 -2.0764 0.9405
6.8431 13.4715 -2.0655 0.9408
6.7424 13.4791 -2.0603 0.9410
6.6423 13.4868 -2.0551 0.9411
6.5426 13.4943 -2.0501 0.9413
6.3709 13.3499 -2.0221 0.9420
6.2969 13.4074 -2.0249 0.9420
5.9992 12.9817 -1.9549 0.9439
5.9053 12.9888 -1.9505 0.9440
5.8118 12.9959 -1.9461 0.9441
4.2899 10.6348 -1.5676 0.9548
4.0626 10.4416 -1.5316 0.9558
3.9786 10.4159 -1.5242 0.9560
4.8391 13.1546 -1.9161 0.9450
3.7427 10.3716 -1.5073 0.9565
3.6854 10.4141 -1.5101 0.9564
4.1607 11.9925 -1.7352 0.9500
3.3461 10.7022 -1.5328 0.9557
4.1260 13.7935 -1.9681 0.9435
4.0353 13.8004 -1.9655 0.9436
3.4161 11.9568 -1.6999 0.9510
3.8545 13.8140 -1.9605 0.9437
3.7644 13.8208 -1.9581 0.9438
2.7716 10.4297 -1.4752 0.9574
3.0678 11.8390 -1.6719 0.9518
2.6348 10.4335 -1.4710 0.9575
2.5759 10.4725 -1.4743 0.9574
2.4589 10.5579 -1.4819 0.9572
2.3466 10.6718 -1.4937 0.9568
2.2364 10.8063 -1.5085 0.9564
2.3846 11.8924 -1.6581 0.9522
2.6103 13.9081 -1.9344 0.9445
2.5226 13.9147 -1.9332 0.9445
2.3475 13.9280 -1.9308 0.9446
2.2600 13.9346 -1.9298 0.9446
2.1727 13.9412 -1.9288 0.9446
2.0855 13.9478 -1.9279 0.9447
1.9983 13.9544 -1.9270 0.9447
1.8242 13.9675 -1.9256 0.9447
1.7372 13.9741 -1.9250 0.9447
1.5635 13.9872 -1.9240 0.9448
1.4766 13.9938 -1.9236 0.9448
1.3898 14.0004 -1.9233 0.9448
1.1296 14.0200 -1.9228 0.9448
0.9561 14.0331 -1.9228 0.9448
0.5221 14.0660 -1.9242 0.9448
0.4353 14.0725 -1.9246 0.9447
0.0000 14.1054 -1.9282 0.9446
-0.1747 14.1186 -1.9302 0.9446
-0.3497 14.1318 -1.9324 0.9445
-0.4373 14.1385 -1.9337 0.9445
-0.5251 14.1451 -1.9350 0.9445
-0.6130 14.1517 -1.9364 0.9444
-0.7893 14.1651 -1.9394 0.9443
-0.9660 14.1784 -1.9427 0.9442
-1.0546 14.1851 -1.9445 0.9442
-1.1531 12.3944 -1.7016 0.9510
-1.1542 10.9377 -1.5035 0.9566
-1.2185 10.9008 -1.4994 0.9567
-1.5343 12.3413 -1.7001 0.9510
-1.4123 10.8137 -1.4908 0.9569
-1.4752 10.7755 -1.4868 0.9570
-2.1332 14.2666 -1.9719 0.9434
-2.5003 14.2943 -1.9837 0.9431
-2.0870 11.1196 -1.5466 0.9554
-2.4462 12.1993 -1.7009 0.9510
-2.6702 11.7948 -1.6531 0.9523
-2.8465 12.2221 -1.7155 0.9506
-2.5944 10.8356 -1.5231 0.9560
-3.5353 14.3725 -2.0233 0.9420
-2.7396 10.8479 -1.5295 0.9558
-2.8249 10.9015 -1.5395 0.9556
-3.0039 11.0286 -1.5625 0.9549
-4.1189 14.4165 -2.0496 0.9413
-4.3169 14.4315 -2.0592 0.9410
-4.6175 14.4542 -2.0743 0.9406
-4.8205 14.4695 -2.0849 0.9403
-4.9227 14.4772 -2.0903 0.9401
-5.1288 14.4928 -2.1016 0.9398
-5.4423 14.5164 -2.1193 0.9393
-5.5480 14.5244 -2.1254 0.9392
-5.7612 14.5405 -2.1380 0.9388
-4.6718 11.1809 -1.6565 0.9523
-4.9644 11.2878 -1.6857 0.9514
-5.0742 11.1607 -1.6760 0.9517
-5.0867 11.0071 -1.6576 0.9522
-6.5421 13.9294 -2.1037 0.9398
-5.4448 11.4092 -1.7282 0.9502
-6.8726 13.9543 -2.1264 0.9391
-5.7476 11.4903 -1.7563 0.9495
-7.3752 14.5190 -2.2262 0.9364
-7.5507 14.4199 -2.2251 0.9364
-6.3048 11.8614 -1.8363 0.9472
-6.0550 11.0593 -1.7236 0.9504
-8.1543 14.0567 -2.2215 0.9365
-8.3237 13.9483 -2.2204 0.9365
-8.4916 13.8379 -2.2194 0.9366
-8.7409 13.6686 -2.2179 0.9366
-8.8233 13.6112 -2.2174 0.9366
-8.9052 13.5533 -2.2169 0.9366
-9.0681 13.4360 -2.2159 0.9367
-9.1489 13.3767 -2.2154 0.9367
-5.2349 7.5532 -1.2563 0.9636
-5.1889 7.3889 -1.2342 0.9642
-5.1307 7.2107 -1.2098 0.9649
-5.2965 7.3471 -1.2381 0.9641
-5.3342 7.3038 -1.2364 0.9641
-5.4646 7.2913 -1.2456 0.9639
-5.4411 7.1671 -1.2301 0.9643
-9.8592 12.8214 -2.2110 0.9368
-5.8081 7.2700 -1.2720 0.9631
-5.7986 7.1667 -1.2602 0.9635
-5.8299 7.1150 -1.2574 0.9635
-5.9425 7.0721 -1.2627 0.9634
-5.9117 6.8613 -1.2381 0.9641
-5.8900 6.7512 -1.2247 0.9645
-6.2841 7.0256 -1.2885 0.9627
-6.5883 7.1848 -1.3326 0.9614
-6.6058 6.9409 -1.3098 0.9621
-6.6777 6.8449 -1.3072 0.9621
-6.9008 6.9867 -1.3424 0.9611
-6.9013 6.8165 -1.3260 0.9616
-6.9451 6.7754 -1.3264 0.9616
-7.0283 6.7723 -1.3342 0.9614
-7.0712 6.7297 -1.3344 0.9614
-7.2029 6.7706 -1.3513 0.9609
-7.2903 6.7683 -1.3599 0.9606
-7.3788 6.7661 -1.3686 0.9604
-7.5319 6.8212 -1.3891 0.9598
-7.7819 6.7891 -1.4117 0.9592
-7.5347 6.4918 -1.3596 0.9606
-7.6321 6.4939 -1.3699 0.9604
-7.8316 6.4984 -1.3911 0.9597
-8.6030 6.7863 -1.4979 0.9567
-8.6672 6.7504 -1.5018 0.9566
-8.7072 6.6955 -1.5015 0.9566
-9.0763 6.8024 -1.5505 0.9552
-9.0521 6.5255 -1.5254 0.9559
-9.5429 6.7016 -1.5941 0.9540
-9.9737 6.5532 -1.6314 0.9530
-10.5595 6.7526 -1.7134 0.9507
-10.6863 6.7410 -1.7272 0.9503
-10.5410 6.5586 -1.6971 0.9511
-11.0565 6.7848 -1.7733 0.9490
-11.2576 6.7179 -1.7921 0.9484
-11.3493 6.5837 -1.7936 0.9484
-11.9815 6.7538 -1.8802 0.9460
-11.8714 6.5953 -1.8564 0.9466
-12.4193 6.7995 -1.9355 0.9444
-12.2776 6.6237 -1.9070 0.9452
-13.0294 6.8225 -2.0105 0.9424
-13.3151 6.8675 -2.0480 0.9413
-13.6296 6.8176 -2.0833 0.9403
-14.3274 6.9465 -2.1766 0.9377
-14.4474 6.6766 -2.1757 0.9378
-14.4864 6.5862 -2.1754 0.9378
-14.5247 6.4955 -2.1750 0.9378
-14.6365 6.2223 -2.1741 0.9378
-14.6727 6.1308 -2.1738 0.9378
-14.7083 6.0391 -2.1735 0.9378
-14.8118 5.7629 -2.1726 0.9379
-14.8780 5.5778 -2.1721 0.9379
-14.9731 5.2988 -2.1712 0.9379
-15.0037 5.2054 -2.1710 0.9379
-15.0338 5.1119 -2.1707 0.9379
-15.4769 5.0499 -2.2255 0.9364
-16.1709 5.0559 -2.3161 0.9339
-16.2043 4.9566 -2.3165 0.9339
-16.2606 4.7547 -2.3159 0.9339
-16.2879 4.6535 -2.3157 0.9339
-16.3405 4.4507 -2.3151 0.9339
-16.3659 4.3491 -2.3149 0.9339
-16.3908 4.2474 -2.3146 0.9339
-16.4150 4.1455 -2.3144 0.9339
-16.4839 3.8390 -2.3137 0.9340
-16.6407 3.0168 -2.3119 0.9340
-16.6737 2.8103 -2.3115 0.9340
-16.6893 2.7068 -2.3113 0.9340
-16.7043 2.6033 -2.3111 0.9340
-16.7187 2.4998 -2.3109 0.9340
-16.7325 2.3962 -2.3107 0.9340
-16.7581 2.1887 -2.3103 0.9340
-16.8202 1.5648 -2.3093 0.9341
-16.8283 1.4606 -2.3091 0.9341
-16.8359 1.3564 -2.3089 0.9341
-16.8428 1.2522 -2.3088 0.9341
-16.8599 0.9393 -2.3083 0.9341
-16.8644 0.8350 -2.3082 0.9341
-16.8773 0.3132 -2.3075 0.9341
-16.8780 0.2087 -2.3074 0.9341
-16.8782 0.1044 -2.3073 0.9341
-16.0219 -0.1982 -2.3117 0.9373
-15.9997 -0.7922 -2.3111 0.9373
-15.9939 -0.8911 -2.3111 0.9373
-15.9876 -0.9900 -2.3110 0.9373
-15.9807 -1.0888 -2.3109 0.9373
-15.9650 -1.2863 -2.3108 0.9373
-15.9563 -1.3849 -2.3107 0.9373
-15.9372 -1.5821 -2.3106 0.9373
-15.9267 -1.6806 -2.3105 0.9373
-15.9157 -1.7791 -2.3105 0.9373
-15.9041 -1.8774 -2.3104 0.9373
-15.8919 -1.9757 -2.3104 0.9373
-15.8791 -2.0739 -2.3104 0.9373
-15.8517 -2.2701 -2.3103 0.9373
-15.7901 -2.6613 -2.3102 0.9373
-15.7732 -2.7589 -2.3102 0.9373
-15.7377 -2.9537 -2.3102 0.9373
-15.7191 -3.0510 -2.3101 0.9373
-15.6598 -3.3421 -2.3101 0.9373
-15.6389 -3.4389 -2.3102 0.9373
-15.5726 -3.7285 -2.3102 0.9373
-15.5494 -3.8248 -2.3102 0.9373
-15.5013 -4.0169 -2.3103 0.9373
-15.4763 -4.1127 -2.3103 0.9373
-15.4508 -4.2084 -2.3103 0.9373
-15.3981 -4.3993 -2.3104 0.9373
-15.3709 -4.4945 -2.3104 0.9373
-15.3148 -4.6845 -2.3105 0.9373
-15.2564 -4.8738 -2.3107 0.9373
-15.1957 -5.0624 -2.3108 0.9373
-15.1646 -5.1564 -2.3108 0.9373
-15.1329 -5.2502 -2.3109 0.9373
-15.0677 -5.4374 -2.3111 0.9373
-15.0343 -5.5306 -2.3111 0.9373
-14.9308 -5.8092 -2.3114 0.9373
-14.8223 -6.0860 -2.3117 0.9373
-14.7850 -6.1778 -2.3118 0.9373
-14.6700 -6.4520 -2.3121 0.9373
-14.5905 -6.6336 -2.3123 0.9373
-14.5089 -6.8142 -2.3126 0.9373
-14.4252 -6.9940 -2.3129 0.9373
-14.3392 -7.1727 -2.3131 0.9373
-14.2955 -7.2617 -2.3133 0.9373
-14.2512 -7.3504 -2.3134 0.9373
-14.2064 -7.4389 -2.3136 0.9372
-14.1610 -7.5271 -2.3137 0.9372
-14.1151 -7.6150 -2.3139 0.9372
-14.0687 -7.7027 -2.3140 0.9372
-13.9264 -7.9640 -2.3145 0.9372
-13.8779 -8.0506 -2.3147 0.9372
-13.8288 -8.1369 -2.3149 0.9372
-13.7793 -8.2228 -2.3150 0.9372
-13.7293 -8.3086 -2.3152 0.9372
-13.5761 -8.5639 -2.3158 0.9372
-13.4182 -8.8165 -2.3164 0.9372
-13.2559 -9.0663 -2.3170 0.9372
-13.0890 -9.3133 -2.3176 0.9371
-13.0324 -9.3949 -2.3178 0.9371
-12.8597 -9.6379 -2.3185 0.9371
-12.8011 -9.7182 -2.3187 0.9371
-12.7421 -9.7982 -2.3190 0.9371
-12.5620 -10.0361 -2.3197 0.9371
-12.5010 -10.1146 -2.3200 0.9371
-12.3777 -10.2707 -2.3205 0.9371
-12.3153 -10.3482 -2.3207 0.9371
-12.1891 -10.5021 -2.3212 0.9370
-11.9964 -10.7301 -2.3220 0.9370
-11.5306 -11.2488 -2.3240 0.9370
-11.3243 -11.4652 -2.3249 0.9369
-10.9717 -11.8177 -2.3265 0.9369
-10.7550 -12.0242 -2.3274 0.9369
-10.6820 -12.0922 -2.3278 0.9369
-10.6085 -12.1597 -2.3281 0.9369
-10.5346 -12.2268 -2.3284 0.9369
-10.4603 -12.2935 -2.3288 0.9368
-10.3856 -12.3598 -2.3291 0.9368
-10.3104 -12.4256 -2.3294 0.9368
-10.2349 -12.4909 -2.3298 0.9368
-9.9286 -12.7480 -2.3312 0.9368
-9.7734 -12.8737 -2.3319 0.9368
-9.6950 -12.9359 -2.3323 0.9368
-9.6164 -12.9976 -2.3326 0.9367
-9.5373 -13.0589 -2.3330 0.9367
-9.2979 -13.2399 -2.3341 0.9367
-9.1363 -13.3583 -2.3349 0.9367
-9.0550 -13.4167 -2.3352 0.9367
-8.8914 -13.5321 -2.3360 0.9367
-8.6431 -13.7017 -2.3372 0.9366
-8.4759 -13.8122 -2.3380 0.9366
-8.3917 -13.8668 -2.3384 0.9366
-8.3073 -13.9208 -2.3388 0.9366
-8.0518 -14.0799 -2.3400 0.9366
-7.7934 -14.2345 -2.3413 0.9365
-7.6195 -14.3349 -2.3421 0.9365
-7.5321 -14.3844 -2.3426 0.9365
-7.4444 -14.4334 -2.3430 0.9365
-7.2679 -14.5297 -2.3439 0.9365
-7.0010 -14.6703 -2.3452 0.9364
-6.9115 -14.7161 -2.3456 0.9364
-6.8217 -14.7613 -2.3461 0.9364
-6.6411 -14.8502 -2.3469 0.9364
-6.4594 -14.9369 -2.3479 0.9363
-6.3681 -14.9795 -2.3483 0.9363
-5.6285 -15.3003 -2.3520 0.9362
-5.4410 -15.3750 -2.3530 0.9362
-5.3469 -15.4114 -2.3535 0.9362
-5.2526 -15.4474 -2.3539 0.9362
-5.1579 -15.4827 -2.3544 0.9362
-5.0632 -15.5175 -2.3549 0.9362
-4.7774 -15.6185 -2.3564 0.9361
-4.6817 -15.6510 -2.3568 0.9361
-4.1030 -15.8339 -2.3598 0.9360
-3.9086 -15.8902 -2.3608 0.9360
-3.8110 -15.9175 -2.3613 0.9360
-3.6154 -15.9703 -2.3624 0.9360
-3.4191 -16.0207 -2.3634 0.9359
-3.0245 -16.1145 -2.3655 0.9359
-2.9254 -16.1365 -2.3660 0.9359
-2.7268 -16.1786 -2.3670 0.9358
-2.6273 -16.1987 -2.3676 0.9358
-2.4278 -16.2372 -2.3686 0.9358
-2.1276 -16.2905 -2.3702 0.9358
-1.9268 -16.3229 -2.3713 0.9357
-1.4229 -16.3933 -2.3740 0.9357
-1.3218 -16.4055 -2.3745 0.9356
-1.2206 -16.4171 -2.3751 0.9356
-0.5097 -16.4812 -2.3789 0.9355
-0.4079 -16.4879 -2.3795 0.9355
-0.3061 -16.4940 -2.3800 0.9355
-0.2041 -16.4994 -2.3806 0.9355
0.4087 -16.5189 -2.3839 0.9354
0.6133 -16.5204 -2.3851 0.9354
1.0227 -16.5158 -2.3873 0.9353
1.1251 -16.5131 -2.3879 0.9353
1.2274 -16.5097 -2.3885 0.9353
1.3299 -16.5057 -2.3890 0.9353
1.5346 -16.4959 -2.3902 0.9352
1.8417 -16.4764 -2.3919 0.9352
2.1486 -16.4512 -2.3936 0.9351
2.2509 -16.4416 -2.3942 0.9351
2.4552 -16.4204 -2.3953 0.9351
2.6594 -16.3966 -2.3965 0.9351
2.7614 -16.3838 -2.3971 0.9351
3.0671 -16.3416 -2.3988 0.9350
3.1688 -16.3262 -2.3994 0.9350
3.2705 -16.3102 -2.3999 0.9350
3.4737 -16.2764 -2.4011 0.9350
3.5752 -16.2585 -2.4017 0.9349
3.6765 -16.2400 -2.4023 0.9349
3.8790 -16.2011 -2.4034 0.9349
3.9800 -16.1807 -2.4040 0.9349
4.5842 -16.0451 -2.4075 0.9348
4.7846 -15.9949 -2.4086 0.9348
4.8846 -15.9689 -2.4092 0.9347
5.3824 -15.8293 -2.4121 0.9347
5.4815 -15.7994 -2.4127 0.9346
5.5805 -15.7691 -2.4133 0.9346
5.6792 -15.7380 -2.4139 0.9346
5.9745 -15.6412 -2.4156 0.9346
6.0726 -15.6077 -2.4162 0.9346
6.1704 -15.5736 -2.4168 0.9345
6.2682 -15.5388 -2.4173 0.9345
6.3657 -15.5035 -2.4179 0.9345
6.5600 -15.4309 -2.4191 0.9345
6.7536 -15.3559 -2.4202 0.9345
6.8501 -15.3174 -2.4208 0.9344
6.9463 -15.2784 -2.4214 0.9344
7.0423 -15.2388 -2.4219 0.9344
7.1381 -15.1986 -2.4225 0.9344
7.2337 -15.1577 -2.4231 0.9344
7.3290 -15.1163 -2.4237 0.9344
7.5190 -15.0315 -2.4248 0.9343
7.6136 -14.9883 -2.4254 0.9343
7.7079 -14.9444 -2.4259 0.9343
7.8959 -14.8548 -2.4271 0.9343
8.5452 -14.5229 -2.4310 0.9342
8.7282 -14.4227 -2.4322 0.9341
8.8193 -14.3718 -2.4327 0.9341
8.9100 -14.3202 -2.4333 0.9341
9.0005 -14.2681 -2.4338 0.9341
9.0906 -14.2154 -2.4344 0.9341
9.2699 -14.1083 -2.4355 0.9341
9.3591 -14.0539 -2.4360 0.9340
9.4480 -13.9989 -2.4366 0.9340
9.5366 -13.9434 -2.4371 0.9340
10.0607 -13.5983 -2.4404 0.9339
10.2327 -13.4788 -2.4415 0.9339
10.4032 -13.3571 -2.4426 0.9339
10.4879 -13.2954 -2.4431 0.9339
10.5722 -13.2332 -2.4437 0.9338
10.6562 -13.1704 -2.4442 0.9338
11.0703 -12.8486 -2.4468 0.9338
11.2331 -12.7161 -2.4479 0.9337
11.3944 -12.5815 -2.4489 0.9337
11.4744 -12.5135 -2.4494 0.9337
11.5540 -12.4449 -2.4499 0.9337
11.6332 -12.3758 -2.4505 0.9337
11.7120 -12.3062 -2.4510 0.9336
11.9457 -12.0943 -2.4525 0.9336
12.0227 -12.0227 -2.4530 0.9336
12.1755 -11.8779 -2.4540 0.9336
12.3264 -11.7312 -2.4550 0.9335
12.5495 -11.5075 -2.4565 0.9335
12.6230 -11.4319 -2.4570 0.9335
12.8405 -11.2024 -2.4584 0.9335
12.9832 -11.0470 -2.4594 0.9334
13.1935 -10.8105 -2.4608 0.9334
13.2626 -10.7308 -2.4613 0.9334
13.3312 -10.6506 -2.4618 0.9334
13.4670 -10.4889 -2.4627 0.9333
13.5342 -10.4073 -2.4631 0.9333
13.6008 -10.3254 -2.4636 0.9333
13.6670 -10.2430 -2.4641 0.9333
13.7326 -10.1601 -2.4645 0.9333
13.7977 -10.0769 -2.4650 0.9333
13.9898 -9.8245 -2.4663 0.9332
14.0529 -9.7395 -2.4668 0.9332
14.1153 -9.6542 -2.4672 0.9332
14.1773 -9.5684 -2.4676 0.9332
14.2387 -9.4822 -2.4681 0.9332
14.2996 -9.3956 -2.4685 0.9332
14.3599 -9.3086 -2.4689 0.9332
14.4197 -9.2212 -2.4694 0.9332
14.4789 -9.1334 -2.4698 0.9332
14.5377 -9.0453 -2.4702 0.9331
14.7104 -8.7784 -2.4715 0.9331
14.7669 -8.6888 -2.4719 0.9331
14.8228 -8.5987 -2.4723 0.9331
14.9871 -8.3263 -2.4735 0.9331
15.1462 -8.0507 -2.4747 0.9330
15.1981 -7.9581 -2.4751 0.9330
15.3503 -7.6784 -2.4762 0.9330
15.3998 -7.5845 -2.4766 0.9330
15.4487 -7.4902 -2.4770 0.9330
15.4971 -7.3957 -2.4774 0.9330
15.5920 -7.2056 -2.4781 0.9329
15.6846 -7.0142 -2.4788 0.9329
15.7299 -6.9181 -2.4792 0.9329
15.8188 -6.7249 -2.4799 0.9329
15.8623 -6.6279 -2.4802 0.9329
15.9052 -6.5306 -2.4806 0.9329
16.0302 -6.2370 -2.4816 0.9328
16.1104 -6.0399 -2.4823 0.9328
16.1496 -5.9409 -2.4826 0.9328
16.3000 -5.5425 -2.4839 0.9328
16.3360 -5.4422 -2.4842 0.9328
16.4737 -5.0390 -2.4854 0.9327
16.6009 -4.6321 -2.4865 0.9327
16.6312 -4.5299 -2.4868 0.9327
16.6896 -4.3248 -2.4874 0.9327
16.7179 -4.2219 -2.4876 0.9327
16.7724 -4.0157 -2.4882 0.9327
16.8493 -3.7050 -2.4889 0.9327
16.8735 -3.6011 -2.4892 0.9326
16.8972 -3.4971 -2.4894 0.9326
16.9424 -3.2884 -2.4899 0.9326
17.0248 -2.8694 -2.4909 0.9326
17.0621 -2.6591 -2.4913 0.9326
17.0797 -2.5538 -2.4915 0.9326
17.1284 -2.2370 -2.4921 0.9326
17.1575 -2.0253 -2.4925 0.9326
17.1710 -1.9194 -2.4927 0.9326
17.2467 -1.1751 -2.4940 0.9325
17.2547 -1.0684 -2.4941 0.9325
17.2802 -0.6415 -2.4948 0.9325
17.2888 -0.4278 -2.4950 0.9325
17.2921 -0.3209 -2.4952 0.9325
17.2946 -0.2139 -2.4953 0.9325
17.2965 -0.1070 -2.4954 0.9325
17.2977 -0.0000 -2.4956 0.9325
17.2982 0.1070 -2.4957 0.9325
17.2957 0.4279 -2.4960 0.9325
17.2935 0.5350 -2.4962 0.9325
17.2906 0.6418 -2.4963 0.9325
17.2870 0.7488 -2.4964 0.9325
17.2826 0.8558 -2.4965 0.9325
17.2777 0.9627 -2.4965 0.9325
17.2720 1.0695 -2.4966 0.9325
17.2656 1.1763 -2.4967 0.9325
17.2509 1.3899 -2.4969 0.9324
17.2424 1.4966 -2.4970 0.9324
17.2333 1.6032 -2.4970 0.9324
17.2236 1.7098 -2.4971 0.9324
17.2131 1.8163 -2.4971 0.9324
17.1775 2.1355 -2.4973 0.9324
17.1358 2.4539 -2.4974 0.9324
17.0880 2.7715 -2.4975 0.9324
17.0527 2.9827 -2.4976 0.9324
17.0340 3.0881 -2.4976 0.9324
17.0147 3.1934 -2.4976 0.9324
16.9947 3.2986 -2.4976 0.9324
16.9739 3.4036 -2.4976 0.9324
16.9526 3.5085 -2.4976 0.9324
16.9078 3.7179 -2.4976 0.9324
16.8844 3.8224 -2.4976 0.9324
16.8604 3.9267 -2.4976 0.9324
16.8356 4.0309 -2.4976 0.9324
16.7841 4.2387 -2.4975 0.9324
16.7574 4.3424 -2.4975 0.9324
16.7300 4.4458 -2.4974 0.9324
16.7019 4.5491 -2.4974 0.9324
16.6731 4.6523 -2.4974 0.9324
16.6137 4.8580 -2.4973 0.9324
16.3496 5.6724 -2.4967 0.9325
16.0440 6.4719 -2.4959 0.9325
16.0029 6.5707 -2.4958 0.9325
15.9612 6.6692 -2.4957 0.9325
15.9189 6.7675 -2.4956 0.9325
15.8323 6.9631 -2.4953 0.9325
15.7882 7.0605 -2.4952 0.9325
15.7433 7.1576 -2.4950 0.9325
15.6979 7.2545 -2.4949 0.9325
15.6518 7.3510 -2.4948 0.9325
15.5578 7.5431 -2.4944 0.9325
15.2611 8.1118 -2.4935 0.9325
15.2096 8.2054 -2.4933 0.9325
15.1047 8.3917 -2.4929 0.9325
15.0513 8.4843 -2.4927 0.9326
14.9429 8.6684 -2.4923 0.9326
13.9122 8.3022 -2.3374 0.9366
13.8377 8.3742 -2.3335 0.9367
13.7307 8.5432 -2.3331 0.9367
13.6216 8.7108 -2.3327 0.9367
13.5662 8.7941 -2.3325 0.9368
13.3395 9.1235 -2.3316 0.9368
13.1641 9.3666 -2.3309 0.9368
13.1045 9.4469 -2.3307 0.9368
12.8614 9.7640 -2.3297 0.9368
12.7369 9.9202 -2.3292 0.9368
12.6739 9.9976 -2.3289 0.9368
12.6104 10.0746 -2.3286 0.9369
12.4819 10.2275 -2.3281 0.9369
12.3516 10.3786 -2.3276 0.9369
12.2857 10.4536 -2.3273 0.9369
12.2193 10.5281 -2.3270 0.9369
12.0852 10.6758 -2.3264 0.9369
12.0174 10.7490 -2.3261 0.9369
11.8114 10.9658 -2.3252 0.9369
11.6718 11.1082 -2.3246 0.9370
11.6014 11.1786 -2.3243 0.9370
11.4591 11.3182 -2.3237 0.9370
11.3874 11.3874 -2.3234 0.9370
11.2427 11.5243 -2.3228 0.9370
11.0962 11.6592 -2.3221 0.9370
11.0224 11.7260 -2.3218 0.9370
10.9481 11.7923 -2.3215 0.9370
10.8734 11.8581 -2.3211 0.9370
10.7983 11.9234 -2.3208 0.9371
10.7229 11.9882 -2.3205 0.9371
10.5707 12.1164 -2.3198 0.9371
10.4940 12.1797 -2.3195 0.9371
10.4170 12.2426 -2.3191 0.9371
10.2616 12.3667 -2.3184 0.9371
10.1834 12.4281 -2.3181 0.9371
9.9465 12.6090 -2.3170 0.9372
9.7867 12.7271 -2.3163 0.9372
9.6255 12.8430 -2.3155 0.9372
9.5443 12.9002 -2.3152 0.9372
9.3810 13.0131 -2.3144 0.9372
9.2988 13.0687 -2.3140 0.9372
9.2163 13.1238 -2.3136 0.9372
9.1334 13.1783 -2.3132 0.9373
6.1955 9.3034 -1.6126 0.9558
8.5791 13.2346 -2.2755 0.9382
8.4687 13.2429 -2.2678 0.9384
8.2500 13.2595 -2.2530 0.9388
8.1417 13.2677 -2.2458 0.9390
8.0341 13.2758 -2.2387 0.9392
7.7917 13.2422 -2.2167 0.9398
7.6864 13.2502 -2.2100 0.9400
7.4779 13.2659 -2.1970 0.9403
7.3745 13.2738 -2.1907 0.9405
7.1695 13.2893 -2.1785 0.9408
7.0678 13.2970 -2.1725 0.9410
5.9992 12.9816 -2.0632 0.9438
5.8118 12.9958 -2.0539 0.9441
5.6260 13.0098 -2.0449 0.9443
5.5337 13.0168 -2.0406 0.9444
5.3503 13.0307 -2.0323 0.9447
4.2905 10.6363 -1.6547 0.9547
4.1613 10.5027 -1.6299 0.9554
3.9814 10.4233 -1.6098 0.9559
3.7370 10.3559 -1.5884 0.9565
3.6830 10.4074 -1.5927 0.9564
4.0592 11.7001 -1.7867 0.9512
3.9804 11.7060 -1.7838 0.9513
3.9018 11.7120 -1.7810 0.9513
3.5113 10.7613 -1.6331 0.9553
3.7427 12.2358 -1.8460 0.9496
4.1260 13.7933 -2.0771 0.9435
3.4160 11.9564 -1.7940 0.9510
3.7644 13.8207 -2.0666 0.9438
2.7722 10.4321 -1.5573 0.9573
3.0638 11.8233 -1.7621 0.9518
2.6382 10.4466 -1.5545 0.9574
2.5207 10.5280 -1.5618 0.9572
2.4079 10.6363 -1.5733 0.9569
2.3470 10.6732 -1.5766 0.9568
2.5218 11.8163 -1.7432 0.9523
2.2337 10.7933 -1.5902 0.9564
2.6981 13.9013 -2.0430 0.9444
2.1727 13.9410 -2.0356 0.9446
2.0854 13.9476 -2.0346 0.9446
1.9983 13.9542 -2.0337 0.9446
1.7372 13.9739 -2.0316 0.9447
1.5634 13.9871 -2.0305 0.9447
1.4766 13.9936 -2.0301 0.9447
1.3030 14.0068 -2.0295 0.9447
1.2163 14.0133 -2.0293 0.9447
1.0428 14.0264 -2.0292 0.9447
0.9561 14.0330 -2.0293 0.9447
0.7826 14.0461 -2.0296 0.9447
0.5221 14.0658 -2.0307 0.9447
0.3483 14.0789 -2.0318 0.9447
0.2613 14.0855 -2.0325 0.9447
0.0872 14.0987 -2.0341 0.9446
0.0000 14.1053 -2.0350 0.9446
-0.0873 14.1118 -2.0360 0.9446
-0.1747 14.1184 -2.0370 0.9445
-0.6130 14.1516 -2.0436 0.9444
-0.7011 14.1582 -2.0451 0.9443
-1.0546 14.1849 -2.0521 0.9441
-1.1251 12.0930 -1.7522 0.9521
-1.0949 11.0287 -1.5990 0.9562
-1.2200 10.9146 -1.5845 0.9566
-1.3797 11.6876 -1.6979 0.9536
-1.5087 12.1355 -1.7643 0.9518
-1.5414 10.7638 -1.5688 0.9570
-1.6759 10.7534 -1.5701 0.9570
-2.3162 14.2802 -2.0872 0.9432
-2.0185 11.1336 -1.6324 0.9553
-2.3234 11.2263 -1.6540 0.9547
-3.0597 14.3364 -2.1149 0.9425
-2.5968 11.8091 -1.7444 0.9523
-2.6701 11.7944 -1.7447 0.9523
-2.5939 10.8338 -1.6072 0.9560
-2.8045 11.4013 -1.6939 0.9537
-2.7440 10.8656 -1.6168 0.9557
-2.9367 11.3328 -1.6890 0.9538
-3.0089 11.0467 -1.6518 0.9548
-4.1188 14.4164 -2.1631 0.9412
-4.2176 14.4238 -2.1681 0.9411
-4.3169 14.4313 -2.1732 0.9409
-4.5168 14.4464 -2.1837 0.9407
-4.6175 14.4540 -2.1891 0.9405
-4.4064 12.9589 -1.9747 0.9462
-5.0254 14.4848 -2.2119 0.9399
-4.4607 12.3613 -1.8959 0.9483
-5.3371 14.5084 -2.2303 0.9394
-5.5302 14.4779 -2.2360 0.9393
-5.7062 14.4018 -2.2349 0.9393
-4.7274 11.7193 -1.8231 0.9502
-4.6670 11.1692 -1.7464 0.9523
-4.7968 11.0923 -1.7435 0.9523
-4.8676 11.0675 -1.7443 0.9523
-4.9385 11.0428 -1.7452 0.9523
-6.3255 13.9129 -2.2050 0.9401
-5.0813 10.9953 -1.7475 0.9522
-6.5420 13.9292 -2.2202 0.9397
-5.4459 11.4115 -1.8242 0.9502
-5.5152 11.3751 -1.8238 0.9502
-5.7453 11.4857 -1.8528 0.9494
-6.9919 13.7644 -2.2273 0.9395
-6.4399 12.4858 -2.0268 0.9448
-7.6505 13.3781 -2.2234 0.9396
-8.0516 13.1208 -2.2210 0.9397
-8.1308 13.0679 -2.2205 0.9397
-4.6131 7.3130 -1.2474 0.9657
