ply
format ascii 1.0
element vertex 1599
property float32 x
property float32 y
property float32 z
property float32 I
end_header
0.7194 -7.2463 -2.3652 0.9698
0.7642 -7.2420 -2.3653 0.9698
0.9879 -7.2164 -2.3657 0.9698
1.1218 -7.1977 -2.3660 0.9698
1.1663 -7.1909 -2.3661 0.9698
1.2553 -7.1766 -2.3663 0.9698
1.2997 -7.1690 -2.3664 0.9698
1.3441 -7.1611 -2.3665 0.9698
1.3884 -7.1530 -2.3666 0.9698
1.4326 -7.1446 -2.3667 0.9698
1.5652 -7.1178 -2.3671 0.9698
1.6532 -7.0986 -2.3673 0.9698
1.6972 -7.0886 -2.3674 0.9698
1.7411 -7.0783 -2.3675 0.9698
1.7849 -7.0677 -2.3677 0.9698
1.8724 -7.0458 -2.3679 0.9698
2.0031 -7.0110 -2.3683 0.9698
2.0465 -6.9989 -2.3684 0.9698
2.1332 -6.9737 -2.3687 0.9698
2.2626 -6.9341 -2.3690 0.9698
2.3484 -6.9064 -2.3693 0.9698
2.4339 -6.8776 -2.3696 0.9698
2.4765 -6.8629 -2.3697 0.9698
2.6039 -6.8169 -2.3701 0.9698
2.6462 -6.8011 -2.3703 0.9698
2.8143 -6.7352 -2.3709 0.9698
2.9393 -6.6831 -2.3713 0.9698
2.9807 -6.6653 -2.3715 0.9698
3.0633 -6.6287 -2.3718 0.9698
3.1045 -6.6101 -2.3719 0.9698
3.1455 -6.5912 -2.3721 0.9698
3.1865 -6.5721 -2.3722 0.9697
3.2272 -6.5527 -2.3724 0.9697
3.2679 -6.5330 -2.3726 0.9697
3.3085 -6.5131 -2.3727 0.9697
3.3490 -6.4930 -2.3729 0.9697
3.3892 -6.4726 -2.3731 0.9697
3.4294 -6.4520 -2.3732 0.9697
3.4695 -6.4311 -2.3734 0.9697
3.5493 -6.3886 -2.3737 0.9697
3.6680 -6.3230 -2.3742 0.9697
3.7465 -6.2780 -2.3746 0.9697
3.7855 -6.2552 -2.3747 0.9697
3.8244 -6.2321 -2.3749 0.9697
3.9017 -6.1853 -2.3753 0.9697
4.0548 -6.0887 -2.3760 0.9697
4.0926 -6.0640 -2.3762 0.9697
4.1304 -6.0390 -2.3763 0.9697
4.1680 -6.0138 -2.3765 0.9697
4.2427 -5.9627 -2.3769 0.9697
4.2798 -5.9369 -2.3771 0.9697
4.3168 -5.9107 -2.3773 0.9697
4.4631 -5.8040 -2.3780 0.9697
4.4993 -5.7767 -2.3782 0.9697
4.5352 -5.7493 -2.3784 0.9697
4.5711 -5.7216 -2.3786 0.9697
4.6068 -5.6937 -2.3788 0.9697
4.6776 -5.6372 -2.3792 0.9697
4.7478 -5.5798 -2.3796 0.9697
4.7825 -5.5508 -2.3798 0.9697
4.8860 -5.4625 -2.3804 0.9696
5.0546 -5.3111 -2.3814 0.9696
5.1208 -5.2491 -2.3818 0.9696
5.1536 -5.2178 -2.3820 0.9696
5.2509 -5.1226 -2.3826 0.9696
5.2830 -5.0905 -2.3828 0.9696
5.3148 -5.0581 -2.3830 0.9696
5.3465 -5.0256 -2.3833 0.9696
5.3779 -4.9929 -2.3835 0.9696
5.4092 -4.9600 -2.3837 0.9696
5.4711 -4.8936 -2.3841 0.9696
5.5017 -4.8601 -2.3843 0.9696
5.5322 -4.8264 -2.3845 0.9696
5.5624 -4.7926 -2.3848 0.9696
5.6519 -4.6898 -2.3854 0.9696
5.7395 -4.5854 -2.3861 0.9696
5.7683 -4.5503 -2.3863 0.9696
5.8534 -4.4437 -2.3869 0.9696
5.8813 -4.4078 -2.3872 0.9696
5.9365 -4.3355 -2.3876 0.9696
5.9637 -4.2992 -2.3878 0.9696
5.9908 -4.2626 -2.3881 0.9696
6.0176 -4.2259 -2.3883 0.9695
6.0442 -4.1890 -2.3885 0.9695
6.0967 -4.1147 -2.3890 0.9695
6.1226 -4.0773 -2.3892 0.9695
6.1482 -4.0397 -2.3894 0.9695
6.2975 -3.8110 -2.3908 0.9695
6.3454 -3.7336 -2.3912 0.9695
6.3689 -3.6946 -2.3915 0.9695
6.3923 -3.6555 -2.3917 0.9695
6.4609 -3.5373 -2.3924 0.9695
6.5054 -3.4578 -2.3929 0.9695
6.5490 -3.3778 -2.3933 0.9695
6.5704 -3.3375 -2.3936 0.9695
6.6124 -3.2567 -2.3940 0.9695
6.6331 -3.2160 -2.3943 0.9695
6.6535 -3.1752 -2.3945 0.9695
6.6737 -3.1343 -2.3947 0.9695
6.6936 -3.0933 -2.3950 0.9695
6.7133 -3.0522 -2.3952 0.9695
6.7327 -3.0109 -2.3955 0.9695
6.7518 -2.9695 -2.3957 0.9695
6.7708 -2.9280 -2.3959 0.9695
6.7894 -2.8863 -2.3962 0.9694
6.8078 -2.8446 -2.3964 0.9694
6.8438 -2.7607 -2.3969 0.9694
6.8614 -2.7186 -2.3971 0.9694
6.9456 -2.5064 -2.3983 0.9694
6.9617 -2.4637 -2.3986 0.9694
6.9775 -2.4208 -2.3988 0.9694
6.9931 -2.3778 -2.3990 0.9694
7.0233 -2.2916 -2.3995 0.9694
7.0525 -2.2050 -2.4000 0.9694
7.0943 -2.0744 -2.4007 0.9694
7.1209 -1.9869 -2.4012 0.9694
7.1338 -1.9430 -2.4014 0.9694
7.1825 -1.7667 -2.4024 0.9694
7.1940 -1.7224 -2.4026 0.9694
7.2162 -1.6336 -2.4031 0.9694
7.2269 -1.5891 -2.4033 0.9694
7.2373 -1.5446 -2.4036 0.9694
7.2474 -1.4999 -2.4038 0.9694
7.2573 -1.4552 -2.4041 0.9694
7.2668 -1.4104 -2.4043 0.9693
7.2940 -1.2758 -2.4050 0.9693
7.3024 -1.2308 -2.4053 0.9693
7.3106 -1.1857 -2.4055 0.9693
7.3262 -1.0954 -2.4060 0.9693
7.3406 -1.0049 -2.4064 0.9693
7.3540 -0.9142 -2.4069 0.9693
7.3602 -0.8688 -2.4072 0.9693
7.3661 -0.8233 -2.4074 0.9693
7.3718 -0.7779 -2.4076 0.9693
7.3772 -0.7323 -2.4079 0.9693
7.3917 -0.5955 -2.4086 0.9693
7.4000 -0.5042 -2.4091 0.9693
7.4037 -0.4584 -2.4093 0.9693
7.4102 -0.3669 -2.4098 0.9693
7.4179 -0.2294 -2.4105 0.9693
7.4199 -0.1836 -2.4107 0.9693
7.4216 -0.1377 -2.4109 0.9693
7.4231 -0.0918 -2.4112 0.9693
7.4242 -0.0459 -2.4114 0.9693
7.4256 0.0459 -2.4119 0.9693
7.4259 0.0919 -2.4121 0.9692
7.4259 0.1378 -2.4123 0.9692
7.4250 0.2297 -2.4128 0.9692
7.4242 0.2756 -2.4130 0.9692
7.4216 0.3675 -2.4135 0.9692
7.4199 0.4134 -2.4137 0.9692
7.4179 0.4593 -2.4139 0.9692
7.4156 0.5052 -2.4141 0.9692
7.4130 0.5512 -2.4144 0.9692
7.4070 0.6429 -2.4148 0.9692
7.4036 0.6887 -2.4150 0.9692
7.3999 0.7346 -2.4153 0.9692
7.3959 0.7804 -2.4155 0.9692
7.3916 0.8262 -2.4157 0.9692
7.3822 0.9178 -2.4162 0.9692
7.3770 0.9635 -2.4164 0.9692
7.3716 1.0092 -2.4166 0.9692
7.3659 1.0548 -2.4168 0.9692
7.3537 1.1461 -2.4173 0.9692
7.3402 1.2371 -2.4177 0.9692
7.3100 1.4188 -2.4186 0.9692
7.3017 1.4641 -2.4188 0.9692
7.2932 1.5094 -2.4190 0.9692
7.2843 1.5546 -2.4192 0.9692
7.2562 1.6899 -2.4199 0.9692
7.2462 1.7349 -2.4201 0.9691
7.2360 1.7799 -2.4203 0.9691
7.2255 1.8247 -2.4205 0.9691
7.2036 1.9143 -2.4209 0.9691
7.1923 1.9590 -2.4211 0.9691
7.1687 2.0481 -2.4215 0.9691
7.1440 2.1370 -2.4219 0.9691
7.1312 2.1813 -2.4221 0.9691
7.1182 2.2256 -2.4223 0.9691
7.0913 2.3138 -2.4227 0.9691
7.0775 2.3578 -2.4229 0.9691
7.0633 2.4017 -2.4231 0.9691
7.0489 2.4456 -2.4233 0.9691
7.0193 2.5330 -2.4237 0.9691
7.0040 2.5766 -2.4239 0.9691
6.9404 2.7499 -2.4247 0.9691
6.9238 2.7930 -2.4249 0.9691
6.9069 2.8360 -2.4251 0.9691
6.8898 2.8788 -2.4253 0.9691
6.8724 2.9216 -2.4255 0.9691
6.8548 2.9643 -2.4257 0.9691
6.8368 3.0069 -2.4258 0.9691
6.8001 3.0917 -2.4262 0.9691
6.7814 3.1339 -2.4264 0.9691
6.7624 3.1760 -2.4266 0.9691
6.7431 3.2180 -2.4268 0.9691
6.7236 3.2599 -2.4269 0.9691
6.6838 3.3433 -2.4273 0.9691
6.6634 3.3848 -2.4275 0.9691
6.6009 3.5086 -2.4280 0.9690
6.5796 3.5496 -2.4282 0.9690
6.5361 3.6312 -2.4285 0.9690
6.5140 3.6719 -2.4287 0.9690
6.4690 3.7527 -2.4290 0.9690
6.4229 3.8329 -2.4294 0.9690
6.3520 3.9522 -2.4299 0.9690
6.3279 3.9917 -2.4300 0.9690
6.2289 4.1480 -2.4307 0.9690
6.0995 4.3400 -2.4314 0.9690
5.9918 4.4907 -2.4320 0.9690
5.9643 4.5279 -2.4322 0.9690
5.9085 4.6019 -2.4325 0.9690
5.8519 4.6751 -2.4327 0.9690
5.7942 4.7477 -2.4330 0.9690
5.7357 4.8196 -2.4333 0.9690
5.6763 4.8907 -2.4336 0.9690
5.6160 4.9611 -2.4338 0.9690
5.5548 5.0306 -2.4341 0.9690
5.3980 5.2013 -2.4347 0.9690
5.3660 5.2348 -2.4348 0.9690
5.2687 5.3342 -2.4352 0.9690
5.1696 5.4318 -2.4355 0.9690
5.1361 5.4640 -2.4356 0.9690
5.0492 5.4385 -2.4103 0.9693
4.8829 5.3916 -2.3626 0.9699
4.8025 5.3692 -2.3397 0.9702
4.7235 5.3471 -2.3173 0.9704
4.6471 5.3266 -2.2959 0.9707
4.4865 5.4068 -2.2820 0.9709
4.4531 5.4347 -2.2821 0.9709
4.4196 5.4624 -2.2821 0.9709
4.3859 5.4898 -2.2822 0.9709
4.3521 5.5170 -2.2823 0.9709
4.2494 5.5974 -2.2826 0.9709
4.1802 5.6499 -2.2827 0.9709
4.0396 5.7524 -2.2830 0.9709
3.9684 5.8023 -2.2832 0.9709
3.9326 5.8269 -2.2833 0.9709
3.8966 5.8512 -2.2833 0.9709
3.8242 5.8993 -2.2835 0.9709
3.7511 5.9465 -2.2836 0.9709
3.6775 5.9928 -2.2837 0.9709
3.6405 6.0156 -2.2838 0.9709
3.6033 6.0381 -2.2838 0.9709
3.5285 6.0825 -2.2839 0.9709
3.4531 6.1260 -2.2840 0.9709
3.3391 6.1894 -2.2842 0.9709
3.3008 6.2100 -2.2842 0.9709
3.2239 6.2506 -2.2843 0.9709
3.0294 6.3479 -2.2845 0.9709
2.8716 6.4212 -2.2846 0.9709
2.7920 6.4564 -2.2847 0.9708
2.7521 6.4736 -2.2847 0.9708
2.5912 6.5400 -2.2848 0.9708
2.5102 6.5716 -2.2849 0.9708
2.4695 6.5871 -2.2849 0.9708
2.4288 6.6023 -2.2849 0.9708
2.3469 6.6319 -2.2849 0.9708
2.1408 6.7014 -2.2850 0.9708
2.0578 6.7274 -2.2850 0.9708
2.0161 6.7400 -2.2850 0.9708
1.9326 6.7644 -2.2850 0.9708
1.8488 6.7877 -2.2850 0.9708
1.8068 6.7990 -2.2849 0.9708
1.7647 6.8100 -2.2849 0.9708
1.7225 6.8208 -2.2849 0.9708
1.6803 6.8313 -2.2849 0.9708
1.5957 6.8515 -2.2849 0.9708
1.5533 6.8612 -2.2849 0.9708
1.5108 6.8707 -2.2849 0.9708
1.3831 6.8974 -2.2849 0.9708
1.3404 6.9058 -2.2848 0.9708
1.2977 6.9139 -2.2848 0.9708
1.2120 6.9293 -2.2848 0.9708
1.1691 6.9366 -2.2848 0.9708
1.1262 6.9436 -2.2847 0.9708
1.0832 6.9504 -2.2847 0.9708
0.9972 6.9631 -2.2847 0.9708
0.9541 6.9691 -2.2846 0.9709
0.9109 6.9747 -2.2846 0.9709
0.7813 6.9901 -2.2845 0.9709
0.7381 6.9947 -2.2845 0.9709
0.6948 6.9990 -2.2844 0.9709
0.6515 7.0031 -2.2844 0.9709
0.6082 7.0068 -2.2844 0.9709
0.5649 7.0103 -2.2843 0.9709
0.4781 7.0165 -2.2842 0.9709
0.4347 7.0192 -2.2842 0.9709
0.3478 7.0237 -2.2841 0.9709
0.3043 7.0256 -2.2840 0.9709
0.1304 7.0303 -2.2838 0.9709
0.0870 7.0308 -2.2837 0.9709
0.0435 7.0310 -2.2837 0.9709
0.0000 7.0309 -2.2836 0.9709
-0.0870 7.0300 -2.2835 0.9709
-0.1739 7.0279 -2.2834 0.9709
-0.2608 7.0248 -2.2832 0.9709
-0.3476 7.0207 -2.2831 0.9709
-0.4344 7.0154 -2.2829 0.9709
-0.5211 7.0089 -2.2828 0.9709
-0.6509 6.9973 -2.2825 0.9709
-0.6942 6.9929 -2.2824 0.9709
-0.7374 6.9882 -2.2823 0.9709
-0.7806 6.9832 -2.2822 0.9709
-0.9529 6.9606 -2.2819 0.9709
-1.0388 6.9477 -2.2817 0.9709
-1.1859 6.5413 -2.1592 0.9724
-1.2243 6.5230 -2.1556 0.9725
-1.2619 6.5018 -2.1512 0.9725
-1.2830 6.3985 -2.1196 0.9729
-1.3021 6.2915 -2.0868 0.9733
-1.3449 6.3016 -2.0928 0.9733
-1.3230 6.0166 -2.0009 0.9744
-1.4072 6.2159 -2.0700 0.9736
-1.4991 6.2614 -2.0912 0.9733
-1.5875 6.2862 -2.1059 0.9731
-1.6262 6.2756 -2.1056 0.9731
-1.6649 6.2650 -2.1055 0.9731
-1.7035 6.2544 -2.1054 0.9731
-1.7381 6.2292 -2.1005 0.9732
-1.7785 6.2252 -2.1028 0.9731
-1.8294 6.2564 -2.1171 0.9730
-1.9400 6.3425 -2.1542 0.9725
-2.0472 6.2743 -2.1436 0.9726
-2.0875 6.2659 -2.1451 0.9726
-2.1330 6.2730 -2.1520 0.9725
-2.2362 6.3191 -2.1771 0.9722
-2.2760 6.3070 -2.1778 0.9722
-2.3534 6.3974 -2.2140 0.9717
-2.3478 6.1464 -2.1370 0.9727
-2.4399 6.1582 -2.1514 0.9725
-2.4865 6.1641 -2.1588 0.9724
-2.5304 6.1628 -2.1638 0.9724
-2.7336 6.4301 -2.2694 0.9710
-2.7798 6.4279 -2.2746 0.9710
-2.7696 6.1932 -2.2035 0.9719
-2.9000 6.3785 -2.2758 0.9710
-2.9392 6.3600 -2.2756 0.9710
-3.0172 6.3223 -2.2753 0.9710
-3.0560 6.3031 -2.2752 0.9710
-3.0947 6.2836 -2.2750 0.9710
-3.1333 6.2640 -2.2748 0.9710
-3.1718 6.2440 -2.2747 0.9710
-3.2864 6.1828 -2.2742 0.9710
-3.4373 6.0979 -2.2736 0.9710
-3.5490 6.0317 -2.2731 0.9710
-3.5860 6.0092 -2.2729 0.9710
-3.6228 5.9865 -2.2727 0.9710
-3.6595 5.9635 -2.2725 0.9710
-3.6960 5.9403 -2.2724 0.9710
-3.8406 5.8453 -2.2717 0.9710
-3.8764 5.8210 -2.2715 0.9710
-3.9120 5.7964 -2.2713 0.9710
-3.9828 5.7467 -2.2710 0.9710
-4.1569 5.6186 -2.2701 0.9710
-4.2254 5.5658 -2.2697 0.9710
-4.2594 5.5392 -2.2695 0.9710
-4.3604 5.4578 -2.2690 0.9710
-4.4268 5.4026 -2.2686 0.9711
-4.4598 5.3747 -2.2684 0.9711
-4.4925 5.3465 -2.2682 0.9711
-4.5575 5.2896 -2.2678 0.9711
-4.5898 5.2609 -2.2676 0.9711
-4.6854 5.1735 -2.2670 0.9711
-4.7793 5.0844 -2.2665 0.9711
-4.8102 5.0543 -2.2663 0.9711
-4.8410 5.0240 -2.2661 0.9711
-4.9019 4.9629 -2.2657 0.9711
-5.0551 4.8709 -2.2801 0.9709
-5.1235 4.8761 -2.2973 0.9707
-5.1929 4.8813 -2.3148 0.9705
-5.3349 4.8919 -2.3510 0.9700
-5.4075 4.8973 -2.3696 0.9698
-5.4814 4.9028 -2.3886 0.9695
-5.5563 4.9083 -2.4080 0.9693
-5.6067 4.8914 -2.4166 0.9692
-5.6657 4.8208 -2.4162 0.9692
-5.7525 4.7136 -2.4155 0.9692
-5.8374 4.6047 -2.4149 0.9692
-5.9473 4.4573 -2.4140 0.9692
-6.0008 4.3826 -2.4135 0.9692
-6.0272 4.3449 -2.4133 0.9692
-6.0534 4.3072 -2.4130 0.9692
-6.0793 4.2693 -2.4128 0.9692
-6.1558 4.1546 -2.4121 0.9692
-6.1807 4.1160 -2.4119 0.9693
-6.2300 4.0385 -2.4114 0.9693
-6.2782 3.9604 -2.4110 0.9693
-6.3020 3.9211 -2.4107 0.9693
-6.3945 3.7625 -2.4098 0.9693
-6.4171 3.7225 -2.4096 0.9693
-6.4614 3.6422 -2.4091 0.9693
-6.4831 3.6018 -2.4088 0.9693
-6.5046 3.5613 -2.4086 0.9693
-6.5881 3.3980 -2.4077 0.9693
-6.6084 3.3569 -2.4074 0.9693
-6.6676 3.2327 -2.4067 0.9693
-6.7244 3.1075 -2.4060 0.9693
-6.7789 2.9814 -2.4053 0.9693
-6.7965 2.9391 -2.4051 0.9693
-6.8309 2.8542 -2.4046 0.9693
-6.8967 2.6834 -2.4036 0.9694
-6.9125 2.6404 -2.4034 0.9694
-6.9280 2.5973 -2.4031 0.9694
-6.9582 2.5110 -2.4027 0.9694
-6.9873 2.4242 -2.4022 0.9694
-7.0015 2.3807 -2.4019 0.9694
-7.0290 2.2935 -2.4015 0.9694
-7.0930 2.0740 -2.4003 0.9694
-7.1050 2.0299 -2.4000 0.9694
-7.1502 1.8528 -2.3991 0.9694
-7.1608 1.8084 -2.3988 0.9694
-7.1711 1.7639 -2.3986 0.9694
-7.1909 1.6747 -2.3981 0.9694
-7.2097 1.5854 -2.3976 0.9694
-7.2186 1.5406 -2.3974 0.9694
-7.2357 1.4509 -2.3969 0.9694
-7.2438 1.4060 -2.3967 0.9694
-7.2517 1.3610 -2.3964 0.9694
-7.2665 1.2710 -2.3960 0.9695
-7.2735 1.2259 -2.3957 0.9695
-7.2802 1.1808 -2.3955 0.9695
-7.2866 1.1356 -2.3953 0.9695
-7.2987 1.0452 -2.3948 0.9695
-7.3096 0.9547 -2.3943 0.9695
-7.3147 0.9094 -2.3941 0.9695
-7.3194 0.8640 -2.3938 0.9695
-7.3239 0.8187 -2.3936 0.9695
-7.3281 0.7733 -2.3934 0.9695
-7.3357 0.6824 -2.3929 0.9695
-7.3391 0.6370 -2.3927 0.9695
-7.3421 0.5915 -2.3924 0.9695
-7.3534 0.3641 -2.3913 0.9695
-7.3567 0.2275 -2.3906 0.9695
-7.1739 -0.0887 -2.3893 0.9702
-7.1709 -0.1774 -2.3888 0.9702
-7.1691 -0.2217 -2.3886 0.9702
-7.1669 -0.2661 -2.3884 0.9702
-7.1644 -0.3104 -2.3882 0.9702
-7.1588 -0.3989 -2.3877 0.9702
-7.1555 -0.4431 -2.3875 0.9702
-7.1441 -0.5756 -2.3869 0.9702
-7.1397 -0.6197 -2.3867 0.9702
-7.1303 -0.7078 -2.3862 0.9702
-7.1251 -0.7519 -2.3860 0.9702
-7.1197 -0.7958 -2.3858 0.9702
-7.1140 -0.8398 -2.3856 0.9703
-7.1081 -0.8837 -2.3854 0.9703
-7.1018 -0.9275 -2.3852 0.9703
-7.0667 -1.1461 -2.3841 0.9703
-7.0588 -1.1897 -2.3839 0.9703
-7.0507 -1.2333 -2.3837 0.9703
-7.0423 -1.2767 -2.3835 0.9703
-7.0337 -1.3201 -2.3833 0.9703
-6.9965 -1.4932 -2.3825 0.9703
-6.9658 -1.6223 -2.3819 0.9703
-6.9551 -1.6652 -2.3817 0.9703
-6.9441 -1.7080 -2.3815 0.9703
-6.9095 -1.8361 -2.3809 0.9703
-6.8974 -1.8787 -2.3807 0.9703
-6.8851 -1.9211 -2.3805 0.9703
-6.8725 -1.9635 -2.3803 0.9703
-6.8597 -2.0058 -2.3801 0.9703
-6.8466 -2.0480 -2.3799 0.9703
-6.8196 -2.1322 -2.3795 0.9703
-6.8058 -2.1742 -2.3794 0.9703
-6.7917 -2.2160 -2.3792 0.9703
-6.7478 -2.3411 -2.3786 0.9703
-6.6858 -2.5065 -2.3779 0.9703
-6.6696 -2.5476 -2.3777 0.9703
-6.6533 -2.5886 -2.3775 0.9704
-6.6366 -2.6295 -2.3773 0.9704
-6.6197 -2.6703 -2.3771 0.9704
-6.6026 -2.7110 -2.3770 0.9704
-6.5852 -2.7516 -2.3768 0.9704
-6.5676 -2.7920 -2.3766 0.9704
-6.5497 -2.8324 -2.3764 0.9704
-6.4946 -2.9528 -2.3759 0.9704
-6.4757 -2.9926 -2.3757 0.9704
-6.4566 -3.0324 -2.3756 0.9704
-6.4373 -3.0721 -2.3754 0.9704
-6.3979 -3.1510 -2.3751 0.9704
-6.3162 -3.3073 -2.3744 0.9704
-6.2952 -3.3461 -2.3742 0.9704
-6.2525 -3.4233 -2.3739 0.9704
-6.2089 -3.4999 -2.3736 0.9704
-6.1417 -3.6137 -2.3731 0.9704
-6.0724 -3.7263 -2.3727 0.9704
-5.9768 -3.8744 -2.3721 0.9704
-5.9524 -3.9110 -2.3719 0.9704
-5.8777 -4.0201 -2.3715 0.9704
-5.8268 -4.0920 -2.3712 0.9704
-5.7489 -4.1986 -2.3708 0.9704
-5.7225 -4.2338 -2.3706 0.9704
-5.6959 -4.2689 -2.3705 0.9704
-5.6691 -4.3038 -2.3704 0.9704
-5.6420 -4.3385 -2.3702 0.9704
-5.6148 -4.3731 -2.3701 0.9704
-5.5318 -4.4758 -2.3697 0.9704
-5.5037 -4.5096 -2.3696 0.9704
-5.4754 -4.5433 -2.3694 0.9704
-5.3309 -4.7092 -2.3688 0.9705
-5.2717 -4.7743 -2.3686 0.9705
-5.2118 -4.8387 -2.3684 0.9705
-5.0895 -4.9652 -2.3679 0.9705
-5.0585 -4.9963 -2.3678 0.9705
-5.0273 -5.0273 -2.3677 0.9705
-4.9958 -5.0580 -2.3676 0.9705
-4.9325 -5.1190 -2.3674 0.9705
-4.9005 -5.1492 -2.3673 0.9705
-4.8360 -5.2089 -2.3671 0.9705
-4.7708 -5.2679 -2.3669 0.9705
-4.7380 -5.2971 -2.3668 0.9705
-4.7049 -5.3261 -2.3667 0.9705
-4.6717 -5.3548 -2.3666 0.9705
-4.6383 -5.3834 -2.3665 0.9705
-4.6048 -5.4118 -2.3664 0.9705
-4.5710 -5.4400 -2.3663 0.9705
-4.4688 -5.5232 -2.3660 0.9705
-4.3651 -5.6046 -2.3658 0.9705
-4.3303 -5.6312 -2.3657 0.9705
-4.2600 -5.6840 -2.3655 0.9705
-4.2246 -5.7101 -2.3655 0.9705
-4.0454 -5.8370 -2.3651 0.9705
-4.0091 -5.8617 -2.3650 0.9705
-3.9727 -5.8863 -2.3650 0.9705
-3.8254 -5.9821 -2.3647 0.9705
-3.7509 -6.0286 -2.3646 0.9705
-3.7135 -6.0515 -2.3645 0.9705
-3.6382 -6.0967 -2.3644 0.9705
-3.4476 -6.2056 -2.3641 0.9705
-3.4091 -6.2267 -2.3641 0.9705
-3.3704 -6.2475 -2.3640 0.9705
-3.3317 -6.2681 -2.3640 0.9705
-3.2928 -6.2885 -2.3640 0.9705
-3.2146 -6.3285 -2.3639 0.9705
-3.1361 -6.3676 -2.3638 0.9705
-2.9375 -6.4610 -2.3636 0.9705
-2.8974 -6.4790 -2.3636 0.9705
-2.8170 -6.5142 -2.3635 0.9705
-2.7361 -6.5484 -2.3635 0.9705
-2.6141 -6.5978 -2.3634 0.9705
-2.5733 -6.6138 -2.3634 0.9705
-2.5323 -6.6296 -2.3634 0.9705
-2.4912 -6.6450 -2.3634 0.9705
-2.3260 -6.7045 -2.3633 0.9705
-2.2429 -6.7327 -2.3633 0.9705
-2.2013 -6.7464 -2.3633 0.9705
-2.1595 -6.7599 -2.3633 0.9705
-2.0757 -6.7860 -2.3633 0.9705
-2.0337 -6.7987 -2.3633 0.9705
-1.9916 -6.8112 -2.3633 0.9705
-1.9495 -6.8234 -2.3633 0.9705
-1.9072 -6.8353 -2.3633 0.9705
-1.8649 -6.8470 -2.3633 0.9705
-1.7376 -6.8805 -2.3633 0.9705
-1.6950 -6.8911 -2.3633 0.9705
-1.6097 -6.9116 -2.3633 0.9705
-1.5241 -6.9311 -2.3634 0.9705
-1.3953 -6.9583 -2.3634 0.9705
-1.3523 -6.9669 -2.3635 0.9705
-1.2660 -6.9833 -2.3635 0.9705
-1.1795 -6.9985 -2.3636 0.9705
-1.1363 -7.0058 -2.3636 0.9705
-1.0495 -7.0195 -2.3636 0.9705
-1.0061 -7.0259 -2.3637 0.9705
-0.8756 -7.0437 -2.3638 0.9705
-0.8321 -7.0491 -2.3638 0.9705
-0.7885 -7.0542 -2.3639 0.9705
-0.7012 -7.0637 -2.3639 0.9705
-0.6575 -7.0680 -2.3640 0.9705
-0.6138 -7.0721 -2.3640 0.9705
-0.5701 -7.0759 -2.3641 0.9705
-0.4826 -7.0827 -2.3642 0.9705
-0.4387 -7.0857 -2.3642 0.9705
-0.2633 -7.0950 -2.3644 0.9705
-0.2195 -7.0967 -2.3645 0.9705
-0.1756 -7.0981 -2.3646 0.9705
-0.1317 -7.0992 -2.3646 0.9705
-0.0878 -7.1001 -2.3647 0.9705
-0.0439 -7.1007 -2.3647 0.9705
0.0000 -7.1010 -2.3648 0.9705
0.1318 -7.1004 -2.3650 0.9705
0.1757 -7.0996 -2.3651 0.9705
0.2635 -7.0974 -2.3652 0.9705
0.3074 -7.0958 -2.3653 0.9705
0.3513 -7.0940 -2.3654 0.9705
0.3951 -7.0919 -2.3655 0.9705
0.5267 -7.0841 -2.3657 0.9705
0.5705 -7.0809 -2.3658 0.9705
0.7456 -7.0657 -2.3661 0.9705
0.9203 -7.0461 -2.3665 0.9705
1.0074 -7.0348 -2.3667 0.9705
1.0944 -7.0223 -2.3668 0.9705
1.1379 -7.0157 -2.3669 0.9705
1.1813 -7.0089 -2.3670 0.9705
1.2680 -6.9943 -2.3673 0.9705
1.3546 -6.9787 -2.3675 0.9705
1.4409 -6.9621 -2.3677 0.9705
1.4840 -6.9533 -2.3678 0.9705
1.6130 -6.9256 -2.3681 0.9705
1.6558 -6.9158 -2.3682 0.9705
1.6987 -6.9058 -2.3683 0.9705
1.7414 -6.8954 -2.3685 0.9705
1.8267 -6.8741 -2.3687 0.9705
1.8693 -6.8630 -2.3688 0.9705
1.9118 -6.8517 -2.3689 0.9705
1.9542 -6.8400 -2.3691 0.9705
1.9967 -6.8282 -2.3692 0.9705
2.0811 -6.8037 -2.3694 0.9704
2.1654 -6.7782 -2.3697 0.9704
2.2493 -6.7516 -2.3699 0.9704
2.2911 -6.7380 -2.3701 0.9704
2.4161 -6.6954 -2.3705 0.9704
2.4576 -6.6807 -2.3706 0.9704
2.5404 -6.6506 -2.3709 0.9704
2.5816 -6.6351 -2.3710 0.9704
2.6227 -6.6194 -2.3712 0.9704
2.6638 -6.6035 -2.3713 0.9704
2.7456 -6.5708 -2.3716 0.9704
2.9080 -6.5025 -2.3722 0.9704
3.0687 -6.4302 -2.3728 0.9704
3.4237 -6.2533 -2.3742 0.9704
3.5013 -6.2113 -2.3745 0.9704
3.5783 -6.1684 -2.3749 0.9704
3.6549 -6.1246 -2.3752 0.9704
3.6929 -6.1023 -2.3754 0.9704
3.7687 -6.0570 -2.3757 0.9704
3.8063 -6.0340 -2.3759 0.9704
3.8812 -5.9873 -2.3762 0.9704
3.9925 -5.9156 -2.3768 0.9704
4.1750 -5.7916 -2.3777 0.9703
4.2111 -5.7661 -2.3778 0.9703
4.2471 -5.7404 -2.3780 0.9703
4.3184 -5.6883 -2.3784 0.9703
4.3538 -5.6619 -2.3786 0.9703
4.4242 -5.6085 -2.3789 0.9703
4.4940 -5.5542 -2.3793 0.9703
4.5286 -5.5268 -2.3795 0.9703
4.6315 -5.4431 -2.3801 0.9703
4.7328 -5.3576 -2.3807 0.9703
4.7662 -5.3286 -2.3809 0.9703
4.7995 -5.2995 -2.3811 0.9703
4.9307 -5.1809 -2.3819 0.9703
4.9631 -5.1507 -2.3821 0.9703
5.0273 -5.0898 -2.3825 0.9703
5.0907 -5.0281 -2.3829 0.9703
5.1222 -4.9970 -2.3831 0.9703
5.1845 -4.9341 -2.3835 0.9703
5.2153 -4.9023 -2.3837 0.9703
5.2764 -4.8383 -2.3841 0.9703
5.3368 -4.7735 -2.3845 0.9703
5.4552 -4.6417 -2.3853 0.9703
5.4843 -4.6083 -2.3856 0.9703
5.5131 -4.5746 -2.3858 0.9702
5.5418 -4.5409 -2.3860 0.9702
5.6267 -4.4385 -2.3866 0.9702
5.6545 -4.4040 -2.3868 0.9702
5.6821 -4.3693 -2.3871 0.9702
5.7367 -4.2995 -2.3875 0.9702
5.7906 -4.2290 -2.3879 0.9702
5.8171 -4.1935 -2.3881 0.9702
5.8435 -4.1578 -2.3884 0.9702
5.8696 -4.1220 -2.3886 0.9702
5.8956 -4.0860 -2.3888 0.9702
5.9213 -4.0498 -2.3890 0.9702
5.9467 -4.0135 -2.3892 0.9702
5.9720 -3.9770 -2.3895 0.9702
5.9970 -3.9404 -2.3897 0.9702
6.0218 -3.9036 -2.3899 0.9702
6.1425 -3.7173 -2.3910 0.9702
6.1892 -3.6417 -2.3915 0.9702
6.3236 -3.4115 -2.3928 0.9702
6.3452 -3.3727 -2.3931 0.9702
6.3876 -3.2946 -2.3935 0.9702
6.4085 -3.2553 -2.3937 0.9702
6.4291 -3.2159 -2.3940 0.9701
6.4495 -3.1764 -2.3942 0.9701
6.5092 -3.0571 -2.3949 0.9701
6.5478 -2.9769 -2.3954 0.9701
6.5667 -2.9367 -2.3956 0.9701
6.5854 -2.8963 -2.3958 0.9701
6.6038 -2.8558 -2.3960 0.9701
6.6219 -2.8151 -2.3963 0.9701
6.6399 -2.7744 -2.3965 0.9701
6.6575 -2.7335 -2.3967 0.9701
6.6750 -2.6926 -2.3970 0.9701
6.6921 -2.6515 -2.3972 0.9701
6.7091 -2.6103 -2.3974 0.9701
6.7583 -2.4861 -2.3981 0.9701
6.7742 -2.4445 -2.3984 0.9701
6.8204 -2.3191 -2.3991 0.9701
6.8352 -2.2771 -2.3993 0.9701
6.8499 -2.2350 -2.3995 0.9701
6.8783 -2.1505 -2.4000 0.9701
6.8922 -2.1082 -2.4002 0.9701
6.9057 -2.0657 -2.4005 0.9701
6.9191 -2.0232 -2.4007 0.9701
6.9321 -1.9805 -2.4009 0.9701
6.9449 -1.9378 -2.4012 0.9701
6.9574 -1.8950 -2.4014 0.9701
6.9817 -1.8092 -2.4019 0.9701
6.9934 -1.7661 -2.4021 0.9700
7.0049 -1.7230 -2.4023 0.9700
7.0161 -1.6798 -2.4026 0.9700
7.0270 -1.6366 -2.4028 0.9700
7.0377 -1.5932 -2.4030 0.9700
7.0481 -1.5498 -2.4033 0.9700
7.0681 -1.4628 -2.4037 0.9700
7.0870 -1.3756 -2.4042 0.9700
7.0961 -1.3318 -2.4044 0.9700
7.1049 -1.2880 -2.4047 0.9700
7.1217 -1.2003 -2.4051 0.9700
7.1520 -1.0242 -2.4061 0.9700
7.1655 -0.9358 -2.4065 0.9700
7.1718 -0.8916 -2.4068 0.9700
7.1778 -0.8473 -2.4070 0.9700
7.1837 -0.8030 -2.4072 0.9700
7.1892 -0.7586 -2.4075 0.9700
7.1944 -0.7142 -2.4077 0.9700
7.1994 -0.6698 -2.4079 0.9700
7.2085 -0.5808 -2.4084 0.9700
7.2264 -0.3578 -2.4095 0.9700
7.2292 -0.3131 -2.4098 0.9700
7.2339 -0.2237 -2.4102 0.9699
7.2358 -0.1790 -2.4104 0.9699
7.2375 -0.1343 -2.4107 0.9699
7.2400 -0.0448 -2.4111 0.9699
7.2408 0.0000 -2.4113 0.9699
7.2413 0.0448 -2.4116 0.9699
7.2415 0.1344 -2.4120 0.9699
7.2407 0.2240 -2.4125 0.9699
7.2387 0.3135 -2.4129 0.9699
7.2373 0.3584 -2.4131 0.9699
7.2356 0.4032 -2.4134 0.9699
7.2336 0.4479 -2.4136 0.9699
7.2314 0.4927 -2.4138 0.9699
7.2261 0.5822 -2.4142 0.9699
7.2230 0.6269 -2.4145 0.9699
7.2196 0.6716 -2.4147 0.9699
7.2160 0.7163 -2.4149 0.9699
7.2120 0.7610 -2.4151 0.9699
7.2079 0.8057 -2.4153 0.9699
7.2034 0.8503 -2.4156 0.9699
7.1986 0.8949 -2.4158 0.9699
7.1883 0.9840 -2.4162 0.9699
7.1827 1.0286 -2.4164 0.9699
7.1769 1.0731 -2.4166 0.9699
7.1643 1.1620 -2.4171 0.9699
7.1576 1.2064 -2.4173 0.9699
7.1507 1.2508 -2.4175 0.9699
7.1359 1.3393 -2.4179 0.9699
7.1200 1.4277 -2.4183 0.9698
7.1117 1.4718 -2.4185 0.9698
7.1030 1.5159 -2.4188 0.9698
7.0131 1.9102 -2.4206 0.9698
7.0017 1.9537 -2.4208 0.9698
6.9781 2.0405 -2.4212 0.9698
6.9660 2.0837 -2.4214 0.9698
6.9535 2.1270 -2.4216 0.9698
6.9408 2.1701 -2.4218 0.9698
6.8731 2.3846 -2.4228 0.9698
6.8588 2.4272 -2.4230 0.9698
6.8294 2.5123 -2.4233 0.9698
6.7832 2.6392 -2.4239 0.9698
6.7672 2.6813 -2.4241 0.9698
6.7510 2.7233 -2.4243 0.9698
6.7179 2.8070 -2.4247 0.9698
6.6837 2.8903 -2.4250 0.9698
6.6484 2.9732 -2.4254 0.9698
6.6121 3.0557 -2.4258 0.9698
6.5935 3.0967 -2.4259 0.9698
6.5748 3.1377 -2.4261 0.9698
6.5364 3.2192 -2.4265 0.9697
6.4970 3.3003 -2.4268 0.9697
6.4567 3.3809 -2.4272 0.9697
6.3512 3.5801 -2.4280 0.9697
6.3073 3.6589 -2.4283 0.9697
6.2624 3.7371 -2.4286 0.9697
6.2396 3.7760 -2.4288 0.9697
6.2165 3.8148 -2.4290 0.9697
6.1459 3.9302 -2.4294 0.9697
6.0233 4.1196 -2.4302 0.9697
5.9981 4.1571 -2.4304 0.9697
5.9470 4.2315 -2.4307 0.9697
5.9211 4.2684 -2.4308 0.9697
5.8685 4.3418 -2.4311 0.9697
5.8419 4.3783 -2.4312 0.9697
5.8151 4.4146 -2.4314 0.9697
5.7880 4.4507 -2.4315 0.9697
5.6774 4.5936 -2.4321 0.9697
5.6208 4.6640 -2.4323 0.9697
5.5633 4.7337 -2.4326 0.9697
5.5342 4.7682 -2.4327 0.9697
5.5049 4.8026 -2.4329 0.9697
5.4753 4.8368 -2.4330 0.9697
5.4157 4.9047 -2.4332 0.9697
5.3551 4.9718 -2.4335 0.9697
5.1367 5.2006 -2.4343 0.9697
5.0725 5.2642 -2.4345 0.9696
5.0400 5.2957 -2.4346 0.9696
4.9746 5.3581 -2.4349 0.9696
4.8668 5.3738 -2.4145 0.9699
4.5562 5.2881 -2.3246 0.9710
4.3740 5.2713 -2.2811 0.9715
4.3415 5.2984 -2.2812 0.9715
4.3088 5.3254 -2.2813 0.9715
4.2759 5.3521 -2.2814 0.9715
4.2429 5.3787 -2.2815 0.9715
4.2097 5.4050 -2.2815 0.9715
4.1764 5.4311 -2.2816 0.9715
4.1429 5.4571 -2.2817 0.9715
4.0753 5.5082 -2.2819 0.9715
4.0413 5.5335 -2.2819 0.9715
4.0072 5.5586 -2.2820 0.9715
3.9728 5.5835 -2.2821 0.9715
3.8689 5.6567 -2.2823 0.9715
3.7989 5.7045 -2.2824 0.9715
3.7636 5.7280 -2.2825 0.9715
3.6570 5.7973 -2.2827 0.9715
3.6212 5.8200 -2.2827 0.9715
3.5852 5.8424 -2.2828 0.9715
3.5491 5.8646 -2.2829 0.9715
3.5129 5.8866 -2.2829 0.9715
3.4765 5.9084 -2.2830 0.9715
3.4400 5.9299 -2.2830 0.9715
3.4033 5.9512 -2.2831 0.9715
3.2553 6.0341 -2.2833 0.9715
3.1053 6.1132 -2.2834 0.9715
3.0296 6.1513 -2.2835 0.9715
2.9534 6.1885 -2.2836 0.9715
2.9151 6.2068 -2.2836 0.9715
2.8767 6.2248 -2.2837 0.9715
2.8382 6.2425 -2.2837 0.9715
2.6440 6.3277 -2.2838 0.9715
2.6048 6.3440 -2.2839 0.9715
2.5655 6.3600 -2.2839 0.9715
2.5262 6.3758 -2.2839 0.9715
2.4867 6.3914 -2.2839 0.9715
2.3678 6.4366 -2.2840 0.9715
2.2880 6.4654 -2.2840 0.9715
2.0871 6.5332 -2.2840 0.9715
1.8024 6.6174 -2.2840 0.9715
1.6793 6.6496 -2.2840 0.9715
1.5969 6.6698 -2.2840 0.9715
1.4729 6.6981 -2.2839 0.9715
1.4314 6.7071 -2.2839 0.9715
1.3483 6.7241 -2.2839 0.9715
1.3067 6.7323 -2.2839 0.9715
1.2650 6.7402 -2.2838 0.9715
1.1398 6.7622 -2.2838 0.9715
1.0560 6.7757 -2.2837 0.9715
1.0140 6.7820 -2.2837 0.9715
0.9721 6.7881 -2.2837 0.9715
0.9301 6.7939 -2.2836 0.9715
0.8880 6.7994 -2.2836 0.9715
0.8460 6.8047 -2.2836 0.9715
0.7618 6.8144 -2.2835 0.9715
0.7196 6.8189 -2.2835 0.9715
0.6773 6.8231 -2.2834 0.9715
0.6350 6.8271 -2.2834 0.9715
0.4238 6.8428 -2.2832 0.9715
0.3814 6.8452 -2.2831 0.9715
0.3391 6.8472 -2.2831 0.9715
0.2967 6.8490 -2.2830 0.9715
0.2543 6.8506 -2.2830 0.9715
0.2119 6.8519 -2.2829 0.9715
0.1696 6.8529 -2.2829 0.9715
0.0424 6.8543 -2.2827 0.9715
-0.0000 6.8543 -2.2826 0.9715
-0.0424 6.8540 -2.2826 0.9715
-0.0848 6.8534 -2.2825 0.9715
-0.2542 6.8483 -2.2822 0.9715
-0.2966 6.8464 -2.2822 0.9715
-0.4235 6.8391 -2.2819 0.9715
-0.5502 6.8293 -2.2817 0.9715
-0.6767 6.8172 -2.2815 0.9715
-0.8030 6.8027 -2.2812 0.9715
-0.8870 6.7917 -2.2810 0.9715
-0.9289 6.7857 -2.2809 0.9715
-1.0963 6.7595 -2.2805 0.9715
-1.1380 6.7523 -2.2804 0.9715
-1.0448 5.9737 -2.0196 0.9748
-1.2190 6.4951 -2.2008 0.9725
-1.3410 6.2837 -2.1397 0.9733
-1.4177 6.2626 -2.1384 0.9733
-1.4662 6.2958 -2.1528 0.9731
-1.5106 6.3093 -2.1605 0.9730
-1.6252 6.2719 -2.1577 0.9731
-1.6652 6.2662 -2.1592 0.9730
-1.7377 6.2279 -2.1533 0.9731
-1.9222 6.2842 -2.1885 0.9727
-1.9514 6.1084 -2.1355 0.9733
-1.9906 6.1008 -2.1371 0.9733
-2.2672 6.2828 -2.2244 0.9722
-2.3350 6.3474 -2.2523 0.9719
-2.3832 6.3568 -2.2608 0.9718
-2.4785 6.3702 -2.2764 0.9716
-2.5177 6.3544 -2.2762 0.9716
-2.5568 6.3383 -2.2761 0.9716
-2.7507 6.2543 -2.2754 0.9716
-2.8275 6.2190 -2.2751 0.9716
-2.9418 6.1643 -2.2746 0.9716
-3.0174 6.1266 -2.2743 0.9716
-3.0550 6.1074 -2.2742 0.9716
-3.0925 6.0880 -2.2740 0.9716
-3.1299 6.0683 -2.2739 0.9716
-3.1671 6.0484 -2.2737 0.9716
-3.2781 5.9874 -2.2732 0.9716
-3.3514 5.9455 -2.2729 0.9716
-3.4242 5.9028 -2.2726 0.9716
-3.4965 5.8592 -2.2723 0.9716
-3.5324 5.8370 -2.2721 0.9716
-3.5682 5.8146 -2.2719 0.9716
-3.6038 5.7920 -2.2718 0.9716
-3.6392 5.7692 -2.2716 0.9717
-3.6746 5.7461 -2.2714 0.9717
-3.7098 5.7229 -2.2713 0.9717
-3.7797 5.6757 -2.2709 0.9717
-3.8145 5.6518 -2.2707 0.9717
-3.8490 5.6276 -2.2706 0.9717
-3.9518 5.5540 -2.2701 0.9717
-4.0196 5.5039 -2.2697 0.9717
-4.0867 5.4529 -2.2693 0.9717
-4.1532 5.4010 -2.2690 0.9717
-4.1862 5.3748 -2.2688 0.9717
-4.2517 5.3218 -2.2684 0.9717
-4.2841 5.2950 -2.2683 0.9717
-4.3165 5.2679 -2.2681 0.9717
-4.3486 5.2407 -2.2679 0.9717
-4.4124 5.1857 -2.2675 0.9717
-4.4440 5.1579 -2.2673 0.9717
-4.4754 5.1299 -2.2671 0.9717
-4.5378 5.0733 -2.2668 0.9717
-4.5687 5.0447 -2.2666 0.9717
-4.6905 4.9285 -2.2658 0.9717
-4.7205 4.8989 -2.2656 0.9717
-4.7893 4.8489 -2.2697 0.9717
-4.8446 4.8446 -2.2817 0.9715
-4.9099 4.8495 -2.2982 0.9713
-5.0431 4.8594 -2.3323 0.9709
-5.2507 4.8748 -2.3860 0.9702
-5.3792 4.8717 -2.4169 0.9699
-5.4088 4.8379 -2.4167 0.9699
-5.4381 4.8039 -2.4165 0.9699
-5.4672 4.7698 -2.4162 0.9699
-5.4961 4.7354 -2.4160 0.9699
-5.5533 4.6663 -2.4156 0.9699
-5.6649 4.5258 -2.4147 0.9699
-5.7464 4.4187 -2.4141 0.9699
-5.7731 4.3827 -2.4138 0.9699
-5.7995 4.3466 -2.4136 0.9699
-5.8257 4.3102 -2.4134 0.9699
-5.8775 4.2371 -2.4129 0.9699
-5.9284 4.1633 -2.4125 0.9699
-5.9535 4.1261 -2.4123 0.9699
-6.0029 4.0514 -2.4118 0.9699
-6.0515 3.9761 -2.4114 0.9699
-6.0753 3.9383 -2.4112 0.9699
-6.0990 3.9002 -2.4109 0.9699
-6.1224 3.8621 -2.4107 0.9699
-6.1913 3.7468 -2.4100 0.9700
-6.2137 3.7081 -2.4098 0.9700
-6.2797 3.5911 -2.4091 0.9700
-6.3224 3.5125 -2.4086 0.9700
-6.3434 3.4731 -2.4084 0.9700
-6.3642 3.4334 -2.4082 0.9700
-6.4049 3.3538 -2.4077 0.9700
-6.4249 3.3138 -2.4075 0.9700
-6.5579 3.0306 -2.4059 0.9700
-6.5758 2.9897 -2.4056 0.9700
-6.5936 2.9487 -2.4054 0.9700
-6.6111 2.9076 -2.4052 0.9700
-6.6283 2.8663 -2.4049 0.9700
-6.6452 2.8250 -2.4047 0.9700
-6.6945 2.7005 -2.4040 0.9700
-6.7567 2.5331 -2.4031 0.9700
-6.7861 2.4489 -2.4026 0.9700
-6.8420 2.2794 -2.4017 0.9701
-6.8553 2.2368 -2.4014 0.9701
-6.8683 2.1941 -2.4012 0.9701
-6.9058 2.0658 -2.4005 0.9701
-6.9178 2.0228 -2.4003 0.9701
-6.9295 1.9798 -2.4000 0.9701
-6.9630 1.8503 -2.3993 0.9701
-7.0135 1.6334 -2.3982 0.9701
-7.0227 1.5899 -2.3979 0.9701
-7.0405 1.5026 -2.3975 0.9701
-7.0651 1.3713 -2.3968 0.9701
-7.0802 1.2836 -2.3963 0.9701
-7.0873 1.2396 -2.3961 0.9701
-7.1007 1.1517 -2.3956 0.9701
-7.1070 1.1076 -2.3954 0.9701
-7.1243 0.9753 -2.3947 0.9701
-7.1344 0.8870 -2.3942 0.9701
-7.1435 0.7985 -2.3938 0.9702
-7.1514 0.7099 -2.3933 0.9702
-7.1550 0.6656 -2.3931 0.9702
-7.1583 0.6213 -2.3929 0.9702
-7.1613 0.5770 -2.3926 0.9702
-7.1641 0.5326 -2.3924 0.9702
-7.1665 0.4883 -2.3922 0.9702
-7.1724 0.3551 -2.3915 0.9702
-7.1757 0.2220 -2.3908 0.9702
-7.1762 0.1776 -2.3906 0.9702
-7.1766 0.1332 -2.3904 0.9702
-7.1763 0.0444 -2.3899 0.9702
-6.9980 -0.1732 -2.3891 0.9708
-6.9962 -0.2164 -2.3889 0.9708
-6.9862 -0.3893 -2.3880 0.9709
-6.9796 -0.4755 -2.3876 0.9709
-6.9759 -0.5186 -2.3874 0.9709
-6.9677 -0.6048 -2.3870 0.9709
-6.9585 -0.6908 -2.3866 0.9709
-6.9427 -0.8195 -2.3860 0.9709
-6.9308 -0.9052 -2.3855 0.9709
-6.9110 -1.0333 -2.3849 0.9709
-6.9040 -1.0760 -2.3847 0.9709
-6.8966 -1.1186 -2.3845 0.9709
-6.8889 -1.1611 -2.3843 0.9709
-6.8810 -1.2036 -2.3841 0.9709
-6.8645 -1.2883 -2.3837 0.9709
-6.8282 -1.4573 -2.3829 0.9709
-6.7879 -1.6252 -2.3821 0.9709
-6.7661 -1.7087 -2.3817 0.9709
-6.7316 -1.8335 -2.3812 0.9709
-6.6949 -1.9576 -2.3806 0.9709
-6.6691 -2.0400 -2.3802 0.9710
-6.6559 -2.0810 -2.3800 0.9710
-6.6424 -2.1220 -2.3799 0.9710
-6.6146 -2.2036 -2.3795 0.9710
-6.5858 -2.2849 -2.3791 0.9710
-6.5711 -2.3254 -2.3789 0.9710
-6.5095 -2.4865 -2.3782 0.9710
-6.4608 -2.6062 -2.3777 0.9710
-6.4442 -2.6460 -2.3775 0.9710
-6.3570 -2.8429 -2.3767 0.9710
-6.3388 -2.8819 -2.3765 0.9710
-6.3018 -2.9597 -2.3762 0.9710
-6.2829 -2.9984 -2.3760 0.9710
-6.2638 -3.0370 -2.3758 0.9710
-6.2249 -3.1138 -2.3755 0.9710
-6.2051 -3.1520 -2.3753 0.9710
-6.1851 -3.1901 -2.3752 0.9710
-6.1443 -3.2659 -2.3749 0.9710
-6.1236 -3.3037 -2.3747 0.9710
-6.1027 -3.3412 -2.3745 0.9710
-6.0815 -3.3787 -2.3744 0.9710
-6.0166 -3.4902 -2.3739 0.9710
-5.9269 -3.6371 -2.3733 0.9710
-5.9039 -3.6734 -2.3732 0.9710
-5.8337 -3.7816 -2.3727 0.9710
-5.7370 -3.9238 -2.3722 0.9711
-5.7123 -3.9590 -2.3720 0.9711
-5.5856 -4.1325 -2.3713 0.9711
-5.4536 -4.3020 -2.3707 0.9711
-5.3994 -4.3687 -2.3704 0.9711
-5.0576 -4.7542 -2.3690 0.9711
-4.8764 -4.9371 -2.3684 0.9711
-4.8146 -4.9966 -2.3682 0.9711
-4.7520 -5.0554 -2.3680 0.9711
-4.6887 -5.1133 -2.3678 0.9711
-4.6568 -5.1420 -2.3677 0.9711
-4.5925 -5.1988 -2.3675 0.9711
-4.5601 -5.2269 -2.3674 0.9711
-4.4948 -5.2825 -2.3672 0.9711
-4.4618 -5.3100 -2.3671 0.9711
-4.4287 -5.3373 -2.3670 0.9711
-4.2268 -5.4968 -2.3665 0.9711
-4.1926 -5.5226 -2.3665 0.9711
-4.1582 -5.5483 -2.3664 0.9711
-4.1237 -5.5737 -2.3663 0.9711
-4.0890 -5.5989 -2.3662 0.9711
-4.0542 -5.6239 -2.3662 0.9711
-3.9488 -5.6977 -2.3659 0.9711
-3.8778 -5.7457 -2.3658 0.9711
-3.8062 -5.7929 -2.3657 0.9711
-3.7703 -5.8162 -2.3656 0.9711
-3.6249 -5.9071 -2.3654 0.9711
-3.5514 -5.9512 -2.3653 0.9711
-3.4773 -5.9944 -2.3652 0.9711
-3.3653 -6.0575 -2.3650 0.9711
-3.3277 -6.0781 -2.3650 0.9711
-3.2142 -6.1384 -2.3648 0.9711
-3.1761 -6.1580 -2.3648 0.9711
-3.1379 -6.1775 -2.3647 0.9711
-3.0996 -6.1967 -2.3647 0.9711
-3.0227 -6.2343 -2.3646 0.9711
-2.9452 -6.2710 -2.3646 0.9711
-2.8674 -6.3068 -2.3645 0.9711
-2.7498 -6.3587 -2.3644 0.9711
-2.6709 -6.3921 -2.3644 0.9711
-2.6313 -6.4084 -2.3643 0.9711
-2.5518 -6.4404 -2.3643 0.9711
-2.5119 -6.4560 -2.3643 0.9711
-2.3916 -6.5013 -2.3642 0.9711
-2.3110 -6.5304 -2.3642 0.9711
-2.2706 -6.5445 -2.3642 0.9711
-2.2300 -6.5584 -2.3642 0.9711
-2.1894 -6.5720 -2.3642 0.9711
-2.0671 -6.6115 -2.3642 0.9711
-1.9852 -6.6365 -2.3642 0.9711
-1.8617 -6.6722 -2.3642 0.9711
-1.7791 -6.6948 -2.3642 0.9711
-1.7376 -6.7057 -2.3642 0.9711
-1.6961 -6.7163 -2.3642 0.9711
-1.6546 -6.7267 -2.3642 0.9711
-1.6130 -6.7368 -2.3642 0.9711
-1.5712 -6.7467 -2.3642 0.9711
-1.5295 -6.7563 -2.3642 0.9711
-1.4877 -6.7657 -2.3643 0.9711
-1.4458 -6.7749 -2.3643 0.9711
-1.3200 -6.8007 -2.3643 0.9711
-1.1936 -6.8242 -2.3644 0.9711
-1.1091 -6.8386 -2.3645 0.9711
-0.9397 -6.8643 -2.3646 0.9711
-0.8548 -6.8756 -2.3647 0.9711
-0.8122 -6.8808 -2.3647 0.9711
-0.6845 -6.8951 -2.3648 0.9711
-0.5991 -6.9033 -2.3649 0.9711
-0.5565 -6.9070 -2.3650 0.9711
-0.3427 -6.9216 -2.3652 0.9711
-0.2999 -6.9238 -2.3653 0.9711
-0.2142 -6.9273 -2.3654 0.9711
-0.1286 -6.9297 -2.3655 0.9711
0.0000 -6.9315 -2.3657 0.9711
0.0429 -6.9315 -2.3657 0.9711
0.0858 -6.9313 -2.3658 0.9711
0.1286 -6.9308 -2.3659 0.9711
0.1715 -6.9301 -2.3659 0.9711
0.3000 -6.9264 -2.3661 0.9711
0.4714 -6.9177 -2.3664 0.9711
0.5569 -6.9118 -2.3666 0.9711
0.6424 -6.9049 -2.3668 0.9711
0.6851 -6.9010 -2.3668 0.9711
0.7278 -6.8969 -2.3669 0.9711
0.7705 -6.8925 -2.3670 0.9711
0.8131 -6.8879 -2.3671 0.9711
0.8557 -6.8829 -2.3672 0.9711
0.9833 -6.8667 -2.3675 0.9711
1.0258 -6.8607 -2.3676 0.9711
1.0683 -6.8545 -2.3677 0.9711
1.1107 -6.8481 -2.3677 0.9711
1.1531 -6.8414 -2.3678 0.9711
1.2377 -6.8272 -2.3680 0.9711
1.2800 -6.8197 -2.3681 0.9711
1.3222 -6.8119 -2.3682 0.9711
1.3643 -6.8039 -2.3684 0.9711
1.4064 -6.7956 -2.3685 0.9711
1.4485 -6.7871 -2.3686 0.9711
1.4905 -6.7783 -2.3687 0.9711
1.5744 -6.7600 -2.3689 0.9711
1.6581 -6.7406 -2.3691 0.9711
1.6998 -6.7306 -2.3692 0.9711
1.8246 -6.6989 -2.3696 0.9711
1.8661 -6.6878 -2.3697 0.9711
1.9488 -6.6649 -2.3699 0.9711
2.0313 -6.6409 -2.3702 0.9711
2.0725 -6.6286 -2.3703 0.9711
2.1136 -6.6160 -2.3704 0.9711
2.1545 -6.6032 -2.3705 0.9711
2.2363 -6.5767 -2.3708 0.9711
2.2771 -6.5631 -2.3709 0.9711
2.3177 -6.5493 -2.3711 0.9711
2.3583 -6.5352 -2.3712 0.9711
2.4392 -6.5062 -2.3715 0.9711
2.4795 -6.4914 -2.3716 0.9711
2.5600 -6.4610 -2.3719 0.9711
2.6798 -6.4135 -2.3723 0.9710
2.7196 -6.3972 -2.3724 0.9710
2.7989 -6.3638 -2.3727 0.9710
2.9170 -6.3120 -2.3732 0.9710
2.9561 -6.2942 -2.3733 0.9710
3.0341 -6.2580 -2.3736 0.9710
3.1117 -6.2208 -2.3739 0.9710
3.1503 -6.2018 -2.3741 0.9710
3.2273 -6.1632 -2.3744 0.9710
3.2655 -6.1435 -2.3745 0.9710
3.5672 -5.9777 -2.3758 0.9710
3.6044 -5.9560 -2.3760 0.9710
3.7881 -5.8437 -2.3768 0.9710
3.9684 -5.7259 -2.3777 0.9710
4.0041 -5.7017 -2.3778 0.9710
4.1451 -5.6025 -2.3786 0.9710
4.1800 -5.5772 -2.3787 0.9710
4.2147 -5.5517 -2.3789 0.9710
4.2837 -5.5000 -2.3793 0.9710
4.3180 -5.4738 -2.3795 0.9710
4.3521 -5.4474 -2.3796 0.9710
4.3860 -5.4208 -2.3798 0.9710
4.4198 -5.3940 -2.3800 0.9710
4.4869 -5.3398 -2.3804 0.9710
4.5202 -5.3123 -2.3806 0.9709
4.5533 -5.2847 -2.3808 0.9709
4.6517 -5.2006 -2.3813 0.9709
4.6841 -5.1721 -2.3815 0.9709
4.7164 -5.1435 -2.3817 0.9709
4.7485 -5.1146 -2.3819 0.9709
4.7804 -5.0856 -2.3821 0.9709
4.8122 -5.0563 -2.3823 0.9709
4.9063 -4.9674 -2.3829 0.9709
4.9683 -4.9072 -2.3833 0.9709
5.0294 -4.8462 -2.3837 0.9709
5.1197 -4.7532 -2.3843 0.9709
5.1495 -4.7219 -2.3845 0.9709
5.1790 -4.6903 -2.3847 0.9709
5.2083 -4.6586 -2.3849 0.9709
5.2375 -4.6267 -2.3851 0.9709
5.2953 -4.5624 -2.3855 0.9709
5.3238 -4.5299 -2.3857 0.9709
5.3804 -4.4645 -2.3861 0.9709
5.5183 -4.2979 -2.3872 0.9709
5.5720 -4.2301 -2.3876 0.9709
5.5985 -4.1959 -2.3878 0.9709
5.6249 -4.1616 -2.3880 0.9709
5.6769 -4.0924 -2.3884 0.9709
5.7026 -4.0576 -2.3887 0.9709
5.8280 -3.8811 -2.3897 0.9708
5.8524 -3.8453 -2.3899 0.9708
5.8766 -3.8094 -2.3902 0.9708
5.9243 -3.7371 -2.3906 0.9708
5.9479 -3.7007 -2.3908 0.9708
5.9712 -3.6642 -2.3910 0.9708
5.9942 -3.6275 -2.3913 0.9708
6.0622 -3.5167 -2.3919 0.9708
6.1063 -3.4421 -2.3924 0.9708
6.1281 -3.4046 -2.3926 0.9708
6.1496 -3.3669 -2.3928 0.9708
6.1709 -3.3291 -2.3930 0.9708
6.1919 -3.2912 -2.3932 0.9708
6.2333 -3.2150 -2.3937 0.9708
6.2738 -3.1382 -2.3941 0.9708
6.2936 -3.0996 -2.3944 0.9708
6.3133 -3.0609 -2.3946 0.9708
6.3518 -2.9832 -2.3950 0.9708
6.3708 -2.9441 -2.3953 0.9708
6.3895 -2.9049 -2.3955 0.9708
6.4079 -2.8657 -2.3957 0.9708
6.4261 -2.8262 -2.3959 0.9708
6.4441 -2.7867 -2.3962 0.9708
6.4618 -2.7471 -2.3964 0.9708
6.4793 -2.7073 -2.3966 0.9708
6.5467 -2.5472 -2.3975 0.9707
6.5630 -2.5069 -2.3977 0.9707
6.5790 -2.4665 -2.3980 0.9707
6.6552 -2.2629 -2.3991 0.9707
6.6840 -2.1809 -2.3996 0.9707
6.6980 -2.1397 -2.3998 0.9707
6.7117 -2.0984 -2.4000 0.9707
6.7252 -2.0571 -2.4002 0.9707
6.7384 -2.0157 -2.4005 0.9707
6.7514 -1.9741 -2.4007 0.9707
6.8008 -1.8072 -2.4016 0.9707
6.8239 -1.7233 -2.4021 0.9707
6.8459 -1.6391 -2.4025 0.9707
6.8772 -1.5122 -2.4032 0.9707
6.8871 -1.4698 -2.4034 0.9707
6.8967 -1.4273 -2.4037 0.9707
6.9060 -1.3848 -2.4039 0.9707
6.9325 -1.2568 -2.4046 0.9707
6.9408 -1.2140 -2.4048 0.9707
6.9850 -0.9562 -2.4062 0.9706
6.9914 -0.9131 -2.4064 0.9706
7.0035 -0.8267 -2.4068 0.9706
7.0091 -0.7835 -2.4071 0.9706
7.0196 -0.6969 -2.4075 0.9706
7.0290 -0.6101 -2.4080 0.9706
7.0333 -0.5667 -2.4082 0.9706
7.0373 -0.5232 -2.4084 0.9706
7.0478 -0.3927 -2.4091 0.9706
7.0598 -0.1747 -2.4102 0.9706
7.0614 -0.1310 -2.4104 0.9706
7.0638 -0.0437 -2.4109 0.9706
7.0651 0.0437 -2.4113 0.9706
7.0653 0.0874 -2.4115 0.9706
7.0653 0.1311 -2.4117 0.9706
7.0635 0.2622 -2.4124 0.9706
7.0593 0.3933 -2.4130 0.9706
7.0574 0.4370 -2.4133 0.9706
7.0552 0.4807 -2.4135 0.9706
7.0527 0.5244 -2.4137 0.9706
7.0500 0.5680 -2.4139 0.9705
7.0470 0.6117 -2.4141 0.9705
7.0437 0.6553 -2.4143 0.9705
7.0278 0.8296 -2.4152 0.9705
7.0075 1.0036 -2.4160 0.9705
7.0019 1.0469 -2.4162 0.9705
6.9958 1.0903 -2.4165 0.9705
6.9896 1.1336 -2.4167 0.9705
6.9830 1.1769 -2.4169 0.9705
6.9762 1.2202 -2.4171 0.9705
6.9692 1.2634 -2.4173 0.9705
6.9381 1.4359 -2.4181 0.9705
6.9297 1.4789 -2.4183 0.9705
6.9209 1.5219 -2.4185 0.9705
6.9120 1.5648 -2.4187 0.9705
6.9027 1.6076 -2.4189 0.9705
6.8835 1.6932 -2.4193 0.9705
6.8734 1.7358 -2.4195 0.9705
6.8631 1.7784 -2.4197 0.9705
6.8193 1.9483 -2.4205 0.9705
6.7712 2.1171 -2.4213 0.9705
6.7051 2.3263 -2.4222 0.9704
6.6476 2.4922 -2.4230 0.9704
6.6017 2.6157 -2.4235 0.9704
6.5859 2.6567 -2.4237 0.9704
6.5699 2.6975 -2.4239 0.9704
6.5370 2.7790 -2.4242 0.9704
6.5201 2.8196 -2.4244 0.9704
6.4681 2.9407 -2.4250 0.9704
6.4503 2.9809 -2.4251 0.9704
6.4322 3.0209 -2.4253 0.9704
6.4138 3.0608 -2.4255 0.9704
6.3952 3.1007 -2.4257 0.9704
6.3573 3.1800 -2.4260 0.9704
6.3379 3.2195 -2.4262 0.9704
6.2985 3.2981 -2.4265 0.9704
6.2784 3.3372 -2.4267 0.9704
6.2581 3.3762 -2.4268 0.9704
6.2167 3.4538 -2.4272 0.9704
6.1956 3.4924 -2.4273 0.9704
6.1309 3.6075 -2.4278 0.9704
6.1090 3.6455 -2.4280 0.9704
6.0867 3.6835 -2.4281 0.9704
6.0642 3.7213 -2.4283 0.9704
5.9952 3.8339 -2.4287 0.9704
5.9718 3.8711 -2.4289 0.9704
5.9242 3.9452 -2.4292 0.9704
5.9000 3.9820 -2.4293 0.9704
5.8262 4.0915 -2.4298 0.9704
5.7246 4.2353 -2.4303 0.9704
5.6724 4.3063 -2.4306 0.9703
5.5924 4.4116 -2.4310 0.9703
5.5106 4.5153 -2.4314 0.9703
5.4828 4.5495 -2.4316 0.9703
5.3983 4.6512 -2.4319 0.9703
5.3697 4.6847 -2.4321 0.9703
5.2827 4.7843 -2.4324 0.9703
5.2533 4.8171 -2.4326 0.9703
5.2237 4.8497 -2.4327 0.9703
5.1031 4.9784 -2.4331 0.9703
5.0416 5.0416 -2.4334 0.9703
4.9478 5.1349 -2.4337 0.9703
4.9162 5.1656 -2.4338 0.9703
4.8844 5.1962 -2.4339 0.9703
4.3339 5.2230 -2.3163 0.9717
4.2100 5.2033 -2.2843 0.9721
4.1063 5.2722 -2.2807 0.9722
4.0082 5.3480 -2.2810 0.9721
3.9752 5.3728 -2.2810 0.9721
3.9420 5.3975 -2.2811 0.9721
3.8415 5.4702 -2.2813 0.9721
3.7055 5.5642 -2.2816 0.9721
3.6711 5.5872 -2.2817 0.9721
3.6366 5.6099 -2.2817 0.9721
3.6019 5.6325 -2.2818 0.9721
3.5671 5.6548 -2.2818 0.9721
3.5321 5.6769 -2.2819 0.9721
3.4618 5.7204 -2.2820 0.9721
3.4265 5.7418 -2.2821 0.9721
3.3909 5.7631 -2.2821 0.9721
3.3196 5.8048 -2.2822 0.9721
3.2837 5.8254 -2.2823 0.9721
3.1389 5.9053 -2.2825 0.9721
2.9179 6.0183 -2.2827 0.9721
2.8434 6.0541 -2.2828 0.9721
2.8059 6.0716 -2.2828 0.9721
2.7683 6.0890 -2.2828 0.9721
2.7307 6.1061 -2.2828 0.9721
2.6929 6.1229 -2.2829 0.9721
2.5789 6.1720 -2.2830 0.9721
2.4256 6.2341 -2.2830 0.9721
2.3870 6.2491 -2.2831 0.9721
2.3095 6.2782 -2.2831 0.9721
2.2707 6.2924 -2.2831 0.9721
2.2317 6.3063 -2.2831 0.9721
2.1927 6.3200 -2.2831 0.9721
2.1536 6.3335 -2.2831 0.9721
2.1144 6.3467 -2.2831 0.9721
2.0751 6.3597 -2.2831 0.9721
2.0357 6.3724 -2.2831 0.9721
1.9172 6.4091 -2.2832 0.9721
1.7580 6.4545 -2.2831 0.9721
1.6380 6.4860 -2.2831 0.9721
1.4771 6.5244 -2.2831 0.9721
1.4367 6.5333 -2.2831 0.9721
1.3152 6.5587 -2.2830 0.9721
1.2746 6.5666 -2.2830 0.9721
1.2339 6.5743 -2.2830 0.9721
1.1525 6.5890 -2.2829 0.9721
1.0300 6.6090 -2.2828 0.9721
0.9482 6.6210 -2.2828 0.9721
0.8252 6.6372 -2.2827 0.9721
0.7018 6.6510 -2.2825 0.9721
0.6607 6.6551 -2.2825 0.9721
0.5783 6.6625 -2.2824 0.9721
0.5371 6.6658 -2.2824 0.9721
0.4546 6.6716 -2.2823 0.9721
0.3720 6.6765 -2.2822 0.9721
0.2481 6.6818 -2.2820 0.9721
0.2067 6.6830 -2.2820 0.9721
0.1654 6.6840 -2.2819 0.9721
0.0827 6.6852 -2.2818 0.9721
0.0414 6.6854 -2.2817 0.9721
-0.0413 6.6851 -2.2816 0.9721
-0.1240 6.6837 -2.2815 0.9721
-0.1653 6.6826 -2.2814 0.9721
-0.2067 6.6812 -2.2814 0.9721
-0.2479 6.6796 -2.2813 0.9721
-0.3305 6.6756 -2.2811 0.9721
-0.3718 6.6732 -2.2811 0.9721
-0.4131 6.6706 -2.2810 0.9721
-0.4543 6.6677 -2.2809 0.9721
-0.4954 6.6645 -2.2808 0.9721
-0.5778 6.6574 -2.2807 0.9722
-0.6189 6.6534 -2.2806 0.9722
-0.7011 6.6447 -2.2804 0.9722
-1.0286 6.5999 -2.2797 0.9722
-1.0693 6.5931 -2.2796 0.9722
-1.1724 6.4671 -2.2432 0.9726
-1.1638 5.9958 -2.0845 0.9745
-1.3050 6.3053 -2.1975 0.9732
-1.3438 6.2964 -2.1973 0.9732
-1.4188 6.2673 -2.1931 0.9732
-1.5024 6.2750 -2.2021 0.9731
-1.5438 6.2763 -2.2059 0.9731
-1.5825 6.2661 -2.2057 0.9731
-1.5698 6.0581 -2.1359 0.9739
-1.6082 6.0519 -2.1372 0.9739
-1.7336 6.0679 -2.1538 0.9737
-1.9791 6.3299 -2.2635 0.9724
-2.0150 6.3075 -2.2599 0.9724
-2.0507 6.2851 -2.2564 0.9724
-2.0865 6.2630 -2.2530 0.9725
-2.1474 6.3153 -2.2766 0.9722
-2.1863 6.3016 -2.2765 0.9722
-2.2194 6.2714 -2.2705 0.9723
-2.2638 6.2734 -2.2762 0.9722
-2.3410 6.2442 -2.2759 0.9722
-2.6832 6.1010 -2.2747 0.9722
-2.7208 6.0839 -2.2746 0.9722
-2.7954 6.0490 -2.2743 0.9722
-2.8697 6.0132 -2.2740 0.9722
-2.9802 5.9577 -2.2735 0.9722
-3.0167 5.9388 -2.2734 0.9722
-3.0896 5.9003 -2.2731 0.9722
-3.1978 5.8407 -2.2726 0.9722
-3.2336 5.8205 -2.2725 0.9723
-3.2693 5.8000 -2.2723 0.9723
-3.3757 5.7371 -2.2718 0.9723
-3.4108 5.7157 -2.2717 0.9723
-3.4459 5.6941 -2.2715 0.9723
-3.5156 5.6502 -2.2712 0.9723
-3.5501 5.6280 -2.2710 0.9723
-3.5847 5.6055 -2.2709 0.9723
-3.6190 5.5828 -2.2707 0.9723
-3.6872 5.5368 -2.2704 0.9723
-3.8219 5.4423 -2.2697 0.9723
-3.8883 5.3938 -2.2693 0.9723
-3.9868 5.3195 -2.2688 0.9723
-4.0517 5.2690 -2.2685 0.9723
-4.1159 5.2176 -2.2681 0.9723
-4.1478 5.1917 -2.2679 0.9723
-4.1795 5.1655 -2.2678 0.9723
-4.2735 5.0859 -2.2672 0.9723
-4.3354 5.0319 -2.2669 0.9723
-4.3661 5.0045 -2.2667 0.9723
-4.4354 4.9588 -2.2706 0.9723
-4.4571 4.9215 -2.2661 0.9723
-4.6437 4.8193 -2.2841 0.9721
-5.0312 4.8479 -2.3846 0.9709
-5.0991 4.8529 -2.4025 0.9707
-5.2481 4.7529 -2.4165 0.9705
-5.3055 4.6868 -2.4161 0.9705
-5.3621 4.6200 -2.4156 0.9705
-5.4729 4.4844 -2.4148 0.9705
-5.5000 4.4501 -2.4146 0.9705
-5.5536 4.3809 -2.4142 0.9705
-5.5801 4.3461 -2.4139 0.9705
-5.6324 4.2760 -2.4135 0.9706
-5.7344 4.1339 -2.4126 0.9706
-5.7841 4.0619 -2.4122 0.9706
-5.8085 4.0257 -2.4120 0.9706
-5.8328 3.9893 -2.4118 0.9706
-5.8568 3.9528 -2.4116 0.9706
-5.8806 3.9162 -2.4113 0.9706
-5.9042 3.8794 -2.4111 0.9706
-5.9275 3.8424 -2.4109 0.9706
-5.9506 3.8054 -2.4107 0.9706
-5.9735 3.7681 -2.4104 0.9706
-5.9961 3.7308 -2.4102 0.9706
-6.0185 3.6933 -2.4100 0.9706
-6.0843 3.5800 -2.4093 0.9706
-6.1480 3.4656 -2.4087 0.9706
-6.1892 3.3886 -2.4082 0.9706
-6.2295 3.3112 -2.4078 0.9706
-6.2688 3.2333 -2.4073 0.9706
-6.3071 3.1549 -2.4069 0.9706
-6.3259 3.1156 -2.4066 0.9706
-6.3445 3.0761 -2.4064 0.9706
-6.3628 3.0365 -2.4062 0.9706
-6.4162 2.9171 -2.4055 0.9706
-6.4335 2.8771 -2.4053 0.9707
-6.4506 2.8370 -2.4051 0.9707
-6.4674 2.7968 -2.4048 0.9707
-6.4839 2.7565 -2.4046 0.9707
-6.5002 2.7161 -2.4044 0.9707
-6.5780 2.5126 -2.4032 0.9707
-6.5928 2.4717 -2.4030 0.9707
-6.6073 2.4306 -2.4028 0.9707
-6.6216 2.3895 -2.4026 0.9707
-6.6356 2.3483 -2.4023 0.9707
-6.6494 2.3070 -2.4021 0.9707
-6.6629 2.2656 -2.4019 0.9707
-6.6761 2.2241 -2.4016 0.9707
-6.7143 2.0993 -2.4010 0.9707
-6.7266 2.0575 -2.4007 0.9707
-6.7385 2.0157 -2.4005 0.9707
-6.7728 1.8898 -2.3998 0.9707
-6.7837 1.8477 -2.3996 0.9707
-6.7944 1.8055 -2.3994 0.9707
-6.8048 1.7633 -2.3991 0.9707
-6.8149 1.7210 -2.3989 0.9707
-6.8247 1.6787 -2.3987 0.9707
-6.8344 1.6363 -2.3984 0.9707
-6.8528 1.5514 -2.3980 0.9707
-6.8702 1.4662 -2.3975 0.9707
-6.8784 1.4236 -2.3973 0.9707
-6.8864 1.3809 -2.3971 0.9708
-6.8942 1.3381 -2.3969 0.9708
-6.9089 1.2525 -2.3964 0.9708
-6.9226 1.1668 -2.3960 0.9708
-6.9290 1.1238 -2.3957 0.9708
-6.9352 1.0808 -2.3955 0.9708
-6.9411 1.0379 -2.3953 0.9708
-6.9467 0.9948 -2.3951 0.9708
-6.9521 0.9517 -2.3948 0.9708
-6.9620 0.8655 -2.3944 0.9708
-6.9666 0.8224 -2.3942 0.9708
-6.9749 0.7360 -2.3937 0.9708
-6.9787 0.6928 -2.3935 0.9708
-6.9911 0.5198 -2.3926 0.9708
-6.9976 0.3899 -2.3919 0.9708
-6.9992 0.3466 -2.3917 0.9708
-7.0006 0.3032 -2.3915 0.9708
-7.0031 0.1733 -2.3908 0.9708
-7.0034 0.0866 -2.3904 0.9708
-7.0032 0.0433 -2.3902 0.9708
-6.8370 -0.0000 -2.3902 0.9714
-6.8352 -0.0846 -2.3898 0.9714
-6.8340 -0.1268 -2.3896 0.9715
-6.8286 -0.2535 -2.3890 0.9715
-6.8263 -0.2957 -2.3888 0.9715
-6.8179 -0.4222 -2.3881 0.9715
-6.8146 -0.4643 -2.3879 0.9715
-6.8030 -0.5905 -2.3873 0.9715
-6.7940 -0.6744 -2.3869 0.9715
-6.7787 -0.8002 -2.3863 0.9715
-6.7545 -0.9673 -2.3855 0.9715
-6.7478 -1.0089 -2.3853 0.9715
-6.7409 -1.0506 -2.3851 0.9715
-6.7337 -1.0921 -2.3849 0.9715
-6.7262 -1.1337 -2.3847 0.9715
-6.7186 -1.1751 -2.3845 0.9715
-6.7024 -1.2579 -2.3841 0.9715
-6.6940 -1.2993 -2.3839 0.9715
-6.6763 -1.3817 -2.3835 0.9715
-6.6671 -1.4229 -2.3833 0.9715
-6.6479 -1.5050 -2.3829 0.9715
-6.6379 -1.5459 -2.3828 0.9715
-6.6277 -1.5869 -2.3826 0.9715
-6.5844 -1.7497 -2.3818 0.9715
-6.5729 -1.7903 -2.3816 0.9715
-6.5492 -1.8712 -2.3813 0.9716
-6.5370 -1.9115 -2.3811 0.9716
-6.5119 -1.9918 -2.3807 0.9716
-6.4990 -2.0319 -2.3805 0.9716
-6.4858 -2.0719 -2.3803 0.9716
-6.4448 -2.1914 -2.3798 0.9716
-6.4162 -2.2706 -2.3795 0.9716
-6.4016 -2.3101 -2.3793 0.9716
-6.3716 -2.3887 -2.3789 0.9716
-6.3562 -2.4279 -2.3788 0.9716
-6.3406 -2.4670 -2.3786 0.9716
-6.3087 -2.5449 -2.3782 0.9716
-6.2591 -2.6609 -2.3777 0.9716
-6.2421 -2.6994 -2.3776 0.9716
-6.2248 -2.7377 -2.3774 0.9716
-6.2073 -2.7759 -2.3772 0.9716
-6.1717 -2.8521 -2.3769 0.9716
-6.0591 -3.0779 -2.3759 0.9716
-6.0396 -3.1151 -2.3758 0.9716
-5.9998 -3.1891 -2.3755 0.9716
-5.9175 -3.3357 -2.3748 0.9716
-5.8098 -3.5159 -2.3741 0.9716
-5.7197 -3.6577 -2.3735 0.9716
-5.6733 -3.7277 -2.3732 0.9716
-5.6498 -3.7625 -2.3731 0.9716
-5.6261 -3.7971 -2.3730 0.9716
