ply
format ascii 1.0
element vertex 1597
property float32 x
property float32 y
property float32 z
property float32 I
end_header
-2.6775 -5.0373 -2.3831 0.9756
-2.6152 -5.0706 -2.3834 0.9756
-2.5526 -5.1031 -2.3837 0.9756
-2.4896 -5.1349 -2.3840 0.9756
-2.4579 -5.1505 -2.3841 0.9756
-2.4262 -5.1659 -2.3842 0.9756
-2.3303 -5.2109 -2.3847 0.9756
-2.2659 -5.2400 -2.3849 0.9756
-2.2337 -5.2542 -2.3851 0.9756
-2.1688 -5.2821 -2.3854 0.9756
-2.1035 -5.3091 -2.3857 0.9755
-2.0379 -5.3354 -2.3859 0.9755
-2.0050 -5.3482 -2.3861 0.9755
-1.8393 -5.4093 -2.3868 0.9755
-1.7390 -5.4435 -2.3873 0.9755
-1.7053 -5.4545 -2.3874 0.9755
-1.6717 -5.4653 -2.3876 0.9755
-1.6380 -5.4759 -2.3877 0.9755
-1.5364 -5.5064 -2.3882 0.9755
-1.4684 -5.5257 -2.3885 0.9755
-1.4001 -5.5442 -2.3888 0.9755
-1.3659 -5.5531 -2.3890 0.9755
-1.2973 -5.5703 -2.3893 0.9755
-1.2629 -5.5786 -2.3895 0.9755
-1.1939 -5.5945 -2.3898 0.9755
-1.0902 -5.6168 -2.3903 0.9755
-1.0555 -5.6238 -2.3904 0.9755
-1.0207 -5.6306 -2.3906 0.9755
-0.9860 -5.6372 -2.3907 0.9755
-0.9511 -5.6436 -2.3909 0.9755
-0.9163 -5.6497 -2.3911 0.9755
-0.8115 -5.6669 -2.3915 0.9755
-0.7765 -5.6722 -2.3917 0.9755
-0.6712 -5.6868 -2.3922 0.9755
-0.5657 -5.6995 -2.3927 0.9755
-0.4600 -5.7102 -2.3932 0.9755
-0.4248 -5.7133 -2.3934 0.9755
-0.3894 -5.7162 -2.3935 0.9755
-0.3187 -5.7214 -2.3939 0.9755
-0.2126 -5.7276 -2.3944 0.9755
-0.1772 -5.7292 -2.3945 0.9755
-0.1063 -5.7317 -2.3949 0.9755
-0.0709 -5.7327 -2.3951 0.9755
-0.0354 -5.7334 -2.3952 0.9755
0.0001 -5.7339 -2.3954 0.9754
0.0355 -5.7343 -2.3956 0.9754
0.0710 -5.7343 -2.3957 0.9754
0.1419 -5.7338 -2.3961 0.9754
0.1774 -5.7333 -2.3962 0.9754
0.2129 -5.7325 -2.3964 0.9754
0.2483 -5.7315 -2.3966 0.9754
0.2838 -5.7302 -2.3968 0.9754
0.3192 -5.7287 -2.3969 0.9754
0.3547 -5.7271 -2.3971 0.9754
0.3901 -5.7252 -2.3973 0.9754
0.4256 -5.7231 -2.3974 0.9754
0.4610 -5.7208 -2.3976 0.9754
0.4963 -5.7182 -2.3978 0.9754
0.6025 -5.7093 -2.3983 0.9754
0.7790 -5.6900 -2.3992 0.9754
0.8142 -5.6854 -2.3994 0.9754
0.8494 -5.6807 -2.3995 0.9754
0.9198 -5.6706 -2.3999 0.9754
0.9899 -5.6596 -2.4002 0.9754
1.0250 -5.6538 -2.4004 0.9754
1.0600 -5.6477 -2.4006 0.9754
1.1300 -5.6350 -2.4009 0.9754
1.1997 -5.6214 -2.4013 0.9754
1.2346 -5.6143 -2.4014 0.9754
1.2694 -5.6070 -2.4016 0.9754
1.3735 -5.5837 -2.4021 0.9754
1.4426 -5.5671 -2.4025 0.9754
1.4771 -5.5584 -2.4027 0.9754
1.5804 -5.5313 -2.4032 0.9754
1.6146 -5.5218 -2.4034 0.9754
1.6489 -5.5121 -2.4035 0.9754
1.6831 -5.5022 -2.4037 0.9754
1.7171 -5.4921 -2.4039 0.9754
1.7512 -5.4818 -2.4041 0.9754
1.7852 -5.4712 -2.4042 0.9754
1.8530 -5.4495 -2.4046 0.9754
1.9542 -5.4154 -2.4051 0.9754
1.9878 -5.4036 -2.4053 0.9753
2.0213 -5.3915 -2.4054 0.9753
2.0548 -5.3793 -2.4056 0.9753
2.0882 -5.3669 -2.4058 0.9753
2.1215 -5.3543 -2.4060 0.9753
2.1879 -5.3284 -2.4063 0.9753
2.2539 -5.3017 -2.4066 0.9753
2.3196 -5.2741 -2.4070 0.9753
2.3524 -5.2601 -2.4071 0.9753
2.4176 -5.2313 -2.4075 0.9753
2.4501 -5.2166 -2.4077 0.9753
2.4824 -5.2017 -2.4078 0.9753
2.5470 -5.1714 -2.4082 0.9753
2.5791 -5.1559 -2.4083 0.9753
2.6430 -5.1243 -2.4087 0.9753
2.6748 -5.1082 -2.4088 0.9753
2.7382 -5.0754 -2.4092 0.9753
2.8012 -5.0419 -2.4095 0.9753
2.9567 -4.9546 -2.4103 0.9753
2.9875 -4.9366 -2.4105 0.9753
3.0182 -4.9183 -2.4107 0.9753
3.0487 -4.8999 -2.4108 0.9753
3.1095 -4.8625 -2.4112 0.9753
3.1698 -4.8243 -2.4115 0.9753
3.3186 -4.7255 -2.4123 0.9753
3.4064 -4.6641 -2.4128 0.9753
3.4354 -4.6432 -2.4129 0.9753
3.4643 -4.6222 -2.4131 0.9753
3.5501 -4.5580 -2.4136 0.9753
3.5784 -4.5363 -2.4137 0.9753
3.6347 -4.4923 -2.4140 0.9753
3.6627 -4.4700 -2.4142 0.9753
3.7182 -4.4249 -2.4145 0.9753
3.7457 -4.4021 -2.4146 0.9753
3.7731 -4.3792 -2.4148 0.9753
3.9079 -4.2618 -2.4156 0.9752
3.9345 -4.2378 -2.4157 0.9752
3.9608 -4.2136 -2.4159 0.9752
3.9870 -4.1893 -2.4160 0.9752
4.0131 -4.1648 -2.4161 0.9752
4.0390 -4.1402 -2.4163 0.9752
4.0648 -4.1154 -2.4164 0.9752
4.1412 -4.0400 -2.4169 0.9752
4.1664 -4.0145 -2.4170 0.9752
4.1913 -3.9889 -2.4172 0.9752
4.2162 -3.9632 -2.4173 0.9752
4.2654 -3.9112 -2.4176 0.9752
4.2897 -3.8849 -2.4177 0.9752
4.3856 -3.7785 -2.4183 0.9752
4.4325 -3.7244 -2.4186 0.9752
4.5242 -3.6145 -2.4191 0.9752
4.5913 -3.5305 -2.4195 0.9752
4.6132 -3.5022 -2.4196 0.9752
4.6351 -3.4738 -2.4198 0.9752
4.6567 -3.4453 -2.4199 0.9752
4.6782 -3.4166 -2.4200 0.9752
4.7415 -3.3298 -2.4204 0.9752
4.8234 -3.2121 -2.4209 0.9752
4.9407 -3.0319 -2.4217 0.9752
4.9596 -3.0014 -2.4218 0.9752
4.9784 -2.9708 -2.4219 0.9752
4.9969 -2.9401 -2.4220 0.9752
5.0334 -2.8784 -2.4222 0.9752
5.0513 -2.8473 -2.4224 0.9752
5.0691 -2.8162 -2.4225 0.9752
5.1040 -2.7535 -2.4227 0.9752
5.1381 -2.6904 -2.4229 0.9752
5.1549 -2.6587 -2.4230 0.9752
5.1715 -2.6269 -2.4231 0.9752
5.2040 -2.5630 -2.4234 0.9752
5.2200 -2.5308 -2.4235 0.9752
5.2358 -2.4987 -2.4236 0.9752
5.2513 -2.4663 -2.4237 0.9752
5.2819 -2.4014 -2.4239 0.9752
5.2969 -2.3688 -2.4240 0.9752
5.3262 -2.3033 -2.4242 0.9752
5.3406 -2.2704 -2.4243 0.9752
5.3687 -2.2043 -2.4245 0.9752
5.3824 -2.1712 -2.4246 0.9752
5.3959 -2.1379 -2.4247 0.9752
5.4480 -2.0041 -2.4250 0.9751
5.4728 -1.9367 -2.4252 0.9751
5.4967 -1.8690 -2.4254 0.9751
5.5084 -1.8351 -2.4255 0.9751
5.5198 -1.8011 -2.4256 0.9751
5.5311 -1.7670 -2.4257 0.9751
5.5529 -1.6985 -2.4258 0.9751
5.5738 -1.6298 -2.4260 0.9751
5.5840 -1.5954 -2.4261 0.9751
5.5939 -1.5608 -2.4262 0.9751
5.6037 -1.5263 -2.4262 0.9751
5.6225 -1.4570 -2.4264 0.9751
5.6316 -1.4222 -2.4265 0.9751
5.6490 -1.3525 -2.4266 0.9751
5.6575 -1.3176 -2.4267 0.9751
5.6815 -1.2125 -2.4269 0.9751
5.7170 -1.0364 -2.4272 0.9751
5.7297 -0.9657 -2.4274 0.9751
5.7575 -0.7882 -2.4276 0.9751
5.7757 -0.6456 -2.4279 0.9751
5.7835 -0.5742 -2.4280 0.9751
5.7871 -0.5384 -2.4280 0.9751
5.7904 -0.5026 -2.4281 0.9751
5.7936 -0.4668 -2.4281 0.9751
5.7964 -0.4309 -2.4282 0.9751
5.8016 -0.3592 -2.4283 0.9751
5.8038 -0.3234 -2.4283 0.9751
5.8057 -0.2874 -2.4283 0.9751
5.8091 -0.2157 -2.4284 0.9751
5.8104 -0.1798 -2.4285 0.9751
5.8115 -0.1438 -2.4285 0.9751
5.8123 -0.1078 -2.4285 0.9751
5.8130 -0.0719 -2.4286 0.9751
5.8134 -0.0360 -2.4286 0.9751
5.8136 0.0360 -2.4287 0.9751
5.8128 0.1079 -2.4287 0.9751
5.8086 0.2516 -2.4289 0.9751
5.8070 0.2875 -2.4289 0.9751
5.8052 0.3234 -2.4289 0.9751
5.7983 0.4311 -2.4290 0.9751
5.7927 0.5028 -2.4290 0.9751
5.7861 0.5744 -2.4290 0.9751
5.7786 0.6459 -2.4291 0.9751
5.7703 0.7174 -2.4291 0.9751
5.7610 0.7887 -2.4291 0.9751
5.7560 0.8243 -2.4291 0.9751
5.7508 0.8599 -2.4291 0.9751
5.7398 0.9309 -2.4291 0.9751
5.7339 0.9664 -2.4291 0.9751
5.7279 1.0019 -2.4292 0.9751
5.7083 1.1080 -2.4292 0.9751
5.7013 1.1432 -2.4292 0.9751
5.6867 1.2137 -2.4291 0.9751
5.6549 1.3539 -2.4291 0.9751
5.6196 1.4933 -2.4291 0.9751
5.6102 1.5281 -2.4291 0.9751
5.6006 1.5627 -2.4291 0.9751
5.5909 1.5973 -2.4290 0.9751
5.5495 1.7350 -2.4290 0.9751
5.5275 1.8035 -2.4289 0.9751
5.5046 1.8717 -2.4289 0.9751
5.4929 1.9057 -2.4289 0.9751
5.4564 2.0072 -2.4288 0.9751
5.4048 2.1415 -2.4286 0.9751
5.3639 2.2413 -2.4285 0.9751
5.3499 2.2744 -2.4285 0.9751
5.3212 2.3403 -2.4284 0.9751
5.3065 2.3731 -2.4284 0.9751
5.2916 2.4058 -2.4283 0.9751
5.2765 2.4385 -2.4283 0.9751
5.1819 2.6322 -2.4280 0.9751
5.1487 2.6960 -2.4279 0.9751
5.1148 2.7593 -2.4278 0.9751
5.0975 2.7909 -2.4278 0.9751
5.0624 2.8536 -2.4277 0.9751
5.0264 2.9158 -2.4275 0.9751
5.0082 2.9468 -2.4275 0.9751
4.9897 2.9776 -2.4274 0.9751
4.9711 3.0083 -2.4274 0.9751
4.9140 3.0998 -2.4272 0.9751
4.8946 3.1300 -2.4271 0.9751
4.8750 3.1602 -2.4270 0.9751
4.8353 3.2200 -2.4269 0.9751
4.7949 3.2794 -2.4268 0.9751
4.7536 3.3383 -2.4266 0.9751
4.7328 3.3675 -2.4265 0.9751
4.6690 3.4544 -2.4263 0.9751
4.6257 3.5117 -2.4262 0.9751
4.5816 3.5683 -2.4260 0.9751
4.5141 3.6524 -2.4257 0.9751
4.4451 3.7351 -2.4255 0.9751
4.4218 3.7624 -2.4254 0.9751
4.3508 3.8433 -2.4251 0.9751
4.3025 3.8965 -2.4250 0.9752
4.2537 3.9492 -2.4248 0.9752
4.1541 4.0525 -2.4244 0.9752
4.0777 4.1284 -2.4241 0.9752
3.9736 4.2273 -2.4237 0.9752
3.9472 4.2516 -2.4236 0.9752
3.9207 4.2757 -2.4235 0.9752
3.8940 4.2997 -2.4234 0.9752
3.7858 4.3939 -2.4229 0.9752
3.7308 4.4400 -2.4227 0.9752
3.7031 4.4628 -2.4226 0.9752
3.6753 4.4854 -2.4225 0.9752
3.6473 4.5078 -2.4224 0.9752
3.5589 4.5693 -2.4195 0.9752
3.5142 4.5700 -2.4083 0.9753
3.4700 4.5708 -2.3974 0.9754
3.4263 4.5716 -2.3867 0.9755
3.2973 4.5740 -2.3555 0.9759
3.2132 4.5754 -2.3357 0.9761
3.1304 4.5768 -2.3164 0.9762
3.0900 4.5783 -2.3075 0.9763
3.0502 4.5802 -2.2989 0.9764
2.9719 4.5846 -2.2824 0.9766
2.8373 4.6235 -2.2662 0.9768
2.8085 4.6407 -2.2660 0.9768
2.6922 4.7077 -2.2656 0.9768
2.6040 4.7561 -2.2652 0.9768
2.5744 4.7718 -2.2650 0.9768
2.5447 4.7874 -2.2649 0.9768
2.2427 4.9326 -2.2636 0.9768
2.2120 4.9461 -2.2635 0.9768
2.1812 4.9594 -2.2633 0.9768
2.1195 4.9854 -2.2630 0.9768
1.9637 5.0469 -2.2624 0.9768
1.9323 5.0587 -2.2622 0.9768
1.8694 5.0816 -2.2619 0.9768
1.8378 5.0927 -2.2618 0.9768
1.8062 5.1037 -2.2617 0.9768
1.7109 5.1353 -2.2612 0.9768
1.6470 5.1554 -2.2609 0.9768
1.5508 5.1841 -2.2605 0.9768
1.4540 5.2109 -2.2601 0.9768
1.4217 5.2195 -2.2599 0.9768
1.3893 5.2279 -2.2598 0.9768
1.3568 5.2360 -2.2596 0.9768
1.2918 5.2517 -2.2593 0.9768
1.2592 5.2592 -2.2592 0.9768
1.1939 5.2737 -2.2589 0.9768
1.1612 5.2806 -2.2587 0.9768
1.1285 5.2873 -2.2586 0.9768
1.0957 5.2939 -2.2584 0.9768
1.0628 5.3002 -2.2583 0.9768
1.0299 5.3063 -2.2581 0.9768
0.9971 5.3122 -2.2579 0.9768
0.9641 5.3179 -2.2578 0.9768
0.8651 5.3338 -2.2573 0.9768
0.7328 5.3521 -2.2567 0.9769
0.6996 5.3561 -2.2566 0.9769
0.6332 5.3636 -2.2562 0.9769
0.5999 5.3671 -2.2561 0.9769
0.5335 5.3733 -2.2558 0.9769
0.5002 5.3762 -2.2556 0.9769
0.4669 5.3788 -2.2555 0.9769
0.3336 5.3871 -2.2548 0.9769
0.2669 5.3901 -2.2545 0.9769
0.2336 5.3913 -2.2543 0.9769
0.1668 5.3930 -2.2540 0.9769
0.1335 5.3935 -2.2539 0.9769
0.1001 5.3939 -2.2537 0.9769
0.0668 5.3940 -2.2535 0.9769
-0.0333 5.3932 -2.2531 0.9769
-0.1000 5.3916 -2.2527 0.9769
-0.1333 5.3905 -2.2526 0.9769
-0.1667 5.3892 -2.2524 0.9769
-0.2000 5.3876 -2.2523 0.9769
-0.2333 5.3859 -2.2521 0.9769
-0.3331 5.3795 -2.2516 0.9769
-0.3663 5.3769 -2.2514 0.9769
-0.3996 5.3742 -2.2513 0.9769
-0.4327 5.3712 -2.2511 0.9769
-0.4991 5.3647 -2.2508 0.9769
-0.5322 5.3611 -2.2506 0.9769
-0.5653 5.3573 -2.2505 0.9769
-0.6314 5.3491 -2.2501 0.9769
-0.7304 5.3353 -2.2497 0.9769
-0.7962 5.3251 -2.2493 0.9769
-0.8619 5.3141 -2.2490 0.9769
-0.9274 5.3023 -2.2487 0.9769
-0.9601 5.2960 -2.2485 0.9769
-0.9928 5.2896 -2.2484 0.9769
-1.0579 5.2762 -2.2480 0.9769
-1.1230 5.2619 -2.2477 0.9769
-1.1878 5.2469 -2.2474 0.9769
-1.4130 5.1879 -2.2462 0.9770
-1.4450 5.1787 -2.2461 0.9770
-1.4768 5.1693 -2.2459 0.9770
-1.5087 5.1597 -2.2457 0.9770
-1.5404 5.1499 -2.2456 0.9770
-1.6038 5.1297 -2.2453 0.9770
-1.6669 5.1087 -2.2449 0.9770
-1.6983 5.0980 -2.2448 0.9770
-1.7610 5.0759 -2.2445 0.9770
-1.8234 5.0530 -2.2441 0.9770
-1.8545 5.0412 -2.2440 0.9770
-1.8854 5.0293 -2.2438 0.9770
-1.9473 5.0049 -2.2435 0.9770
-2.0393 4.9668 -2.2430 0.9770
-2.0698 4.9538 -2.2429 0.9770
-2.1003 4.9405 -2.2427 0.9770
-2.1306 4.9271 -2.2425 0.9770
-2.1609 4.9135 -2.2424 0.9770
-2.2213 4.8857 -2.2421 0.9770
-2.3110 4.8426 -2.2416 0.9770
-2.3407 4.8279 -2.2414 0.9770
-2.4000 4.7979 -2.2411 0.9770
-2.4294 4.7826 -2.2410 0.9770
-2.4955 4.7658 -2.2474 0.9769
-2.5309 4.7615 -2.2527 0.9769
-2.7996 4.7582 -2.3063 0.9764
-2.8792 4.7577 -2.3232 0.9762
-3.0007 4.7569 -2.3495 0.9759
-3.0417 4.7566 -2.3586 0.9758
-3.0831 4.7562 -2.3679 0.9757
-3.1248 4.7559 -2.3773 0.9756
-3.2000 4.7413 -2.3896 0.9755
-3.3439 4.6386 -2.3888 0.9755
-3.3723 4.6175 -2.3887 0.9755
-3.4287 4.5749 -2.3884 0.9755
-3.4567 4.5533 -2.3882 0.9755
-3.5123 4.5096 -2.3879 0.9755
-3.5399 4.4875 -2.3878 0.9755
-3.5947 4.4428 -2.3875 0.9755
-3.6758 4.3746 -2.3870 0.9755
-3.8080 4.2575 -2.3863 0.9755
-3.8341 4.2336 -2.3861 0.9755
-3.9871 4.0869 -2.3852 0.9756
-4.0120 4.0620 -2.3851 0.9756
-4.0368 4.0369 -2.3850 0.9756
-4.0615 4.0116 -2.3848 0.9756
-4.0859 3.9861 -2.3847 0.9756
-4.1103 3.9606 -2.3845 0.9756
-4.1585 3.9090 -2.3842 0.9756
-4.1823 3.8829 -2.3841 0.9756
-4.2060 3.8568 -2.3840 0.9756
-4.2295 3.8305 -2.3838 0.9756
-4.2529 3.8040 -2.3837 0.9756
-4.2761 3.7774 -2.3836 0.9756
-4.2991 3.7507 -2.3834 0.9756
-4.3896 3.6424 -2.3829 0.9756
-4.4338 3.5874 -2.3826 0.9756
-4.4557 3.5598 -2.3825 0.9756
-4.4989 3.5040 -2.3822 0.9756
-4.5202 3.4759 -2.3821 0.9756
-4.5414 3.4477 -2.3820 0.9756
-4.5832 3.3909 -2.3817 0.9756
-4.6038 3.3623 -2.3816 0.9756
-4.6243 3.3336 -2.3815 0.9756
-4.6446 3.3048 -2.3814 0.9756
-4.7239 3.1882 -2.3809 0.9756
-4.7433 3.1588 -2.3807 0.9756
-4.8190 3.0399 -2.3803 0.9756
-4.8558 2.9798 -2.3800 0.9756
-4.8918 2.9192 -2.3798 0.9756
-4.9095 2.8887 -2.3797 0.9756
-4.9271 2.8582 -2.3796 0.9756
-4.9616 2.7968 -2.3794 0.9756
-5.0283 2.6727 -2.3789 0.9756
-5.0763 2.5786 -2.3786 0.9756
-5.0920 2.5471 -2.3785 0.9756
-5.1377 2.4519 -2.3782 0.9756
-5.1672 2.3879 -2.3780 0.9756
-5.1817 2.3558 -2.3779 0.9756
-5.2099 2.2914 -2.3777 0.9756
-5.2375 2.2266 -2.3775 0.9756
-5.2509 2.1941 -2.3774 0.9756
-5.2642 2.1615 -2.3773 0.9756
-5.2773 2.1288 -2.3772 0.9756
-5.2901 2.0960 -2.3771 0.9756
-5.3028 2.0632 -2.3770 0.9756
-5.3275 1.9973 -2.3769 0.9756
-5.3514 1.9311 -2.3767 0.9756
-5.3630 1.8979 -2.3766 0.9756
-5.3967 1.7979 -2.3763 0.9756
-5.4075 1.7644 -2.3763 0.9756
-5.4286 1.6973 -2.3761 0.9756
-5.4488 1.6299 -2.3759 0.9756
-5.4957 1.4604 -2.3756 0.9757
-5.5045 1.4264 -2.3755 0.9757
-5.5130 1.3923 -2.3754 0.9757
-5.5214 1.3581 -2.3753 0.9757
-5.5526 1.2210 -2.3751 0.9757
-5.5669 1.1521 -2.3749 0.9757
-5.5932 1.0140 -2.3747 0.9757
-5.5992 0.9794 -2.3746 0.9757
-5.6160 0.8752 -2.3744 0.9757
-5.6212 0.8405 -2.3744 0.9757
-5.6261 0.8057 -2.3743 0.9757
-5.6309 0.7708 -2.3743 0.9757
-5.6397 0.7011 -2.3742 0.9757
-5.6438 0.6662 -2.3741 0.9757
-5.6581 0.5264 -2.3739 0.9757
-5.6611 0.4914 -2.3739 0.9757
-5.6640 0.4564 -2.3738 0.9757
-5.6666 0.4213 -2.3738 0.9757
-5.6748 0.2810 -2.3736 0.9757
-5.6763 0.2459 -2.3736 0.9757
-5.6788 0.1756 -2.3735 0.9757
-5.5659 0.0000 -2.3739 0.9761
-5.5657 -0.0344 -2.3738 0.9761
-5.5602 -0.2409 -2.3737 0.9761
-5.5586 -0.2752 -2.3737 0.9761
-5.5567 -0.3096 -2.3736 0.9761
-5.5411 -0.5155 -2.3735 0.9761
-5.5378 -0.5497 -2.3735 0.9761
-5.5342 -0.5840 -2.3735 0.9761
-5.5266 -0.6524 -2.3735 0.9761
-5.5224 -0.6865 -2.3735 0.9761
-5.5134 -0.7548 -2.3734 0.9761
-5.5036 -0.8229 -2.3734 0.9761
-5.4984 -0.8569 -2.3734 0.9761
-5.4874 -0.9249 -2.3734 0.9761
-5.4816 -0.9588 -2.3734 0.9761
-5.4755 -0.9927 -2.3734 0.9761
-5.4493 -1.1278 -2.3734 0.9761
-5.3870 -1.3959 -2.3735 0.9761
-5.3783 -1.4292 -2.3735 0.9761
-5.3693 -1.4625 -2.3735 0.9761
-5.3602 -1.4957 -2.3735 0.9761
-5.3509 -1.5288 -2.3735 0.9761
-5.3414 -1.5619 -2.3735 0.9761
-5.3317 -1.5949 -2.3735 0.9761
-5.3013 -1.6936 -2.3736 0.9761
-5.2907 -1.7263 -2.3736 0.9761
-5.2691 -1.7917 -2.3737 0.9761
-5.2579 -1.8242 -2.3737 0.9761
-5.2351 -1.8892 -2.3737 0.9761
-5.2234 -1.9215 -2.3738 0.9761
-5.1870 -2.0182 -2.3738 0.9761
-5.1745 -2.0502 -2.3739 0.9761
-5.1618 -2.0822 -2.3739 0.9761
-5.1489 -2.1141 -2.3739 0.9761
-5.1225 -2.1777 -2.3740 0.9761
-5.1090 -2.2094 -2.3740 0.9761
-5.0953 -2.2410 -2.3741 0.9761
-5.0814 -2.2725 -2.3741 0.9761
-5.0531 -2.3352 -2.3742 0.9761
-5.0387 -2.3665 -2.3742 0.9761
-4.9789 -2.4906 -2.3744 0.9761
-4.9635 -2.5213 -2.3745 0.9761
-4.9162 -2.6131 -2.3746 0.9761
-4.8837 -2.6739 -2.3747 0.9761
-4.8672 -2.7041 -2.3748 0.9761
-4.8165 -2.7941 -2.3749 0.9761
-4.7993 -2.8239 -2.3750 0.9761
-4.7819 -2.8536 -2.3750 0.9761
-4.7284 -2.9421 -2.3752 0.9761
-4.7102 -2.9713 -2.3753 0.9761
-4.6919 -3.0004 -2.3753 0.9761
-4.6734 -3.0295 -2.3754 0.9761
-4.6547 -3.0584 -2.3755 0.9761
-4.6168 -3.1159 -2.3756 0.9761
-4.5975 -3.1445 -2.3756 0.9761
-4.5586 -3.2013 -2.3758 0.9761
-4.5388 -3.2295 -2.3759 0.9761
-4.5189 -3.2576 -2.3759 0.9761
-4.4988 -3.2856 -2.3760 0.9761
-4.4785 -3.3135 -2.3761 0.9761
-4.4375 -3.3688 -2.3762 0.9761
-4.4167 -3.3963 -2.3763 0.9761
-4.3746 -3.4509 -2.3764 0.9761
-4.3533 -3.4780 -2.3765 0.9761
-4.2885 -3.5585 -2.3768 0.9761
-4.2444 -3.6115 -2.3769 0.9761
-4.2222 -3.6379 -2.3770 0.9761
-4.1998 -3.6640 -2.3771 0.9761
-4.1771 -3.6900 -2.3772 0.9761
-4.1544 -3.7159 -2.3773 0.9761
-4.1315 -3.7417 -2.3773 0.9761
-4.0618 -3.8181 -2.3776 0.9760
-4.0383 -3.8433 -2.3777 0.9760
-4.0146 -3.8684 -2.3778 0.9760
-3.9907 -3.8933 -2.3779 0.9760
-3.9668 -3.9180 -2.3780 0.9760
-3.9426 -3.9426 -2.3781 0.9760
-3.9183 -3.9671 -2.3782 0.9760
-3.8938 -3.9914 -2.3783 0.9760
-3.8693 -4.0156 -2.3784 0.9760
-3.8445 -4.0396 -2.3784 0.9760
-3.7945 -4.0872 -2.3786 0.9760
-3.7693 -4.1107 -2.3787 0.9760
-3.7186 -4.1574 -2.3789 0.9760
-3.6929 -4.1805 -2.3790 0.9760
-3.6671 -4.2034 -2.3792 0.9760
-3.6152 -4.2488 -2.3794 0.9760
-3.5362 -4.3157 -2.3797 0.9760
-3.4829 -4.3596 -2.3799 0.9760
-3.4560 -4.3812 -2.3800 0.9760
-3.4290 -4.4027 -2.3801 0.9760
-3.4019 -4.4240 -2.3802 0.9760
-3.3746 -4.4452 -2.3803 0.9760
-3.3472 -4.4662 -2.3804 0.9760
-3.2364 -4.5485 -2.3809 0.9760
-3.1801 -4.5886 -2.3811 0.9760
-3.1235 -4.6281 -2.3814 0.9760
-3.0949 -4.6475 -2.3815 0.9760
-3.0087 -4.7049 -2.3819 0.9760
-2.9796 -4.7236 -2.3820 0.9760
-2.9213 -4.7606 -2.3822 0.9760
-2.8625 -4.7969 -2.3825 0.9760
-2.8329 -4.8147 -2.3826 0.9760
-2.8032 -4.8324 -2.3827 0.9760
-2.7735 -4.8499 -2.3829 0.9760
-2.7436 -4.8672 -2.3830 0.9760
-2.6835 -4.9013 -2.3832 0.9760
-2.6229 -4.9347 -2.3835 0.9760
-2.5925 -4.9511 -2.3836 0.9760
-2.5620 -4.9673 -2.3838 0.9760
-2.5313 -4.9833 -2.3839 0.9760
-2.5006 -4.9992 -2.3840 0.9760
-2.4389 -5.0303 -2.3843 0.9760
-2.3767 -5.0606 -2.3846 0.9760
-2.3455 -5.0755 -2.3847 0.9760
-2.2828 -5.1048 -2.3850 0.9760
-2.2198 -5.1332 -2.3853 0.9760
-2.1881 -5.1471 -2.3854 0.9760
-2.1564 -5.1608 -2.3855 0.9760
-2.1245 -5.1744 -2.3857 0.9760
-2.0606 -5.2009 -2.3860 0.9760
-2.0286 -5.2138 -2.3861 0.9760
-1.9964 -5.2266 -2.3863 0.9760
-1.9642 -5.2392 -2.3864 0.9760
-1.9318 -5.2515 -2.3865 0.9760
-1.8018 -5.2990 -2.3871 0.9760
-1.6376 -5.3538 -2.3879 0.9759
-1.6046 -5.3642 -2.3880 0.9759
-1.5714 -5.3743 -2.3882 0.9759
-1.5050 -5.3941 -2.3885 0.9759
-1.4050 -5.4221 -2.3889 0.9759
-1.3715 -5.4310 -2.3891 0.9759
-1.2371 -5.4647 -2.3897 0.9759
-1.2033 -5.4726 -2.3898 0.9759
-1.0339 -5.5090 -2.3906 0.9759
-0.9999 -5.5156 -2.3908 0.9759
-0.8976 -5.5343 -2.3913 0.9759
-0.8292 -5.5457 -2.3916 0.9759
-0.7949 -5.5512 -2.3917 0.9759
-0.7263 -5.5613 -2.3921 0.9759
-0.6920 -5.5661 -2.3922 0.9759
-0.5887 -5.5791 -2.3927 0.9759
-0.5542 -5.5830 -2.3929 0.9759
-0.5197 -5.5867 -2.3930 0.9759
-0.4506 -5.5934 -2.3934 0.9759
-0.3122 -5.6044 -2.3940 0.9759
-0.2776 -5.6066 -2.3942 0.9759
-0.1736 -5.6120 -2.3947 0.9759
-0.0695 -5.6154 -2.3952 0.9759
0.0000 -5.6166 -2.3955 0.9759
0.0348 -5.6169 -2.3957 0.9759
0.0695 -5.6170 -2.3958 0.9759
0.1042 -5.6168 -2.3960 0.9759
0.3127 -5.6115 -2.3970 0.9759
0.3474 -5.6098 -2.3972 0.9759
0.3821 -5.6079 -2.3973 0.9759
0.4515 -5.6036 -2.3977 0.9758
0.5901 -5.5923 -2.3984 0.9758
0.6248 -5.5889 -2.3985 0.9758
0.6594 -5.5853 -2.3987 0.9758
0.6939 -5.5815 -2.3989 0.9758
0.7285 -5.5775 -2.3990 0.9758
0.7630 -5.5733 -2.3992 0.9758
0.7976 -5.5689 -2.3994 0.9758
0.8320 -5.5642 -2.3996 0.9758
0.8664 -5.5594 -2.3997 0.9758
0.9009 -5.5543 -2.3999 0.9758
0.9697 -5.5435 -2.4002 0.9758
1.0726 -5.5258 -2.4007 0.9758
1.2093 -5.4991 -2.4014 0.9758
1.2433 -5.4919 -2.4016 0.9758
1.2774 -5.4845 -2.4018 0.9758
1.3453 -5.4691 -2.4021 0.9758
1.4468 -5.4443 -2.4026 0.9758
1.4806 -5.4357 -2.4028 0.9758
1.5142 -5.4268 -2.4030 0.9758
1.5479 -5.4177 -2.4031 0.9758
1.5815 -5.4084 -2.4033 0.9758
1.6150 -5.3989 -2.4035 0.9758
1.6485 -5.3892 -2.4036 0.9758
1.7153 -5.3692 -2.4040 0.9758
1.8150 -5.3376 -2.4045 0.9758
1.8481 -5.3266 -2.4047 0.9758
1.9470 -5.2925 -2.4052 0.9758
1.9798 -5.2807 -2.4053 0.9758
2.1429 -5.2188 -2.4062 0.9758
2.1753 -5.2059 -2.4063 0.9758
2.2075 -5.1926 -2.4065 0.9758
2.2398 -5.1793 -2.4067 0.9758
2.3360 -5.1379 -2.4072 0.9758
2.3997 -5.1093 -2.4075 0.9758
2.4314 -5.0947 -2.4077 0.9758
2.4630 -5.0800 -2.4078 0.9757
2.5574 -5.0344 -2.4083 0.9757
2.5886 -5.0188 -2.4085 0.9757
2.6509 -4.9871 -2.4088 0.9757
2.7127 -4.9546 -2.4092 0.9757
2.7435 -4.9381 -2.4093 0.9757
2.8352 -4.8873 -2.4098 0.9757
2.8958 -4.8526 -2.4101 0.9757
2.9259 -4.8349 -2.4103 0.9757
2.9560 -4.8170 -2.4105 0.9757
3.0158 -4.7807 -2.4108 0.9757
3.0454 -4.7623 -2.4109 0.9757
3.0750 -4.7437 -2.4111 0.9757
3.1045 -4.7249 -2.4113 0.9757
3.1631 -4.6867 -2.4116 0.9757
3.2213 -4.6479 -2.4119 0.9757
3.3646 -4.5475 -2.4127 0.9757
3.3929 -4.5269 -2.4128 0.9757
3.4210 -4.5062 -2.4130 0.9757
3.4490 -4.4852 -2.4131 0.9757
3.5046 -4.4428 -2.4134 0.9757
3.5323 -4.4213 -2.4136 0.9757
3.5872 -4.3778 -2.4139 0.9757
3.6144 -4.3558 -2.4141 0.9757
3.6415 -4.3337 -2.4142 0.9757
3.6953 -4.2888 -2.4145 0.9757
3.7220 -4.2662 -2.4147 0.9757
3.8273 -4.1738 -2.4152 0.9757
3.8532 -4.1503 -2.4154 0.9757
3.9047 -4.1028 -2.4157 0.9757
3.9303 -4.0789 -2.4158 0.9757
3.9557 -4.0547 -2.4160 0.9757
3.9809 -4.0304 -2.4161 0.9757
4.0309 -3.9813 -2.4164 0.9757
4.0557 -3.9566 -2.4165 0.9757
4.1048 -3.9066 -2.4168 0.9757
4.1291 -3.8813 -2.4170 0.9757
4.1533 -3.8559 -2.4171 0.9757
4.2012 -3.8047 -2.4174 0.9757
4.3180 -3.6740 -2.4181 0.9756
4.3635 -3.6208 -2.4183 0.9756
4.4085 -3.5669 -2.4186 0.9756
4.4963 -3.4575 -2.4191 0.9756
4.5393 -3.4020 -2.4194 0.9756
4.5815 -3.3460 -2.4196 0.9756
4.7039 -3.1747 -2.4204 0.9756
4.7237 -3.1457 -2.4205 0.9756
4.7433 -3.1166 -2.4206 0.9756
4.7627 -3.0873 -2.4207 0.9756
4.8010 -3.0285 -2.4210 0.9756
4.8386 -2.9692 -2.4212 0.9756
4.8935 -2.8793 -2.4216 0.9756
4.9115 -2.8491 -2.4217 0.9756
4.9641 -2.7579 -2.4220 0.9756
5.0152 -2.6657 -2.4223 0.9756
5.0644 -2.5725 -2.4227 0.9756
5.0805 -2.5413 -2.4228 0.9756
5.0963 -2.5099 -2.4229 0.9756
5.1119 -2.4785 -2.4230 0.9756
5.1274 -2.4469 -2.4231 0.9756
5.1577 -2.3835 -2.4233 0.9756
5.1725 -2.3517 -2.4234 0.9756
5.1872 -2.3197 -2.4235 0.9756
5.2159 -2.2556 -2.4237 0.9756
5.2575 -2.1587 -2.4240 0.9756
5.2709 -2.1262 -2.4241 0.9756
5.2842 -2.0937 -2.4242 0.9756
5.2973 -2.0610 -2.4243 0.9756
5.3227 -1.9955 -2.4244 0.9756
5.3352 -1.9626 -2.4245 0.9756
5.3474 -1.9296 -2.4246 0.9756
5.3712 -1.8635 -2.4248 0.9756
5.3943 -1.7971 -2.4250 0.9756
5.4165 -1.7303 -2.4251 0.9756
5.4378 -1.6633 -2.4253 0.9756
5.4482 -1.6297 -2.4254 0.9756
5.4583 -1.5961 -2.4255 0.9756
5.4683 -1.5623 -2.4255 0.9756
5.5059 -1.4268 -2.4259 0.9756
5.5320 -1.3245 -2.4261 0.9756
5.5402 -1.2903 -2.4261 0.9756
5.5483 -1.2561 -2.4262 0.9756
5.5561 -1.2217 -2.4263 0.9756
5.5637 -1.1874 -2.4263 0.9756
5.5711 -1.1530 -2.4264 0.9756
5.5782 -1.1185 -2.4265 0.9756
5.5852 -1.0841 -2.4265 0.9756
5.6048 -0.9803 -2.4267 0.9756
5.6168 -0.9110 -2.4269 0.9756
5.6224 -0.8762 -2.4269 0.9756
5.6279 -0.8415 -2.4270 0.9756
5.6381 -0.7718 -2.4271 0.9756
5.6429 -0.7370 -2.4271 0.9756
5.6599 -0.5972 -2.4274 0.9756
5.6734 -0.4571 -2.4275 0.9756
5.6762 -0.4220 -2.4276 0.9756
5.6812 -0.3518 -2.4277 0.9756
5.6834 -0.3167 -2.4277 0.9756
5.6886 -0.2112 -2.4278 0.9755
5.6899 -0.1760 -2.4279 0.9755
5.6909 -0.1408 -2.4279 0.9755
5.6917 -0.1056 -2.4280 0.9755
5.6929 0.0352 -2.4281 0.9755
5.6927 0.0704 -2.4281 0.9755
5.6923 0.1056 -2.4282 0.9755
5.6915 0.1408 -2.4282 0.9755
5.6906 0.1760 -2.4282 0.9755
5.6895 0.2112 -2.4282 0.9755
5.6881 0.2464 -2.4283 0.9755
5.6847 0.3167 -2.4283 0.9755
5.6805 0.3870 -2.4284 0.9755
5.6754 0.4573 -2.4284 0.9755
5.6725 0.4923 -2.4284 0.9755
5.6660 0.5625 -2.4285 0.9755
5.6625 0.5975 -2.4285 0.9755
5.6587 0.6326 -2.4285 0.9755
5.6366 0.8072 -2.4285 0.9755
5.6315 0.8420 -2.4285 0.9755
5.6262 0.8769 -2.4285 0.9755
5.6207 0.9116 -2.4286 0.9755
5.6149 0.9463 -2.4286 0.9755
5.6090 0.9810 -2.4286 0.9755
5.5898 1.0850 -2.4286 0.9755
5.5687 1.1885 -2.4286 0.9755
5.5457 1.2916 -2.4285 0.9755
5.5030 1.4624 -2.4285 0.9755
5.4844 1.5303 -2.4285 0.9755
5.4748 1.5642 -2.4285 0.9755
5.4448 1.6655 -2.4284 0.9755
5.4343 1.6991 -2.4284 0.9755
5.4128 1.7661 -2.4283 0.9755
5.3904 1.8329 -2.4283 0.9755
5.3432 1.9656 -2.4282 0.9755
5.3309 1.9986 -2.4282 0.9755
5.2796 2.1297 -2.4280 0.9755
5.2662 2.1623 -2.4280 0.9755
5.2250 2.2595 -2.4279 0.9755
5.1370 2.4515 -2.4276 0.9756
5.1216 2.4832 -2.4276 0.9756
5.0904 2.5463 -2.4275 0.9756
5.0583 2.6089 -2.4274 0.9756
5.0420 2.6401 -2.4274 0.9756
5.0254 2.6712 -2.4273 0.9756
4.9918 2.7330 -2.4272 0.9756
4.9747 2.7638 -2.4271 0.9756
4.9574 2.7944 -2.4271 0.9756
4.9399 2.8249 -2.4270 0.9756
4.9222 2.8554 -2.4270 0.9756
4.9043 2.8857 -2.4269 0.9756
4.8863 2.9159 -2.4269 0.9756
4.8680 2.9460 -2.4268 0.9756
4.7932 3.0652 -2.4266 0.9756
4.7740 3.0946 -2.4265 0.9756
4.7547 3.1240 -2.4264 0.9756
4.7351 3.1533 -2.4264 0.9756
4.7154 3.1824 -2.4263 0.9756
4.6551 3.2691 -2.4261 0.9756
4.6347 3.2977 -2.4260 0.9756
4.5298 3.4389 -2.4256 0.9756
4.4428 3.5494 -2.4253 0.9756
4.3982 3.6038 -2.4251 0.9756
4.3757 3.6308 -2.4251 0.9756
4.3530 3.6577 -2.4250 0.9756
4.3302 3.6844 -2.4249 0.9756
4.2840 3.7374 -2.4247 0.9756
4.2606 3.7637 -2.4246 0.9756
4.2134 3.8158 -2.4245 0.9756
4.1414 3.8929 -2.4242 0.9756
4.1171 3.9183 -2.4241 0.9756
4.0927 3.9435 -2.4240 0.9756
4.0432 3.9935 -2.4238 0.9756
4.0183 4.0183 -2.4237 0.9756
3.9426 4.0917 -2.4234 0.9756
3.8914 4.1397 -2.4232 0.9756
3.7341 4.2801 -2.4226 0.9756
3.7074 4.3030 -2.4225 0.9756
3.6806 4.3256 -2.4224 0.9756
3.6536 4.3481 -2.4222 0.9756
3.6265 4.3704 -2.4221 0.9756
3.5443 4.4363 -2.4218 0.9756
3.5166 4.4579 -2.4217 0.9756
3.4328 4.5218 -2.4213 0.9756
3.3763 4.5634 -2.4211 0.9756
3.3338 4.5646 -2.4108 0.9757
3.2912 4.5654 -2.4004 0.9758
3.2491 4.5662 -2.3902 0.9759
3.2072 4.5670 -2.3802 0.9760
3.1247 4.5685 -2.3606 0.9762
3.0445 4.5717 -2.3426 0.9764
2.9271 4.5772 -2.3173 0.9767
2.8887 4.5794 -2.3093 0.9767
2.8506 4.5815 -2.3014 0.9768
2.8128 4.5836 -2.2936 0.9769
2.7751 4.5856 -2.2860 0.9770
2.7384 4.5889 -2.2792 0.9770
2.6686 4.6002 -2.2682 0.9771
2.5791 4.6422 -2.2649 0.9772
2.5502 4.6578 -2.2648 0.9772
2.5212 4.6732 -2.2647 0.9772
2.4629 4.7035 -2.2644 0.9772
2.4337 4.7184 -2.2643 0.9772
2.4043 4.7331 -2.2642 0.9772
2.3785 4.7550 -2.2676 0.9771
2.3157 4.7761 -2.2638 0.9772
2.2562 4.8038 -2.2635 0.9772
2.2263 4.8174 -2.2634 0.9772
2.1963 4.8308 -2.2633 0.9772
2.1663 4.8440 -2.2631 0.9772
2.0453 4.8949 -2.2626 0.9772
2.0149 4.9072 -2.2625 0.9772
1.9538 4.9311 -2.2622 0.9772
1.8924 4.9543 -2.2619 0.9772
1.8617 4.9656 -2.2618 0.9772
1.8308 4.9767 -2.2617 0.9772
1.7689 4.9984 -2.2614 0.9772
1.7067 5.0192 -2.2611 0.9772
1.6443 5.0394 -2.2608 0.9772
1.6130 5.0491 -2.2607 0.9772
1.5816 5.0587 -2.2605 0.9772
1.5187 5.0772 -2.2602 0.9772
1.4873 5.0862 -2.2601 0.9772
1.4557 5.0950 -2.2600 0.9772
1.4241 5.1035 -2.2598 0.9772
1.3924 5.1119 -2.2597 0.9772
1.3289 5.1281 -2.2594 0.9772
1.2652 5.1435 -2.2591 0.9772
1.2013 5.1580 -2.2588 0.9772
1.1052 5.1784 -2.2583 0.9772
1.0731 5.1848 -2.2582 0.9772
1.0088 5.1970 -2.2579 0.9772
0.9765 5.2028 -2.2577 0.9772
0.9443 5.2084 -2.2576 0.9772
0.8473 5.2239 -2.2571 0.9772
0.7825 5.2333 -2.2568 0.9773
0.7501 5.2377 -2.2567 0.9773
0.6201 5.2533 -2.2561 0.9773
0.5876 5.2566 -2.2559 0.9773
0.5551 5.2598 -2.2558 0.9773
0.5225 5.2628 -2.2556 0.9773
0.4573 5.2681 -2.2553 0.9773
0.4246 5.2705 -2.2552 0.9773
0.3921 5.2727 -2.2550 0.9773
0.3268 5.2763 -2.2547 0.9773
0.2941 5.2779 -2.2545 0.9773
0.2614 5.2793 -2.2544 0.9773
0.2287 5.2804 -2.2542 0.9773
0.1961 5.2814 -2.2541 0.9773
0.1634 5.2821 -2.2539 0.9773
0.1308 5.2826 -2.2538 0.9773
0.0980 5.2830 -2.2536 0.9773
0.0327 5.2830 -2.2533 0.9773
0.0000 5.2828 -2.2531 0.9773
-0.0326 5.2823 -2.2530 0.9773
-0.0653 5.2817 -2.2528 0.9773
-0.0979 5.2808 -2.2527 0.9773
-0.1306 5.2797 -2.2525 0.9773
-0.1632 5.2784 -2.2523 0.9773
-0.2937 5.2713 -2.2517 0.9773
-0.3588 5.2665 -2.2514 0.9773
-0.3913 5.2638 -2.2512 0.9773
-0.4238 5.2609 -2.2511 0.9773
-0.5537 5.2473 -2.2504 0.9773
-0.5861 5.2434 -2.2503 0.9773
-0.7154 5.2258 -2.2496 0.9773
-0.8120 5.2106 -2.2491 0.9773
-0.8442 5.2051 -2.2490 0.9773
-0.8763 5.1994 -2.2488 0.9773
-0.9083 5.1935 -2.2487 0.9773
-0.9723 5.1811 -2.2483 0.9773
-1.0043 5.1746 -2.2482 0.9773
-1.0681 5.1611 -2.2479 0.9773
-1.1317 5.1467 -2.2476 0.9773
-1.1634 5.1393 -2.2474 0.9773
-1.1951 5.1316 -2.2472 0.9773
-1.2267 5.1238 -2.2471 0.9773
-1.2583 5.1157 -2.2469 0.9774
-1.3527 5.0904 -2.2464 0.9774
-1.3841 5.0816 -2.2463 0.9774
-1.4778 5.0540 -2.2458 0.9774
-1.5089 5.0444 -2.2456 0.9774
-1.6327 5.0041 -2.2450 0.9774
-1.6943 4.9829 -2.2447 0.9774
-1.7249 4.9719 -2.2445 0.9774
-1.7861 4.9495 -2.2442 0.9774
-1.8165 4.9380 -2.2441 0.9774
-1.8469 4.9264 -2.2439 0.9774
-1.8771 4.9145 -2.2438 0.9774
-1.9676 4.8778 -2.2433 0.9774
-1.9976 4.8652 -2.2431 0.9774
-2.0275 4.8524 -2.2430 0.9774
-2.0573 4.8395 -2.2428 0.9774
-2.0871 4.8263 -2.2427 0.9774
-2.1167 4.8130 -2.2425 0.9774
-2.1463 4.7994 -2.2423 0.9774
-2.1758 4.7857 -2.2422 0.9774
-2.2052 4.7719 -2.2420 0.9774
-2.2364 4.7617 -2.2437 0.9774
-2.2706 4.7580 -2.2485 0.9773
-2.3401 4.7515 -2.2590 0.9772
-2.5631 4.7509 -2.3024 0.9768
-2.6393 4.7506 -2.3178 0.9766
-2.7164 4.7502 -2.3339 0.9765
-2.8343 4.7495 -2.3590 0.9762
-2.9546 4.7486 -2.3853 0.9760
-3.1346 4.6445 -2.3899 0.9759
-3.2477 4.5644 -2.3892 0.9759
-3.4135 4.4391 -2.3883 0.9759
-3.4406 4.4176 -2.3882 0.9759
-3.4946 4.3742 -2.3879 0.9759
-3.5480 4.3301 -2.3876 0.9760
-3.7048 4.1939 -2.3867 0.9760
-3.7304 4.1707 -2.3865 0.9760
-3.7813 4.1237 -2.3863 0.9760
-3.8065 4.1000 -2.3861 0.9760
-3.8315 4.0761 -2.3860 0.9760
-3.8564 4.0521 -2.3858 0.9760
-3.9058 4.0036 -2.3856 0.9760
-3.9303 3.9792 -2.3854 0.9760
-3.9546 3.9546 -2.3853 0.9760
-3.9787 3.9298 -2.3851 0.9760
-4.0266 3.8799 -2.3849 0.9760
-4.0502 3.8547 -2.3847 0.9760
-4.0737 3.8293 -2.3846 0.9760
-4.1663 3.7265 -2.3840 0.9760
-4.2562 3.6215 -2.3835 0.9760
-4.2783 3.5950 -2.3834 0.9760
-4.3002 3.5683 -2.3833 0.9760
-4.3220 3.5414 -2.3831 0.9760
-4.3435 3.5144 -2.3830 0.9760
-4.3862 3.4600 -2.3827 0.9760
-4.4073 3.4327 -2.3826 0.9760
-4.4489 3.3775 -2.3824 0.9760
-4.4695 3.3498 -2.3822 0.9760
-4.4899 3.3219 -2.3821 0.9760
-4.5101 3.2939 -2.3820 0.9760
-4.5302 3.2658 -2.3819 0.9760
-4.5501 3.2375 -2.3817 0.9760
-4.5698 3.2092 -2.3816 0.9760
-4.5893 3.1807 -2.3815 0.9760
-4.6278 3.1234 -2.3813 0.9760
-4.6656 3.0656 -2.3810 0.9760
-4.6843 3.0365 -2.3809 0.9760
-4.7210 2.9781 -2.3807 0.9760
-4.7571 2.9192 -2.3805 0.9760
-4.7747 2.8896 -2.3803 0.9760
-4.8097 2.8300 -2.3801 0.9760
-4.8269 2.8001 -2.3800 0.9760
-4.8439 2.7701 -2.3799 0.9760
-4.8607 2.7399 -2.3798 0.9760
-4.8938 2.6794 -2.3796 0.9760
-4.9100 2.6489 -2.3795 0.9760
-4.9261 2.6184 -2.3794 0.9760
-4.9420 2.5878 -2.3793 0.9760
-4.9732 2.5262 -2.3791 0.9760
-5.0036 2.4643 -2.3789 0.9760
-5.0333 2.4020 -2.3787 0.9760
-5.0479 2.3708 -2.3786 0.9760
-5.0903 2.2764 -2.3783 0.9760
-5.1041 2.2448 -2.3782 0.9760
-5.1573 2.1176 -2.3778 0.9760
-5.1700 2.0855 -2.3777 0.9760
-5.1826 2.0534 -2.3776 0.9760
-5.1950 2.0213 -2.3775 0.9761
-5.2073 1.9890 -2.3774 0.9761
-5.2193 1.9567 -2.3773 0.9761
-5.2427 1.8919 -2.3772 0.9761
-5.2541 1.8594 -2.3771 0.9761
-5.3082 1.6958 -2.3767 0.9761
-5.3754 1.4641 -2.3761 0.9761
-5.3842 1.4308 -2.3761 0.9761
-5.3927 1.3974 -2.3760 0.9761
-5.4172 1.2970 -2.3758 0.9761
-5.4250 1.2635 -2.3757 0.9761
-5.4471 1.1625 -2.3755 0.9761
-5.4540 1.1288 -2.3755 0.9761
-5.4672 1.0612 -2.3753 0.9761
-5.4735 1.0273 -2.3753 0.9761
-5.4797 0.9934 -2.3752 0.9761
-5.5120 0.7893 -2.3749 0.9761
-5.5253 0.6869 -2.3747 0.9761
-5.5331 0.6185 -2.3746 0.9761
-5.5433 0.5157 -2.3745 0.9761
-5.5463 0.4814 -2.3744 0.9761
-5.5516 0.4127 -2.3743 0.9761
-5.5580 0.3097 -2.3742 0.9761
-5.5597 0.2753 -2.3742 0.9761
-5.5625 0.2065 -2.3741 0.9761
-5.5645 0.1377 -2.3740 0.9761
-5.5658 0.0344 -2.3739 0.9761
-5.4546 0.0000 -2.3744 0.9765
-5.4544 -0.0337 -2.3744 0.9765
-5.4534 -0.1012 -2.3743 0.9765
-5.4516 -0.1686 -2.3743 0.9765
-5.4362 -0.4380 -2.3741 0.9765
-5.4334 -0.4716 -2.3741 0.9765
-5.4303 -0.5052 -2.3741 0.9765
-5.4235 -0.5723 -2.3740 0.9765
-5.4199 -0.6058 -2.3740 0.9765
-5.4076 -0.7063 -2.3740 0.9765
-5.3984 -0.7731 -2.3740 0.9765
-5.3936 -0.8065 -2.3740 0.9765
-5.3885 -0.8398 -2.3740 0.9765
-5.3776 -0.9064 -2.3740 0.9765
-5.3719 -0.9396 -2.3739 0.9765
-5.3536 -1.0391 -2.3739 0.9765
-5.3403 -1.1052 -2.3739 0.9765
-5.3334 -1.1383 -2.3740 0.9765
-5.3262 -1.1712 -2.3740 0.9765
-5.3189 -1.2041 -2.3740 0.9765
-5.3036 -1.2698 -2.3740 0.9765
-5.2876 -1.3353 -2.3740 0.9765
-5.2707 -1.4007 -2.3740 0.9765
-5.2619 -1.4332 -2.3740 0.9765
-5.2530 -1.4658 -2.3740 0.9765
-5.2439 -1.4982 -2.3741 0.9765
-5.2345 -1.5306 -2.3741 0.9765
-5.2250 -1.5630 -2.3741 0.9765
-5.2054 -1.6275 -2.3741 0.9765
-5.1952 -1.6597 -2.3741 0.9765
-5.1744 -1.7238 -2.3742 0.9765
-5.1637 -1.7558 -2.3742 0.9765
-5.1528 -1.7877 -2.3742 0.9765
-5.1417 -1.8196 -2.3742 0.9765
-5.1189 -1.8831 -2.3743 0.9765
-5.1072 -1.9147 -2.3743 0.9765
-5.0833 -1.9778 -2.3744 0.9765
-5.0585 -2.0406 -2.3744 0.9765
-5.0459 -2.0718 -2.3745 0.9765
-5.0068 -2.1652 -2.3746 0.9765
-4.9934 -2.1961 -2.3746 0.9765
-4.9798 -2.2270 -2.3747 0.9765
-4.9660 -2.2578 -2.3747 0.9765
-4.8943 -2.4105 -2.3749 0.9765
-4.8793 -2.4407 -2.3749 0.9765
-4.8490 -2.5010 -2.3750 0.9765
-4.8335 -2.5310 -2.3751 0.9765
-4.7698 -2.6500 -2.3753 0.9765
-4.7369 -2.7089 -2.3754 0.9765
-4.7032 -2.7674 -2.3755 0.9765
-4.6862 -2.7965 -2.3755 0.9765
-4.6514 -2.8544 -2.3757 0.9765
-4.6338 -2.8832 -2.3757 0.9765
-4.5980 -2.9404 -2.3758 0.9765
-4.5615 -2.9972 -2.3760 0.9765
-4.5430 -3.0254 -2.3760 0.9765
-4.4479 -3.1649 -2.3763 0.9765
-4.4087 -3.2198 -2.3765 0.9765
-4.3282 -3.3283 -2.3768 0.9765
-4.3077 -3.3551 -2.3768 0.9765
-4.2871 -3.3818 -2.3769 0.9765
-4.2662 -3.4084 -2.3770 0.9765
-4.2451 -3.4348 -2.3771 0.9765
-4.1594 -3.5392 -2.3774 0.9765
-4.0935 -3.6161 -2.3776 0.9765
-4.0712 -3.6415 -2.3777 0.9765
-4.0487 -3.6667 -2.3778 0.9765
-3.9805 -3.7416 -2.3781 0.9764
-3.9574 -3.7663 -2.3782 0.9764
-3.9342 -3.7909 -2.3782 0.9764
-3.9108 -3.8153 -2.3783 0.9764
-3.8398 -3.8876 -2.3786 0.9764
-3.7917 -3.9351 -2.3788 0.9764
-3.7431 -3.9820 -2.3790 0.9764
-3.7185 -4.0053 -2.3791 0.9764
-3.6938 -4.0284 -2.3792 0.9764
-3.6690 -4.0513 -2.3793 0.9764
-3.5936 -4.1192 -2.3796 0.9764
-3.5427 -4.1637 -2.3798 0.9764
-3.4913 -4.2075 -2.3800 0.9764
-3.4392 -4.2508 -2.3802 0.9764
-3.4131 -4.2721 -2.3803 0.9764
-3.3867 -4.2933 -2.3804 0.9764
-3.3603 -4.3144 -2.3805 0.9764
-3.3070 -4.3560 -2.3807 0.9764
-3.2531 -4.3970 -2.3810 0.9764
-3.2260 -4.4173 -2.3811 0.9764
-3.1988 -4.4373 -2.3812 0.9764
-3.1714 -4.4572 -2.3813 0.9764
-3.1163 -4.4966 -2.3815 0.9764
-3.0887 -4.5160 -2.3816 0.9764
-3.0048 -4.5732 -2.3820 0.9764
-2.9483 -4.6104 -2.3822 0.9764
-2.9199 -4.6288 -2.3824 0.9764
-2.8627 -4.6650 -2.3826 0.9764
-2.8339 -4.6829 -2.3827 0.9764
-2.7761 -4.7181 -2.3830 0.9764
-2.7470 -4.7354 -2.3831 0.9764
-2.6885 -4.7695 -2.3833 0.9764
-2.6296 -4.8029 -2.3836 0.9764
-2.6000 -4.8193 -2.3837 0.9764
-2.5105 -4.8675 -2.3841 0.9764
-2.4504 -4.8987 -2.3844 0.9764
-2.3899 -4.9292 -2.3846 0.9764
-2.2370 -5.0022 -2.3853 0.9764
-2.2061 -5.0162 -2.3854 0.9764
-2.1752 -5.0300 -2.3856 0.9764
-2.1442 -5.0437 -2.3857 0.9764
-2.0506 -5.0835 -2.3861 0.9764
-2.0192 -5.0964 -2.3863 0.9764
-1.9878 -5.1090 -2.3864 0.9764
-1.9563 -5.1215 -2.3865 0.9764
-1.9246 -5.1338 -2.3867 0.9764
-1.8294 -5.1696 -2.3871 0.9764
-1.7655 -5.1924 -2.3874 0.9764
-1.7335 -5.2036 -2.3875 0.9764
-1.7014 -5.2145 -2.3877 0.9764
-1.6692 -5.2253 -2.3878 0.9764
-1.6370 -5.2358 -2.3880 0.9764
-1.5723 -5.2563 -2.3883 0.9763
-1.5398 -5.2662 -2.3884 0.9763
-1.5073 -5.2760 -2.3886 0.9763
-1.4748 -5.2855 -2.3887 0.9763
-1.4421 -5.2948 -2.3889 0.9763
-1.4095 -5.3040 -2.3890 0.9763
-1.3767 -5.3130 -2.3892 0.9763
-1.3439 -5.3217 -2.3893 0.9763
-1.2781 -5.3386 -2.3896 0.9763
-1.1791 -5.3624 -2.3901 0.9763
-1.1460 -5.3699 -2.3902 0.9763
-1.1129 -5.3773 -2.3904 0.9763
-1.0797 -5.3844 -2.3905 0.9763
-1.0464 -5.3913 -2.3907 0.9763
-1.0131 -5.3980 -2.3908 0.9763
-0.9798 -5.4045 -2.3910 0.9763
-0.9129 -5.4170 -2.3913 0.9763
-0.6443 -5.4583 -2.3925 0.9763
-0.5768 -5.4666 -2.3929 0.9763
-0.5092 -5.4740 -2.3932 0.9763
-0.4415 -5.4807 -2.3935 0.9763
-0.4076 -5.4837 -2.3937 0.9763
-0.3399 -5.4890 -2.3940 0.9763
-0.3059 -5.4914 -2.3941 0.9763
-0.2380 -5.4955 -2.3945 0.9763
-0.2040 -5.4972 -2.3946 0.9763
0.1702 -5.5025 -2.3964 0.9763
0.3064 -5.4981 -2.3971 0.9763
0.3744 -5.4947 -2.3974 0.9763
0.4084 -5.4926 -2.3976 0.9763
0.4424 -5.4904 -2.3977 0.9763
0.5782 -5.4793 -2.3984 0.9763
0.6121 -5.4760 -2.3986 0.9762
0.9164 -5.4368 -2.4001 0.9762
0.9837 -5.4258 -2.4004 0.9762
1.0844 -5.4078 -2.4009 0.9762
1.1848 -5.3879 -2.4014 0.9762
1.2182 -5.3808 -2.4016 0.9762
1.3181 -5.3584 -2.4021 0.9762
1.3512 -5.3505 -2.4022 0.9762
1.3844 -5.3425 -2.4024 0.9762
1.4175 -5.3341 -2.4026 0.9762
1.5495 -5.2989 -2.4032 0.9762
1.6151 -5.2801 -2.4036 0.9762
1.6478 -5.2704 -2.4037 0.9762
1.6805 -5.2604 -2.4039 0.9762
1.7131 -5.2503 -2.4041 0.9762
1.7457 -5.2400 -2.4042 0.9762
1.7782 -5.2294 -2.4044 0.9762
1.8753 -5.1966 -2.4049 0.9762
1.9075 -5.1853 -2.4051 0.9762
1.9397 -5.1737 -2.4052 0.9762
2.0038 -5.1501 -2.4056 0.9762
2.0994 -5.1131 -2.4061 0.9762
2.2573 -5.0474 -2.4069 0.9762
2.2886 -5.0337 -2.4070 0.9762
2.3821 -4.9914 -2.4075 0.9762
2.4131 -4.9769 -2.4077 0.9762
2.4748 -4.9474 -2.4080 0.9762
2.5361 -4.9170 -2.4083 0.9762
2.5667 -4.9016 -2.4085 0.9762
2.6274 -4.8701 -2.4088 0.9761
2.7478 -4.8049 -2.4095 0.9761
2.8074 -4.7712 -2.4098 0.9761
2.8370 -4.7541 -2.4099 0.9761
2.8960 -4.7192 -2.4103 0.9761
2.9545 -4.6836 -2.4106 0.9761
3.0126 -4.6474 -2.4109 0.9761
3.0703 -4.6103 -2.4112 0.9761
3.0989 -4.5916 -2.4114 0.9761
3.1275 -4.5726 -2.4115 0.9761
3.1559 -4.5535 -2.4117 0.9761
3.2404 -4.4950 -2.4121 0.9761
3.2684 -4.4751 -2.4123 0.9761
3.3239 -4.4349 -2.4126 0.9761
3.3789 -4.3941 -2.4129 0.9761
3.4334 -4.3525 -2.4132 0.9761
3.5409 -4.2672 -2.4138 0.9761
3.5938 -4.2236 -2.4141 0.9761
3.6201 -4.2016 -2.4142 0.9761
3.6463 -4.1794 -2.4144 0.9761
3.6723 -4.1570 -2.4145 0.9761
3.6981 -4.1345 -2.4147 0.9761
3.7238 -4.1118 -2.4148 0.9761
3.7748 -4.0659 -2.4151 0.9761
3.8001 -4.0427 -2.4152 0.9761
3.8253 -4.0194 -2.4154 0.9761
3.9245 -3.9244 -2.4159 0.9761
3.9973 -3.8516 -2.4164 0.9761
4.0451 -3.8023 -2.4166 0.9761
4.0687 -3.7775 -2.4168 0.9761
4.1619 -3.6765 -2.4173 0.9761
4.1848 -3.6509 -2.4174 0.9761
4.2300 -3.5992 -2.4177 0.9761
4.2525 -3.5732 -2.4178 0.9761
4.2968 -3.5207 -2.4181 0.9761
4.3405 -3.4677 -2.4184 0.9761
4.3621 -3.4409 -2.4185 0.9761
4.3835 -3.4141 -2.4186 0.9761
4.4047 -3.3871 -2.4187 0.9761
4.4468 -3.3327 -2.4190 0.9760
4.4675 -3.3053 -2.4191 0.9760
4.6080 -3.1100 -2.4200 0.9760
4.6844 -2.9956 -2.4205 0.9760
4.7031 -2.9667 -2.4206 0.9760
4.7399 -2.9086 -2.4208 0.9760
4.7580 -2.8794 -2.4209 0.9760
4.8113 -2.7910 -2.4213 0.9760
4.8459 -2.7315 -2.4215 0.9760
4.8797 -2.6716 -2.4217 0.9760
4.9452 -2.5506 -2.4221 0.9760
4.9611 -2.5204 -2.4222 0.9760
4.9923 -2.4587 -2.4224 0.9760
5.0670 -2.3037 -2.4229 0.9760
5.0813 -2.2724 -2.4230 0.9760
5.0955 -2.2410 -2.4231 0.9760
5.1094 -2.2095 -2.4232 0.9760
5.1368 -2.1463 -2.4234 0.9760
5.1502 -2.1146 -2.4235 0.9760
5.1633 -2.0828 -2.4236 0.9760
5.1891 -2.0189 -2.4238 0.9760
5.2017 -1.9869 -2.4239 0.9760
5.2141 -1.9548 -2.4240 0.9760
5.2262 -1.9225 -2.4240 0.9760
5.2615 -1.8254 -2.4243 0.9760
5.2841 -1.7604 -2.4245 0.9760
5.3164 -1.6622 -2.4247 0.9760
5.3268 -1.6293 -2.4248 0.9760
5.3566 -1.5304 -2.4250 0.9760
5.3661 -1.4973 -2.4251 0.9760
5.4107 -1.3308 -2.4255 0.9760
5.4189 -1.2975 -2.4256 0.9760
5.4349 -1.2304 -2.4257 0.9760
5.4642 -1.0957 -2.4260 0.9760
5.4711 -1.0619 -2.4260 0.9760
5.4777 -1.0281 -2.4261 0.9760
5.5229 -0.7561 -2.4265 0.9760
5.5320 -0.6877 -2.4267 0.9760
5.5363 -0.6535 -2.4267 0.9760
5.5404 -0.6193 -2.4268 0.9760
5.5574 -0.4477 -2.4270 0.9760
5.5708 -0.2413 -2.4273 0.9760
5.5722 -0.2069 -2.4273 0.9760
5.5735 -0.1724 -2.4273 0.9760
5.5745 -0.1379 -2.4274 0.9760
5.5760 -0.0690 -2.4274 0.9760
5.5764 -0.0345 -2.4275 0.9760
5.5766 0.0345 -2.4275 0.9760
5.5758 0.1035 -2.4276 0.9760
5.5731 0.2068 -2.4277 0.9760
5.5718 0.2413 -2.4277 0.9760
5.5703 0.2758 -2.4277 0.9760
5.5643 0.3791 -2.4278 0.9760
5.5620 0.4135 -2.4278 0.9760
5.5391 0.6538 -2.4279 0.9760
5.5350 0.6881 -2.4279 0.9760
5.5306 0.7223 -2.4279 0.9760
5.5163 0.8248 -2.4280 0.9760
5.5111 0.8589 -2.4280 0.9760
5.5057 0.8930 -2.4280 0.9760
5.5001 0.9270 -2.4280 0.9760
5.4943 0.9610 -2.4280 0.9760
5.4882 0.9950 -2.4280 0.9760
5.4755 1.0628 -2.4280 0.9760
5.4549 1.1642 -2.4280 0.9760
5.4243 1.2987 -2.4280 0.9760
5.4078 1.3657 -2.4279 0.9760
5.3992 1.3991 -2.4279 0.9760
5.3904 1.4325 -2.4279 0.9760
5.3815 1.4657 -2.4279 0.9760
5.3723 1.4990 -2.4279 0.9760
5.3629 1.5322 -2.4279 0.9760
5.3435 1.5984 -2.4279 0.9760
5.3334 1.6314 -2.4278 0.9760
5.3232 1.6643 -2.4278 0.9760
5.3128 1.6972 -2.4278 0.9760
5.3021 1.7300 -2.4278 0.9760
5.2802 1.7954 -2.4277 0.9760
5.2458 1.8930 -2.4277 0.9760
5.2219 1.9577 -2.4276 0.9760
5.2096 1.9899 -2.4276 0.9760
5.1971 2.0221 -2.4275 0.9760
5.1845 2.0542 -2.4275 0.9760
5.1716 2.0861 -2.4275 0.9760
5.1585 2.1181 -2.4274 0.9760
5.1452 2.1499 -2.4274 0.9760
5.1181 2.2133 -2.4273 0.9760
5.1042 2.2449 -2.4273 0.9760
5.0902 2.2763 -2.4273 0.9760
5.0759 2.3077 -2.4272 0.9760
5.0615 2.3391 -2.4272 0.9760
5.0320 2.4014 -2.4271 0.9760
5.0170 2.4324 -2.4270 0.9760
5.0017 2.4633 -2.4270 0.9760
4.9863 2.4942 -2.4270 0.9760
4.9063 2.6469 -2.4267 0.9760
4.8897 2.6771 -2.4267 0.9760
4.8389 2.7672 -2.4265 0.9760
4.8216 2.7970 -2.4264 0.9760
4.7322 2.9444 -2.4261 0.9760
4.7138 2.9735 -2.4261 0.9760
4.6953 3.0025 -2.4260 0.9760
4.6575 3.0602 -2.4259 0.9760
4.6384 3.0889 -2.4258 0.9760
4.5798 3.1741 -2.4256 0.9760
4.4581 3.3412 -2.4252 0.9760
4.4373 3.3686 -2.4251 0.9760
4.3736 3.4500 -2.4249 0.9760
4.3303 3.5036 -2.4247 0.9760
4.2863 3.5567 -2.4246 0.9760
4.2641 3.5830 -2.4245 0.9760
4.1964 3.6611 -2.4242 0.9760
4.1736 3.6869 -2.4241 0.9760
4.0805 3.7884 -2.4238 0.9760
4.0091 3.8630 -2.4235 0.9760
3.9607 3.9120 -2.4233 0.9760
3.9363 3.9363 -2.4232 0.9760
3.7356 4.1248 -2.4224 0.9760
3.7098 4.1476 -2.4223 0.9760
3.6318 4.2152 -2.4220 0.9760
3.6055 4.2374 -2.4219 0.9760
3.5791 4.2594 -2.4218 0.9760
3.5525 4.2812 -2.4217 0.9760
3.4990 4.3245 -2.4215 0.9760
3.4449 4.3670 -2.4213 0.9760
3.4177 4.3880 -2.4211 0.9760
3.3075 4.4704 -2.4207 0.9760
3.2796 4.4905 -2.4206 0.9760
3.1953 4.5500 -2.4202 0.9760
3.1599 4.5593 -2.4148 0.9761
3.1190 4.5603 -2.4050 0.9762
3.0789 4.5619 -2.3958 0.9763
3.0391 4.5635 -2.3867 0.9764
2.8828 4.5699 -2.3520 0.9767
2.7694 4.5762 -2.3284 0.9769
2.6951 4.5803 -2.3134 0.9771
2.6582 4.5823 -2.3060 0.9772
2.6216 4.5842 -2.2988 0.9772
2.5852 4.5862 -2.2917 0.9773
2.5136 4.5909 -2.2784 0.9774
2.4458 4.6013 -2.2684 0.9775
2.4128 4.6077 -2.2641 0.9776
2.3841 4.6223 -2.2640 0.9776
2.2975 4.6650 -2.2636 0.9776
2.2394 4.6925 -2.2634 0.9776
2.2102 4.7060 -2.2632 0.9776
2.1222 4.7454 -2.2628 0.9776
2.0927 4.7581 -2.2627 0.9776
2.0631 4.7707 -2.2626 0.9776
2.0334 4.7831 -2.2624 0.9776
1.9441 4.8192 -2.2621 0.9776
1.8840 4.8423 -2.2618 0.9776
1.8540 4.8535 -2.2617 0.9776
1.8238 4.8646 -2.2615 0.9776
1.7936 4.8755 -2.2614 0.9776
1.7633 4.8862 -2.2612 0.9776
1.7329 4.8967 -2.2611 0.9776
1.7025 4.9070 -2.2610 0.9776
1.6109 4.9369 -2.2606 0.9776
1.5187 4.9650 -2.2601 0.9776
1.4879 4.9740 -2.2600 0.9776
1.4261 4.9914 -2.2597 0.9776
1.3951 4.9998 -2.2596 0.9776
1.3019 5.0239 -2.2592 0.9776
1.2707 5.0315 -2.2590 0.9776
1.2082 5.0462 -2.2587 0.9776
1.0828 5.0732 -2.2581 0.9776
1.0198 5.0856 -2.2578 0.9776
0.9567 5.0971 -2.2576 0.9776
0.8935 5.1079 -2.2573 0.9776
0.8618 5.1130 -2.2571 0.9776
0.8301 5.1179 -2.2570 0.9776
0.7666 5.1271 -2.2567 0.9776
0.7031 5.1355 -2.2564 0.9776
0.6394 5.1431 -2.2561 0.9776
0.5757 5.1500 -2.2558 0.9776
0.5438 5.1531 -2.2556 0.9776
0.4161 5.1636 -2.2550 0.9777
0.2881 5.1709 -2.2544 0.9777
0.2561 5.1722 -2.2543 0.9777
0.1601 5.1750 -2.2538 0.9777
0.1281 5.1756 -2.2536 0.9777
0.0961 5.1759 -2.2535 0.9777
0.0321 5.1760 -2.2532 0.9777
0.0000 5.1757 -2.2530 0.9777
-0.0320 5.1753 -2.2529 0.9777
-0.1919 5.1700 -2.2521 0.9777
-0.2558 5.1666 -2.2518 0.9777
-0.2877 5.1645 -2.2516 0.9777
-0.3515 5.1599 -2.2513 0.9777
-0.4153 5.1544 -2.2510 0.9777
-0.4471 5.1514 -2.2509 0.9777
-0.5107 5.1447 -2.2505 0.9777
-0.5425 5.1411 -2.2504 0.9777
-0.7009 5.1201 -2.2496 0.9777
-0.7641 5.1103 -2.2493 0.9777
-0.7956 5.1052 -2.2491 0.9777
-0.8271 5.0998 -2.2490 0.9777
-0.8900 5.0884 -2.2487 0.9777
-1.1088 5.0427 -2.2476 0.9777
-1.1399 5.0354 -2.2474 0.9777
-1.2019 5.0202 -2.2471 0.9777
-1.2329 5.0123 -2.2469 0.9777
-1.2946 4.9960 -2.2466 0.9777
-1.3254 4.9876 -2.2465 0.9777
-1.3868 4.9701 -2.2462 0.9777
-1.4173 4.9611 -2.2460 0.9777
-1.4784 4.9425 -2.2457 0.9777
-1.5088 4.9329 -2.2455 0.9777
-1.5392 4.9231 -2.2454 0.9777
-1.5695 4.9132 -2.2452 0.9777
-1.6300 4.8927 -2.2449 0.9778
-1.6633 4.8919 -2.2492 0.9777
-1.6901 4.8716 -2.2446 0.9778
-1.7201 4.8607 -2.2445 0.9778
-1.7500 4.8496 -2.2443 0.9778
-1.8689 4.8035 -2.2437 0.9778
-1.8984 4.7915 -2.2435 0.9778
-1.9279 4.7794 -2.2434 0.9778
-1.9866 4.7545 -2.2431 0.9778
-2.0200 4.7515 -2.2475 0.9777
-2.0533 4.7482 -2.2519 0.9777
-2.0867 4.7447 -2.2563 0.9776
-2.1567 4.7436 -2.2683 0.9775
-2.1921 4.7436 -2.2748 0.9775
-2.2278 4.7436 -2.2813 0.9774
-2.3361 4.7434 -2.3017 0.9772
-2.3727 4.7433 -2.3087 0.9771
-2.4094 4.7432 -2.3159 0.9771
-2.4463 4.7431 -2.3232 0.9770
-2.4835 4.7430 -2.3306 0.9769
-2.5586 4.7427 -2.3458 0.9768
-2.6346 4.7423 -2.3616 0.9766
-2.6730 4.7421 -2.3696 0.9765
-2.7117 4.7418 -2.3779 0.9765
-2.7506 4.7416 -2.3862 0.9764
-2.8441 4.6998 -2.3913 0.9763
-2.8730 4.6818 -2.3911 0.9763
-2.9017 4.6636 -2.3910 0.9763
-3.0154 4.5892 -2.3904 0.9763
-3.0435 4.5702 -2.3902 0.9763
-3.0994 4.5317 -2.3899 0.9763
-3.1548 4.4924 -2.3896 0.9763
-3.1823 4.4725 -2.3895 0.9763
-3.2912 4.3913 -2.3889 0.9763
-3.3448 4.3498 -2.3886 0.9763
-3.4243 4.2862 -2.3881 0.9764
-3.4505 4.2646 -2.3880 0.9764
-3.4766 4.2430 -2.3878 0.9764
-3.6050 4.1322 -2.3871 0.9764
-3.6303 4.1096 -2.3870 0.9764
-3.7053 4.0408 -2.3866 0.9764
-3.7300 4.0176 -2.3864 0.9764
-3.7789 3.9707 -2.3861 0.9764
-3.8273 3.9232 -2.3859 0.9764
-3.8751 3.8751 -2.3856 0.9764
-3.8987 3.8508 -2.3854 0.9764
-3.9223 3.8265 -2.3853 0.9764
-3.9919 3.7524 -2.3849 0.9764
-4.0148 3.7274 -2.3848 0.9764
-4.0602 3.6771 -2.3845 0.9764
-4.1049 3.6262 -2.3842 0.9764
-4.1707 3.5488 -2.3839 0.9764
-4.2352 3.4703 -2.3835 0.9764
-4.2563 3.4438 -2.3833 0.9764
-4.2773 3.4173 -2.3832 0.9764
-4.2982 3.3906 -2.3831 0.9764
-4.3998 3.2552 -2.3825 0.9764
-4.4196 3.2278 -2.3824 0.9764
-4.4393 3.2003 -2.3822 0.9764
-4.4588 3.1726 -2.3821 0.9764
-4.4781 3.1448 -2.3820 0.9764
-4.5162 3.0889 -2.3818 0.9764
-4.5350 3.0607 -2.3817 0.9764
-4.5720 3.0041 -2.3814 0.9764
-4.5903 2.9756 -2.3813 0.9764
-4.6263 2.9183 -2.3811 0.9764
-4.6962 2.8025 -2.3806 0.9764
-4.7301 2.7439 -2.3804 0.9764
-4.7632 2.6850 -2.3802 0.9764
-4.9033 2.4149 -2.3793 0.9764
-4.9179 2.3845 -2.3792 0.9764
-4.9324 2.3539 -2.3791 0.9764
-4.9746 2.2617 -2.3788 0.9764
-5.0539 2.0751 -2.3783 0.9764
-5.0665 2.0438 -2.3782 0.9764
-5.0910 1.9808 -2.3780 0.9765
-5.1029 1.9492 -2.3779 0.9765
-5.1377 1.8540 -2.3776 0.9765
-5.1489 1.8221 -2.3776 0.9765
-5.1707 1.7582 -2.3774 0.9765
-5.1916 1.6940 -2.3772 0.9765
-5.2018 1.6618 -2.3772 0.9765
-5.2407 1.5324 -2.3769 0.9765
-5.2764 1.4022 -2.3766 0.9765
-5.2848 1.3695 -2.3765 0.9765
-5.2930 1.3367 -2.3764 0.9765
-5.3238 1.2052 -2.3762 0.9765
-5.3380 1.1392 -2.3760 0.9765
-5.3640 1.0068 -2.3758 0.9765
-5.3814 0.9070 -2.3756 0.9765
-5.3919 0.8404 -2.3755 0.9765
-5.4017 0.7736 -2.3754 0.9765
-5.4062 0.7401 -2.3753 0.9765
-5.4106 0.7067 -2.3753 0.9765
-5.4187 0.6396 -2.3752 0.9765
-5.4259 0.5725 -2.3751 0.9765
-5.4293 0.5390 -2.3750 0.9765
-5.4324 0.5054 -2.3750 0.9765
-5.4353 0.4718 -2.3749 0.9765
-5.4405 0.4045 -2.3749 0.9765
-5.4429 0.3708 -2.3748 0.9765
-5.4513 0.2024 -2.3746 0.9765
-5.4523 0.1686 -2.3746 0.9765
-5.3469 0.0000 -2.3749 0.9769
-5.3467 -0.0331 -2.3749 0.9769
-5.3458 -0.0992 -2.3748 0.9769
-5.3450 -0.1323 -2.3748 0.9769
-5.3429 -0.1983 -2.3748 0.9769
-5.3399 -0.2644 -2.3747 0.9769
-5.3361 -0.3304 -2.3747 0.9769
-5.3315 -0.3964 -2.3746 0.9769
-5.3289 -0.4294 -2.3746 0.9769
-5.3261 -0.4623 -2.3746 0.9769
-5.3231 -0.4952 -2.3746 0.9769
-5.3200 -0.5281 -2.3746 0.9769
-5.3165 -0.5610 -2.3746 0.9769
-5.3051 -0.6596 -2.3745 0.9769
-5.3009 -0.6923 -2.3745 0.9769
-5.2965 -0.7251 -2.3745 0.9769
-5.2871 -0.7905 -2.3745 0.9769
-5.2715 -0.8885 -2.3745 0.9769
-5.2415 -1.0510 -2.3745 0.9769
-5.2349 -1.0834 -2.3745 0.9769
-5.2282 -1.1158 -2.3745 0.9769
