ply
format ascii 1.0
element vertex 1598
property float32 x
property float32 y
property float32 z
property float32 I
end_header
-3.2769 -4.6662 -2.3820 0.9756
-3.2192 -4.7069 -2.3822 0.9756
-3.1611 -4.7469 -2.3825 0.9756
-3.1025 -4.7861 -2.3828 0.9756
-3.0730 -4.8055 -2.3829 0.9756
-2.9539 -4.8811 -2.3834 0.9756
-2.8936 -4.9178 -2.3837 0.9756
-2.8024 -4.9715 -2.3841 0.9756
-2.7718 -4.9891 -2.3842 0.9756
-2.7410 -5.0064 -2.3844 0.9756
-2.6792 -5.0405 -2.3847 0.9756
-2.6170 -5.0739 -2.3849 0.9756
-2.5857 -5.0902 -2.3851 0.9756
-2.5543 -5.1065 -2.3852 0.9756
-2.4913 -5.1383 -2.3855 0.9755
-2.4596 -5.1539 -2.3857 0.9755
-2.3640 -5.1996 -2.3861 0.9755
-2.3319 -5.2144 -2.3863 0.9755
-2.2028 -5.2718 -2.3868 0.9755
-2.1703 -5.2857 -2.3870 0.9755
-2.1377 -5.2993 -2.3871 0.9755
-2.0394 -5.3391 -2.3876 0.9755
-2.0065 -5.3519 -2.3878 0.9755
-1.9734 -5.3646 -2.3879 0.9755
-1.9072 -5.3893 -2.3882 0.9755
-1.8739 -5.4013 -2.3884 0.9755
-1.8072 -5.4248 -2.3887 0.9755
-1.7738 -5.4362 -2.3888 0.9755
-1.7402 -5.4474 -2.3890 0.9755
-1.6730 -5.4693 -2.3893 0.9755
-1.6392 -5.4799 -2.3895 0.9755
-1.5715 -5.5005 -2.3898 0.9755
-1.5036 -5.5202 -2.3901 0.9755
-1.4695 -5.5298 -2.3903 0.9755
-1.4354 -5.5391 -2.3904 0.9755
-1.4012 -5.5483 -2.3906 0.9755
-1.2983 -5.5745 -2.3911 0.9755
-1.1603 -5.6064 -2.3917 0.9755
-1.1257 -5.6138 -2.3919 0.9755
-1.0563 -5.6281 -2.3922 0.9755
-0.9519 -5.6479 -2.3927 0.9755
-0.9170 -5.6541 -2.3929 0.9755
-0.8821 -5.6600 -2.3930 0.9755
-0.8471 -5.6658 -2.3932 0.9755
-0.6718 -5.6912 -2.3940 0.9755
-0.6367 -5.6957 -2.3942 0.9755
-0.6014 -5.6999 -2.3944 0.9755
-0.5662 -5.7040 -2.3946 0.9755
-0.5310 -5.7077 -2.3947 0.9755
-0.4957 -5.7113 -2.3949 0.9755
-0.4604 -5.7147 -2.3951 0.9755
-0.2836 -5.7282 -2.3959 0.9754
-0.2482 -5.7303 -2.3961 0.9754
-0.2128 -5.7321 -2.3963 0.9754
-0.1773 -5.7337 -2.3964 0.9754
-0.1419 -5.7351 -2.3966 0.9754
-0.1064 -5.7363 -2.3968 0.9754
-0.0355 -5.7380 -2.3971 0.9754
0.0000 -5.7385 -2.3973 0.9754
0.1064 -5.7388 -2.3978 0.9754
0.1420 -5.7384 -2.3980 0.9754
0.1775 -5.7378 -2.3981 0.9754
0.2130 -5.7370 -2.3983 0.9754
0.3194 -5.7333 -2.3988 0.9754
0.3549 -5.7317 -2.3990 0.9754
0.4258 -5.7277 -2.3994 0.9754
0.4613 -5.7253 -2.3995 0.9754
0.5321 -5.7200 -2.3999 0.9754
0.6029 -5.7138 -2.4002 0.9754
0.6383 -5.7104 -2.4004 0.9754
0.7090 -5.7029 -2.4008 0.9754
0.7796 -5.6945 -2.4011 0.9754
0.8501 -5.6853 -2.4014 0.9754
0.8853 -5.6803 -2.4016 0.9754
0.9556 -5.6698 -2.4020 0.9754
1.0958 -5.6460 -2.4027 0.9754
1.1308 -5.6395 -2.4028 0.9754
1.2704 -5.6115 -2.4035 0.9754
1.3051 -5.6039 -2.4037 0.9754
1.3398 -5.5961 -2.4039 0.9754
1.3746 -5.5882 -2.4040 0.9754
1.4437 -5.5715 -2.4044 0.9754
1.4783 -5.5629 -2.4046 0.9754
1.5472 -5.5450 -2.4049 0.9754
1.6159 -5.5262 -2.4053 0.9753
1.6501 -5.5165 -2.4054 0.9753
1.6843 -5.5066 -2.4056 0.9753
1.7185 -5.4964 -2.4058 0.9753
1.7526 -5.4861 -2.4059 0.9753
1.9557 -5.4196 -2.4070 0.9753
2.0564 -5.3835 -2.4075 0.9753
2.1231 -5.3584 -2.4078 0.9753
2.1895 -5.3325 -2.4082 0.9753
2.2226 -5.3193 -2.4083 0.9753
2.2556 -5.3058 -2.4085 0.9753
2.2885 -5.2921 -2.4087 0.9753
2.3214 -5.2782 -2.4088 0.9753
2.5810 -5.1598 -2.4102 0.9753
2.6130 -5.1441 -2.4103 0.9753
2.6450 -5.1282 -2.4105 0.9753
2.6768 -5.1121 -2.4106 0.9753
2.7402 -5.0793 -2.4110 0.9753
2.7718 -5.0626 -2.4111 0.9753
2.8032 -5.0457 -2.4113 0.9753
2.9279 -4.9761 -2.4119 0.9753
2.9588 -4.9582 -2.4121 0.9753
3.0203 -4.9219 -2.4124 0.9753
3.0509 -4.9035 -2.4126 0.9753
3.1117 -4.8660 -2.4129 0.9753
3.1420 -4.8470 -2.4131 0.9753
3.1721 -4.8278 -2.4132 0.9753
3.2021 -4.8084 -2.4134 0.9753
3.2320 -4.7888 -2.4135 0.9753
3.2618 -4.7690 -2.4137 0.9753
3.3209 -4.7289 -2.4140 0.9753
3.3503 -4.7086 -2.4142 0.9753
3.3796 -4.6881 -2.4143 0.9753
3.4377 -4.6465 -2.4146 0.9753
3.4666 -4.6255 -2.4148 0.9753
3.5240 -4.5828 -2.4151 0.9753
3.5525 -4.5612 -2.4152 0.9752
3.5808 -4.5394 -2.4154 0.9752
3.6652 -4.4731 -2.4158 0.9752
3.7207 -4.4279 -2.4161 0.9752
3.7482 -4.4051 -2.4163 0.9752
3.7756 -4.3821 -2.4164 0.9752
3.8028 -4.3589 -2.4165 0.9752
3.8569 -4.3121 -2.4168 0.9752
3.8837 -4.2884 -2.4170 0.9752
3.9104 -4.2646 -2.4171 0.9752
3.9369 -4.2405 -2.4173 0.9752
3.9633 -4.2164 -2.4174 0.9752
3.9896 -4.1920 -2.4176 0.9752
4.0416 -4.1428 -2.4178 0.9752
4.0673 -4.1180 -2.4180 0.9752
4.1438 -4.0425 -2.4184 0.9752
4.1689 -4.0171 -2.4185 0.9752
4.2188 -3.9656 -2.4188 0.9752
4.2435 -3.9397 -2.4189 0.9752
4.2680 -3.9136 -2.4191 0.9752
4.2923 -3.8873 -2.4192 0.9752
4.3644 -3.8076 -2.4196 0.9752
4.4116 -3.7538 -2.4199 0.9752
4.4582 -3.6993 -2.4201 0.9752
4.4812 -3.6719 -2.4202 0.9752
4.5268 -3.6166 -2.4205 0.9752
4.5493 -3.5887 -2.4206 0.9752
4.5938 -3.5325 -2.4209 0.9752
4.6158 -3.5042 -2.4210 0.9752
4.6376 -3.4758 -2.4211 0.9752
4.6807 -3.4185 -2.4214 0.9752
4.7231 -3.3607 -2.4216 0.9752
4.7648 -3.3023 -2.4218 0.9752
4.7853 -3.2729 -2.4219 0.9752
4.8057 -3.2434 -2.4221 0.9752
4.8259 -3.2138 -2.4222 0.9752
4.8459 -3.1840 -2.4223 0.9752
4.8854 -3.1242 -2.4225 0.9752
4.9432 -3.0334 -2.4228 0.9752
4.9807 -2.9723 -2.4231 0.9752
4.9993 -2.9416 -2.4232 0.9752
5.0357 -2.8798 -2.4234 0.9752
5.0536 -2.8487 -2.4235 0.9752
5.0714 -2.8175 -2.4236 0.9752
5.1234 -2.7233 -2.4239 0.9752
5.1571 -2.6599 -2.4241 0.9752
5.1900 -2.5962 -2.4243 0.9752
5.2379 -2.4997 -2.4246 0.9752
5.2689 -2.4349 -2.4248 0.9752
5.2840 -2.4024 -2.4249 0.9752
5.3137 -2.3370 -2.4250 0.9751
5.3283 -2.3042 -2.4251 0.9751
5.3426 -2.2713 -2.4252 0.9751
5.3567 -2.2383 -2.4253 0.9751
5.3844 -2.1720 -2.4255 0.9751
5.3979 -2.1387 -2.4256 0.9751
5.4112 -2.1054 -2.4256 0.9751
5.4372 -2.0385 -2.4258 0.9751
5.4499 -2.0049 -2.4259 0.9751
5.4867 -1.9036 -2.4261 0.9751
5.4985 -1.8697 -2.4262 0.9751
5.5102 -1.8357 -2.4263 0.9751
5.5328 -1.7675 -2.4264 0.9751
5.5546 -1.6991 -2.4266 0.9751
5.5652 -1.6647 -2.4266 0.9751
5.5955 -1.5613 -2.4269 0.9751
5.6147 -1.4921 -2.4270 0.9751
5.6330 -1.4226 -2.4271 0.9751
5.6419 -1.3878 -2.4272 0.9751
5.6589 -1.3180 -2.4273 0.9751
5.6671 -1.2830 -2.4274 0.9751
5.6750 -1.2479 -2.4274 0.9751
5.6828 -1.2128 -2.4275 0.9751
5.6903 -1.1777 -2.4275 0.9751
5.7047 -1.1073 -2.4276 0.9751
5.7308 -0.9659 -2.4279 0.9751
5.7425 -0.8950 -2.4280 0.9751
5.7481 -0.8595 -2.4280 0.9751
5.7585 -0.7884 -2.4281 0.9751
5.7634 -0.7528 -2.4281 0.9751
5.7680 -0.7171 -2.4282 0.9751
5.7806 -0.6100 -2.4283 0.9751
5.7879 -0.5385 -2.4284 0.9751
5.7998 -0.3952 -2.4285 0.9751
5.8022 -0.3593 -2.4285 0.9751
5.8044 -0.3234 -2.4286 0.9751
5.8063 -0.2875 -2.4286 0.9751
5.8096 -0.2157 -2.4287 0.9751
5.8109 -0.1798 -2.4287 0.9751
5.8120 -0.1438 -2.4287 0.9751
5.8137 -0.0360 -2.4288 0.9751
5.8139 -0.0000 -2.4288 0.9751
5.8130 0.1078 -2.4289 0.9751
5.8123 0.1438 -2.4289 0.9751
5.8088 0.2516 -2.4289 0.9751
5.8032 0.3593 -2.4290 0.9751
5.8009 0.3952 -2.4290 0.9751
5.7956 0.4669 -2.4290 0.9751
5.7926 0.5027 -2.4290 0.9751
5.7894 0.5386 -2.4290 0.9751
5.7859 0.5744 -2.4290 0.9751
5.7823 0.6101 -2.4290 0.9751
5.7784 0.6459 -2.4290 0.9751
5.7655 0.7530 -2.4290 0.9751
5.7450 0.8953 -2.4290 0.9751
5.7393 0.9309 -2.4290 0.9751
5.7273 1.0018 -2.4290 0.9751
5.7145 1.0725 -2.4289 0.9751
5.7077 1.1078 -2.4289 0.9751
5.7007 1.1431 -2.4289 0.9751
5.6935 1.1783 -2.4289 0.9751
5.6861 1.2135 -2.4289 0.9751
5.6784 1.2486 -2.4289 0.9751
5.6279 1.4583 -2.4287 0.9751
5.6187 1.4931 -2.4287 0.9751
5.6093 1.5278 -2.4287 0.9751
5.5997 1.5624 -2.4287 0.9751
5.5150 1.8372 -2.4284 0.9751
5.5034 1.8713 -2.4284 0.9751
5.4917 1.9053 -2.4283 0.9751
5.4675 1.9730 -2.4283 0.9751
5.4551 2.0067 -2.4282 0.9751
5.4425 2.0404 -2.4282 0.9751
5.4296 2.0740 -2.4281 0.9751
5.4034 2.1409 -2.4280 0.9751
5.3900 2.1742 -2.4280 0.9751
5.3763 2.2075 -2.4279 0.9751
5.3625 2.2406 -2.4279 0.9751
5.3484 2.2737 -2.4278 0.9751
5.3341 2.3067 -2.4278 0.9751
5.3197 2.3396 -2.4277 0.9751
5.3050 2.3724 -2.4277 0.9751
5.2901 2.4051 -2.4276 0.9751
5.2597 2.4702 -2.4275 0.9751
5.2285 2.5350 -2.4274 0.9751
5.1964 2.5993 -2.4273 0.9751
5.1470 2.6951 -2.4271 0.9751
5.0605 2.8525 -2.4268 0.9751
5.0426 2.8837 -2.4267 0.9751
5.0245 2.9147 -2.4266 0.9751
5.0062 2.9457 -2.4266 0.9751
4.9691 3.0072 -2.4264 0.9751
4.9121 3.0985 -2.4262 0.9751
4.8926 3.1287 -2.4261 0.9751
4.8532 3.1888 -2.4260 0.9751
4.8333 3.2187 -2.4259 0.9751
4.7722 3.3074 -2.4256 0.9751
4.7306 3.3660 -2.4255 0.9751
4.6883 3.4240 -2.4253 0.9751
4.6669 3.4528 -2.4252 0.9751
4.6453 3.4815 -2.4251 0.9751
4.6015 3.5384 -2.4249 0.9752
4.5794 3.5667 -2.4248 0.9752
4.5346 3.6227 -2.4247 0.9752
4.5119 3.6506 -2.4246 0.9752
4.4890 3.6783 -2.4245 0.9752
4.4661 3.7058 -2.4244 0.9752
4.4195 3.7604 -2.4242 0.9752
4.3960 3.7875 -2.4241 0.9752
4.3723 3.8145 -2.4240 0.9752
4.3485 3.8413 -2.4239 0.9752
4.3245 3.8680 -2.4238 0.9752
4.2019 3.9989 -2.4233 0.9752
4.1769 4.0247 -2.4231 0.9752
4.0236 4.1757 -2.4225 0.9752
3.9713 4.2248 -2.4223 0.9752
3.8917 4.2971 -2.4219 0.9752
3.8379 4.3445 -2.4217 0.9752
3.7835 4.3912 -2.4214 0.9752
3.7560 4.4143 -2.4213 0.9752
3.7285 4.4372 -2.4212 0.9752
3.6730 4.4825 -2.4210 0.9752
3.6450 4.5049 -2.4208 0.9752
3.6168 4.5272 -2.4207 0.9752
3.5886 4.5492 -2.4206 0.9752
3.5602 4.5711 -2.4205 0.9752
3.5317 4.5928 -2.4203 0.9752
3.5030 4.6143 -2.4202 0.9752
3.4743 4.6356 -2.4201 0.9752
3.4453 4.6568 -2.4200 0.9752
3.3591 4.6597 -2.3997 0.9754
3.1773 4.6455 -2.3512 0.9759
3.0902 4.6403 -2.3290 0.9761
3.0472 4.6377 -2.3182 0.9762
2.9625 4.6325 -2.2971 0.9764
2.9206 4.6300 -2.2869 0.9765
2.8424 4.6320 -2.2703 0.9767
2.8064 4.6374 -2.2644 0.9768
2.7776 4.6544 -2.2643 0.9768
2.6609 4.7205 -2.2638 0.9768
2.6315 4.7367 -2.2636 0.9768
2.6063 4.7602 -2.2672 0.9767
2.5427 4.7838 -2.2632 0.9768
2.5129 4.7992 -2.2631 0.9768
2.3929 4.8586 -2.2626 0.9768
2.2714 4.9151 -2.2620 0.9768
2.2102 4.9422 -2.2617 0.9768
2.1487 4.9685 -2.2614 0.9768
2.1178 4.9814 -2.2613 0.9768
2.0557 5.0066 -2.2610 0.9768
2.0246 5.0189 -2.2609 0.9768
1.9934 5.0310 -2.2607 0.9768
1.9621 5.0429 -2.2606 0.9768
1.8993 5.0662 -2.2603 0.9768
1.8678 5.0775 -2.2601 0.9768
1.8363 5.0886 -2.2600 0.9768
1.8046 5.0995 -2.2598 0.9768
1.6775 5.1412 -2.2592 0.9768
1.6456 5.1512 -2.2591 0.9768
1.6136 5.1609 -2.2589 0.9768
1.5816 5.1705 -2.2588 0.9768
1.5495 5.1798 -2.2586 0.9768
1.4528 5.2066 -2.2582 0.9768
1.4205 5.2151 -2.2580 0.9768
1.3881 5.2235 -2.2579 0.9768
1.3232 5.2395 -2.2576 0.9768
1.2582 5.2548 -2.2573 0.9768
1.2255 5.2621 -2.2571 0.9769
1.1929 5.2692 -2.2570 0.9769
1.1602 5.2761 -2.2568 0.9769
0.9632 5.3133 -2.2559 0.9769
0.8643 5.3292 -2.2554 0.9769
0.8313 5.3341 -2.2552 0.9769
0.7321 5.3474 -2.2548 0.9769
0.6989 5.3515 -2.2546 0.9769
0.6326 5.3590 -2.2543 0.9769
0.5994 5.3624 -2.2541 0.9769
0.5330 5.3686 -2.2538 0.9769
0.4997 5.3714 -2.2536 0.9769
0.4664 5.3740 -2.2535 0.9769
0.2666 5.3853 -2.2525 0.9769
0.2333 5.3865 -2.2524 0.9769
0.0999 5.3891 -2.2517 0.9769
-0.0000 5.3889 -2.2512 0.9769
-0.0999 5.3867 -2.2507 0.9769
-0.1998 5.3828 -2.2503 0.9769
-0.2331 5.3811 -2.2501 0.9769
-0.2663 5.3791 -2.2499 0.9769
-0.4324 5.3664 -2.2491 0.9769
-0.4986 5.3599 -2.2488 0.9769
-0.5979 5.3485 -2.2483 0.9769
-0.6309 5.3443 -2.2481 0.9769
-0.6968 5.3353 -2.2478 0.9769
-0.7297 5.3305 -2.2477 0.9769
-0.8284 5.3149 -2.2472 0.9770
-0.8939 5.3035 -2.2468 0.9770
-0.9593 5.2913 -2.2465 0.9770
-0.9919 5.2849 -2.2464 0.9770
-1.0245 5.2783 -2.2462 0.9770
-1.0896 5.2644 -2.2459 0.9770
-1.2191 5.2344 -2.2452 0.9770
-1.2835 5.2181 -2.2449 0.9770
-1.3798 5.1923 -2.2444 0.9770
-1.5074 5.1551 -2.2438 0.9770
-1.5708 5.1354 -2.2435 0.9770
-1.6654 5.1042 -2.2430 0.9770
-1.6969 5.0935 -2.2428 0.9770
-1.7595 5.0714 -2.2425 0.9770
-1.7907 5.0601 -2.2423 0.9770
-1.8219 5.0485 -2.2422 0.9770
-1.8529 5.0368 -2.2420 0.9770
-1.8839 5.0249 -2.2419 0.9770
-1.9148 5.0128 -2.2417 0.9770
-2.0070 4.9754 -2.2412 0.9770
-2.0376 4.9625 -2.2411 0.9770
-2.1893 4.8955 -2.2403 0.9770
-2.2194 4.8815 -2.2402 0.9770
-2.2494 4.8673 -2.2400 0.9770
-2.2793 4.8530 -2.2399 0.9770
-2.3388 4.8238 -2.2395 0.9770
-2.3979 4.7938 -2.2392 0.9770
-2.4274 4.7786 -2.2391 0.9770
-2.4567 4.7632 -2.2389 0.9770
-2.4860 4.7476 -2.2388 0.9770
-2.5151 4.7318 -2.2386 0.9770
-2.5442 4.7158 -2.2385 0.9770
-2.7218 4.6918 -2.2660 0.9768
-2.8403 4.6933 -2.2917 0.9765
-2.9208 4.6942 -2.3096 0.9763
-2.9614 4.6946 -2.3188 0.9762
-3.1275 4.6962 -2.3571 0.9758
-3.1698 4.6966 -2.3671 0.9757
-3.2125 4.6970 -2.3772 0.9756
-3.2554 4.6970 -2.3874 0.9755
-3.2842 4.6765 -2.3873 0.9755
-3.3128 4.6558 -2.3871 0.9755
-3.3413 4.6350 -2.3870 0.9755
-3.3697 4.6139 -2.3868 0.9755
-3.3980 4.5927 -2.3867 0.9755
-3.4541 4.5498 -2.3864 0.9755
-3.4820 4.5280 -2.3862 0.9755
-3.5097 4.5061 -2.3861 0.9755
-3.5372 4.4840 -2.3859 0.9755
-3.5920 4.4394 -2.3856 0.9755
-3.6730 4.3712 -2.3852 0.9756
-3.7264 4.3249 -2.3849 0.9756
-3.7528 4.3016 -2.3848 0.9756
-3.8053 4.2543 -2.3845 0.9756
-3.8313 4.2305 -2.3844 0.9756
-3.8572 4.2065 -2.3842 0.9756
-3.9339 4.1334 -2.3838 0.9756
-3.9591 4.1088 -2.3837 0.9756
-4.0586 4.0087 -2.3831 0.9756
-4.1074 3.9578 -2.3829 0.9756
-4.1316 3.9321 -2.3827 0.9756
-4.1556 3.9062 -2.3826 0.9756
-4.1795 3.8802 -2.3825 0.9756
-4.2032 3.8541 -2.3823 0.9756
-4.2963 3.7481 -2.3818 0.9756
-4.3419 3.6943 -2.3816 0.9756
-4.3644 3.6672 -2.3814 0.9756
-4.4310 3.5851 -2.3811 0.9756
-4.6215 3.3315 -2.3800 0.9756
-4.6618 3.2738 -2.3798 0.9756
-4.6818 3.2447 -2.3797 0.9756
-4.7405 3.1569 -2.3793 0.9756
-4.7597 3.1274 -2.3792 0.9756
-4.7787 3.0977 -2.3791 0.9756
-4.7976 3.0680 -2.3790 0.9756
-4.8348 3.0081 -2.3788 0.9756
-4.8712 2.9479 -2.3786 0.9756
-4.8891 2.9175 -2.3785 0.9756
-4.9068 2.8871 -2.3784 0.9756
-4.9243 2.8566 -2.3783 0.9756
-4.9589 2.7952 -2.3781 0.9756
-4.9927 2.7335 -2.3779 0.9756
-5.0093 2.7024 -2.3778 0.9756
-5.0257 2.6713 -2.3777 0.9756
-5.1049 2.5141 -2.3772 0.9756
-5.1500 2.4187 -2.3769 0.9756
-5.1647 2.3867 -2.3768 0.9756
-5.1934 2.3225 -2.3767 0.9756
-5.2214 2.2579 -2.3765 0.9756
-5.2618 2.1604 -2.3762 0.9756
-5.2749 2.1278 -2.3761 0.9756
-5.3004 2.0622 -2.3760 0.9756
-5.3492 1.9303 -2.3757 0.9756
-5.3835 1.8305 -2.3754 0.9757
-5.4054 1.7637 -2.3753 0.9757
-5.4265 1.6966 -2.3752 0.9757
-5.4367 1.6630 -2.3751 0.9757
-5.4566 1.5955 -2.3750 0.9757
-5.4662 1.5617 -2.3749 0.9757
-5.4848 1.4939 -2.3748 0.9757
-5.4938 1.4599 -2.3747 0.9757
-5.5195 1.3576 -2.3745 0.9757
-5.5433 1.2549 -2.3743 0.9757
-5.5581 1.1862 -2.3742 0.9757
-5.5652 1.1518 -2.3742 0.9757
-5.5788 1.0828 -2.3741 0.9757
-5.5853 1.0483 -2.3740 0.9757
-5.6145 0.8750 -2.3738 0.9757
-5.6294 0.7706 -2.3736 0.9757
-5.6339 0.7358 -2.3736 0.9757
-5.6425 0.6660 -2.3735 0.9757
-5.6463 0.6311 -2.3735 0.9757
-5.6501 0.5962 -2.3734 0.9757
-5.6535 0.5612 -2.3734 0.9757
-5.6599 0.4912 -2.3733 0.9757
-5.6678 0.3861 -2.3732 0.9757
-5.6738 0.2809 -2.3732 0.9757
-5.6753 0.2458 -2.3731 0.9757
-5.6778 0.1756 -2.3731 0.9757
-5.6788 0.1405 -2.3730 0.9757
-5.6799 0.0702 -2.3730 0.9757
-5.6802 0.0351 -2.3730 0.9757
-5.5651 -0.0000 -2.3735 0.9761
-5.5645 -0.0688 -2.3735 0.9761
-5.5622 -0.1721 -2.3734 0.9761
-5.5610 -0.2065 -2.3734 0.9761
-5.5580 -0.2752 -2.3734 0.9761
-5.5562 -0.3096 -2.3734 0.9761
-5.5494 -0.4126 -2.3734 0.9761
-5.5467 -0.4469 -2.3734 0.9761
-5.5438 -0.4812 -2.3733 0.9761
-5.5408 -0.5155 -2.3733 0.9761
-5.5339 -0.5840 -2.3733 0.9761
-5.5263 -0.6524 -2.3733 0.9761
-5.5178 -0.7207 -2.3733 0.9761
-5.5132 -0.7548 -2.3733 0.9761
-5.5085 -0.7889 -2.3733 0.9761
-5.4873 -0.9249 -2.3734 0.9761
-5.4815 -0.9588 -2.3734 0.9761
-5.4755 -0.9927 -2.3734 0.9761
-5.4629 -1.0604 -2.3734 0.9761
-5.4562 -1.0941 -2.3734 0.9761
-5.4494 -1.1278 -2.3734 0.9761
-5.4351 -1.1952 -2.3735 0.9761
-5.4200 -1.2623 -2.3735 0.9761
-5.4041 -1.3293 -2.3735 0.9761
-5.3958 -1.3627 -2.3736 0.9761
-5.3873 -1.3960 -2.3736 0.9761
-5.3697 -1.4626 -2.3736 0.9761
-5.3606 -1.4958 -2.3737 0.9761
-5.3513 -1.5289 -2.3737 0.9761
-5.3418 -1.5620 -2.3737 0.9761
-5.3322 -1.5950 -2.3737 0.9761
-5.3222 -1.6280 -2.3738 0.9761
-5.3121 -1.6609 -2.3738 0.9761
-5.2913 -1.7265 -2.3739 0.9761
-5.2697 -1.7919 -2.3739 0.9761
-5.2473 -1.8570 -2.3740 0.9761
-5.2241 -1.9218 -2.3741 0.9761
-5.1753 -2.0506 -2.3742 0.9761
-5.1626 -2.0826 -2.3743 0.9761
-5.1367 -2.1464 -2.3744 0.9761
-5.1234 -2.1781 -2.3744 0.9761
-5.1100 -2.2098 -2.3745 0.9761
-5.0963 -2.2414 -2.3745 0.9761
-5.0824 -2.2729 -2.3746 0.9761
-5.0541 -2.3357 -2.3747 0.9761
-5.0397 -2.3670 -2.3747 0.9761
-5.0251 -2.3982 -2.3748 0.9761
-5.0103 -2.4292 -2.3748 0.9761
-4.9953 -2.4602 -2.3749 0.9761
-4.9647 -2.5220 -2.3750 0.9761
-4.9013 -2.6442 -2.3752 0.9761
-4.8006 -2.8247 -2.3756 0.9761
-4.7478 -2.9135 -2.3758 0.9761
-4.7299 -2.9429 -2.3759 0.9761
-4.7117 -2.9722 -2.3760 0.9761
-4.6749 -3.0304 -2.3761 0.9761
-4.6562 -3.0594 -2.3762 0.9761
-4.6183 -3.1169 -2.3763 0.9761
-4.5601 -3.2024 -2.3766 0.9761
-4.4391 -3.3701 -2.3771 0.9761
-4.4183 -3.3976 -2.3772 0.9761
-4.3974 -3.4250 -2.3772 0.9761
-4.3336 -3.5063 -2.3775 0.9761
-4.3120 -3.5332 -2.3776 0.9760
-4.2902 -3.5599 -2.3777 0.9760
-4.2462 -3.6130 -2.3779 0.9760
-4.1789 -3.6916 -2.3781 0.9760
-4.0870 -3.7944 -2.3785 0.9760
-4.0636 -3.8198 -2.3786 0.9760
-4.0164 -3.8701 -2.3788 0.9760
-3.9926 -3.8950 -2.3789 0.9760
-3.9444 -3.9445 -2.3791 0.9760
-3.9201 -3.9689 -2.3792 0.9760
-3.8957 -3.9933 -2.3794 0.9760
-3.8711 -4.0175 -2.3795 0.9760
-3.8463 -4.0415 -2.3796 0.9760
-3.7459 -4.1362 -2.3800 0.9760
-3.7204 -4.1595 -2.3801 0.9760
-3.6690 -4.2055 -2.3803 0.9760
-3.6431 -4.2283 -2.3804 0.9760
-3.4847 -4.3619 -2.3811 0.9760
-3.4579 -4.3836 -2.3813 0.9760
-3.4309 -4.4051 -2.3814 0.9760
-3.3216 -4.4895 -2.3819 0.9760
-3.2661 -4.5307 -2.3821 0.9760
-3.2101 -4.5712 -2.3824 0.9760
-3.0681 -4.6695 -2.3830 0.9760
-3.0105 -4.7076 -2.3832 0.9760
-2.9814 -4.7264 -2.3834 0.9760
-2.9231 -4.7635 -2.3836 0.9760
-2.8347 -4.8177 -2.3840 0.9760
-2.7752 -4.8529 -2.3843 0.9760
-2.7453 -4.8703 -2.3844 0.9760
-2.6852 -4.9044 -2.3847 0.9760
-2.6549 -4.9212 -2.3849 0.9760
-2.6246 -4.9378 -2.3850 0.9760
-2.5942 -4.9542 -2.3851 0.9760
-2.5636 -4.9705 -2.3853 0.9760
-2.4405 -5.0335 -2.3858 0.9760
-2.3783 -5.0639 -2.3861 0.9760
-2.3471 -5.0788 -2.3863 0.9760
-2.2844 -5.1081 -2.3865 0.9760
-2.2529 -5.1225 -2.3867 0.9760
-2.2213 -5.1366 -2.3868 0.9760
-2.1579 -5.1643 -2.3871 0.9760
-2.0941 -5.1913 -2.3874 0.9760
-1.9332 -5.2552 -2.3882 0.9759
-1.9007 -5.2673 -2.3883 0.9759
-1.8030 -5.3027 -2.3888 0.9759
-1.7375 -5.3253 -2.3891 0.9759
-1.6718 -5.3470 -2.3894 0.9759
-1.6057 -5.3680 -2.3897 0.9759
-1.5394 -5.3882 -2.3900 0.9759
-1.5062 -5.3979 -2.3902 0.9759
-1.4061 -5.4260 -2.3906 0.9759
-1.3726 -5.4350 -2.3908 0.9759
-1.3390 -5.4437 -2.3909 0.9759
-1.3054 -5.4522 -2.3911 0.9759
-1.1704 -5.4843 -2.3917 0.9759
-1.1027 -5.4991 -2.3921 0.9759
-1.0347 -5.5131 -2.3924 0.9759
-0.9666 -5.5262 -2.3927 0.9759
-0.9324 -5.5325 -2.3929 0.9759
-0.8298 -5.5499 -2.3934 0.9759
-0.7955 -5.5553 -2.3935 0.9759
-0.6925 -5.5703 -2.3940 0.9759
-0.6580 -5.5748 -2.3942 0.9759
-0.5891 -5.5833 -2.3945 0.9759
-0.5201 -5.5909 -2.3948 0.9759
-0.4164 -5.6008 -2.3953 0.9759
-0.3125 -5.6087 -2.3958 0.9759
-0.2778 -5.6109 -2.3960 0.9759
-0.2431 -5.6130 -2.3962 0.9759
-0.2085 -5.6147 -2.3963 0.9759
-0.1737 -5.6163 -2.3965 0.9759
-0.1043 -5.6188 -2.3968 0.9759
-0.0348 -5.6205 -2.3972 0.9759
0.0000 -5.6210 -2.3974 0.9759
0.0348 -5.6213 -2.3975 0.9759
0.1043 -5.6212 -2.3979 0.9758
0.2086 -5.6195 -2.3984 0.9758
0.2781 -5.6173 -2.3987 0.9758
0.3824 -5.6123 -2.3992 0.9758
0.4171 -5.6102 -2.3994 0.9758
0.4865 -5.6055 -2.3997 0.9758
0.5212 -5.6027 -2.3999 0.9758
0.5906 -5.5967 -2.4002 0.9758
0.6252 -5.5933 -2.4004 0.9758
0.7290 -5.5819 -2.4009 0.9758
0.7636 -5.5777 -2.4011 0.9758
0.8671 -5.5638 -2.4016 0.9758
0.9016 -5.5587 -2.4018 0.9758
0.9360 -5.5534 -2.4019 0.9758
1.0734 -5.5301 -2.4026 0.9758
1.1076 -5.5238 -2.4028 0.9758
1.2102 -5.5034 -2.4033 0.9758
1.2783 -5.4888 -2.4036 0.9758
1.3123 -5.4812 -2.4038 0.9758
1.6162 -5.4031 -2.4053 0.9758
1.6832 -5.3835 -2.4057 0.9758
1.7166 -5.3733 -2.4058 0.9758
1.7499 -5.3630 -2.4060 0.9758
1.7831 -5.3524 -2.4062 0.9758
1.8163 -5.3417 -2.4063 0.9758
1.9155 -5.3082 -2.4068 0.9758
1.9813 -5.2848 -2.4072 0.9758
2.0141 -5.2728 -2.4073 0.9758
2.0468 -5.2606 -2.4075 0.9758
2.0794 -5.2482 -2.4077 0.9758
2.1120 -5.2356 -2.4078 0.9757
2.1769 -5.2098 -2.4082 0.9757
2.2092 -5.1966 -2.4083 0.9757
2.3057 -5.1558 -2.4088 0.9757
2.4014 -5.1132 -2.4093 0.9757
2.4964 -5.0688 -2.4098 0.9757
2.5279 -5.0536 -2.4100 0.9757
2.6217 -5.0068 -2.4104 0.9757
2.6838 -4.9747 -2.4108 0.9757
2.7146 -4.9583 -2.4109 0.9757
2.7455 -4.9417 -2.4111 0.9757
2.8067 -4.9080 -2.4114 0.9757
2.8372 -4.8909 -2.4116 0.9757
2.8676 -4.8736 -2.4117 0.9757
2.8979 -4.8561 -2.4119 0.9757
2.9581 -4.8205 -2.4122 0.9757
2.9880 -4.8024 -2.4123 0.9757
3.0476 -4.7657 -2.4126 0.9757
3.0772 -4.7471 -2.4128 0.9757
3.1067 -4.7283 -2.4130 0.9757
3.1361 -4.7092 -2.4131 0.9757
3.1654 -4.6901 -2.4133 0.9757
3.2812 -4.6115 -2.4139 0.9757
3.3384 -4.5711 -2.4142 0.9757
3.3668 -4.5507 -2.4143 0.9757
3.3951 -4.5300 -2.4145 0.9757
3.4233 -4.5092 -2.4146 0.9757
3.4792 -4.4671 -2.4149 0.9757
3.5346 -4.4243 -2.4152 0.9757
3.6167 -4.3587 -2.4156 0.9757
3.6708 -4.3142 -2.4159 0.9757
3.6976 -4.2916 -2.4161 0.9757
3.7243 -4.2689 -2.4162 0.9757
3.7509 -4.2461 -2.4164 0.9757
3.7773 -4.2231 -2.4165 0.9757
3.8036 -4.1999 -2.4166 0.9757
3.8815 -4.1293 -2.4171 0.9757
3.9071 -4.1054 -2.4172 0.9757
3.9327 -4.0814 -2.4173 0.9757
3.9581 -4.0573 -2.4175 0.9757
4.0334 -3.9838 -2.4179 0.9756
4.0582 -3.9590 -2.4180 0.9756
4.0828 -3.9341 -2.4182 0.9756
4.1073 -3.9090 -2.4183 0.9756
4.1316 -3.8837 -2.4184 0.9756
4.1558 -3.8582 -2.4186 0.9756
4.2273 -3.7811 -2.4189 0.9756
4.2509 -3.7551 -2.4191 0.9756
4.2974 -3.7026 -2.4193 0.9756
4.3204 -3.6762 -2.4195 0.9756
4.3433 -3.6496 -2.4196 0.9756
4.3886 -3.5960 -2.4198 0.9756
4.4110 -3.5689 -2.4200 0.9756
4.4331 -3.5418 -2.4201 0.9756
4.4552 -3.5145 -2.4202 0.9756
4.4771 -3.4870 -2.4203 0.9756
4.4988 -3.4594 -2.4204 0.9756
4.5203 -3.4317 -2.4206 0.9756
4.6254 -3.2911 -2.4212 0.9756
4.6459 -3.2626 -2.4213 0.9756
4.7062 -3.1763 -2.4216 0.9756
4.7261 -3.1473 -2.4217 0.9756
4.7457 -3.1182 -2.4218 0.9756
4.7650 -3.0889 -2.4219 0.9756
4.7843 -3.0595 -2.4221 0.9756
4.8593 -2.9408 -2.4225 0.9756
4.8777 -2.9108 -2.4226 0.9756
4.9314 -2.8201 -2.4229 0.9756
4.9490 -2.7897 -2.4230 0.9756
4.9664 -2.7592 -2.4231 0.9756
5.0005 -2.6978 -2.4233 0.9756
5.0826 -2.5424 -2.4238 0.9756
5.0984 -2.5110 -2.4239 0.9756
5.2037 -2.2886 -2.4245 0.9756
5.2179 -2.2565 -2.4246 0.9756
5.2320 -2.2242 -2.4247 0.9756
5.2458 -2.1919 -2.4248 0.9756
5.2729 -2.1270 -2.4250 0.9756
5.2991 -2.0618 -2.4251 0.9756
5.3492 -1.9303 -2.4254 0.9756
5.3730 -1.8642 -2.4256 0.9756
5.3846 -1.8310 -2.4257 0.9756
5.3959 -1.7977 -2.4258 0.9756
5.4071 -1.7643 -2.4258 0.9756
5.4181 -1.7309 -2.4259 0.9756
5.4289 -1.6974 -2.4260 0.9756
5.4796 -1.5290 -2.4263 0.9756
5.4983 -1.4611 -2.4264 0.9756
5.5074 -1.4272 -2.4265 0.9756
5.5333 -1.3248 -2.4267 0.9756
5.5416 -1.2906 -2.4267 0.9756
5.5864 -1.0843 -2.4271 0.9756
5.5931 -1.0498 -2.4271 0.9756
5.6059 -0.9805 -2.4272 0.9756
5.6120 -0.9459 -2.4273 0.9756
5.6178 -0.9112 -2.4273 0.9756
5.6289 -0.8417 -2.4274 0.9756
5.6391 -0.7720 -2.4275 0.9756
5.6438 -0.7371 -2.4276 0.9756
5.6607 -0.5973 -2.4277 0.9756
5.6711 -0.4923 -2.4278 0.9755
5.6741 -0.4572 -2.4279 0.9755
5.6795 -0.3870 -2.4279 0.9755
5.6840 -0.3167 -2.4280 0.9755
5.6859 -0.2816 -2.4280 0.9755
5.6876 -0.2464 -2.4281 0.9755
5.6891 -0.2112 -2.4281 0.9755
5.6914 -0.1408 -2.4281 0.9755
5.6928 -0.0704 -2.4282 0.9755
5.6932 -0.0352 -2.4282 0.9755
5.6932 0.0352 -2.4282 0.9755
5.6929 0.0704 -2.4283 0.9755
5.6925 0.1056 -2.4283 0.9755
5.6918 0.1408 -2.4283 0.9755
5.6908 0.1760 -2.4283 0.9755
5.6897 0.2112 -2.4283 0.9755
5.6883 0.2464 -2.4283 0.9755
5.6848 0.3167 -2.4284 0.9755
5.6805 0.3870 -2.4284 0.9755
5.6754 0.4572 -2.4284 0.9755
5.6724 0.4923 -2.4284 0.9755
5.6693 0.5274 -2.4284 0.9755
5.6585 0.6325 -2.4284 0.9755
5.6545 0.6675 -2.4284 0.9755
5.6503 0.7024 -2.4284 0.9755
5.6363 0.8071 -2.4284 0.9755
5.6311 0.8420 -2.4284 0.9755
5.6258 0.8767 -2.4284 0.9755
5.6085 0.9810 -2.4284 0.9755
5.5959 1.0503 -2.4283 0.9755
5.5606 1.2227 -2.4283 0.9755
5.5529 1.2571 -2.4283 0.9755
5.5450 1.2914 -2.4282 0.9755
5.5368 1.3256 -2.4282 0.9755
5.5199 1.3940 -2.4282 0.9755
5.5021 1.4621 -2.4281 0.9755
5.4929 1.4961 -2.4281 0.9755
5.4739 1.5639 -2.4280 0.9755
5.4640 1.5977 -2.4280 0.9755
5.4437 1.6651 -2.4280 0.9755
5.4333 1.6987 -2.4279 0.9755
5.4225 1.7322 -2.4279 0.9755
5.4117 1.7657 -2.4279 0.9755
5.4006 1.7991 -2.4278 0.9755
5.3661 1.8989 -2.4277 0.9756
5.3541 1.9321 -2.4277 0.9756
5.3420 1.9651 -2.4276 0.9756
5.3171 2.0309 -2.4276 0.9756
5.2913 2.0965 -2.4275 0.9756
5.2782 2.1291 -2.4274 0.9756
5.2648 2.1617 -2.4274 0.9756
5.2512 2.1942 -2.4273 0.9756
5.2235 2.2588 -2.4272 0.9756
5.2093 2.2911 -2.4272 0.9756
5.1949 2.3232 -2.4271 0.9756
5.1200 2.4824 -2.4269 0.9756
5.0728 2.5768 -2.4267 0.9756
5.0402 2.6392 -2.4266 0.9756
4.9556 2.7934 -2.4262 0.9756
4.9380 2.8239 -2.4262 0.9756
4.9204 2.8543 -2.4261 0.9756
4.8844 2.9148 -2.4260 0.9756
4.8477 2.9748 -2.4258 0.9756
4.8291 3.0046 -2.4257 0.9756
4.8102 3.0343 -2.4257 0.9756
4.7527 3.1227 -2.4254 0.9756
4.7331 3.1520 -2.4254 0.9756
4.6326 3.2962 -2.4249 0.9756
4.6120 3.3247 -2.4249 0.9756
4.5490 3.4093 -2.4246 0.9756
4.5062 3.4651 -2.4244 0.9756
4.4406 3.5477 -2.4242 0.9756
4.4185 3.5749 -2.4241 0.9756
4.3961 3.6021 -2.4240 0.9756
4.3736 3.6291 -2.4239 0.9756
4.3280 3.6826 -2.4237 0.9756
4.3049 3.7091 -2.4236 0.9756
4.2349 3.7879 -2.4233 0.9756
4.1874 3.8396 -2.4231 0.9756
4.1149 3.9162 -2.4228 0.9756
4.0904 3.9414 -2.4227 0.9756
4.0658 3.9664 -2.4226 0.9756
3.9657 4.0651 -2.4221 0.9756
3.9404 4.0893 -2.4220 0.9756
3.9148 4.1134 -2.4219 0.9756
3.8111 4.2082 -2.4215 0.9756
3.7849 4.2315 -2.4214 0.9756
3.7585 4.2546 -2.4212 0.9756
3.7319 4.2776 -2.4211 0.9756
3.7052 4.3004 -2.4210 0.9756
3.6783 4.3230 -2.4209 0.9756
3.6243 4.3677 -2.4207 0.9756
3.5144 4.4551 -2.4202 0.9756
3.4587 4.4978 -2.4199 0.9756
3.4306 4.5189 -2.4198 0.9756
3.4024 4.5398 -2.4197 0.9756
3.3171 4.6014 -2.4193 0.9756
3.2596 4.6416 -2.4190 0.9756
3.2157 4.6398 -2.4077 0.9758
3.1267 4.6328 -2.3838 0.9760
3.0404 4.6273 -2.3614 0.9762
2.9979 4.6247 -2.3506 0.9763
2.9558 4.6222 -2.3400 0.9764
2.7911 4.6121 -2.2993 0.9768
2.7508 4.6096 -2.2895 0.9769
2.6739 4.6093 -2.2727 0.9771
2.6373 4.6118 -2.2659 0.9772
2.6060 4.6231 -2.2635 0.9772
2.5194 4.6698 -2.2631 0.9772
2.4903 4.6850 -2.2629 0.9772
2.4318 4.7149 -2.2627 0.9772
2.4025 4.7296 -2.2625 0.9772
2.3731 4.7441 -2.2624 0.9772
2.3139 4.7725 -2.2621 0.9772
2.2842 4.7864 -2.2620 0.9772
2.2544 4.8002 -2.2618 0.9772
2.2246 4.8137 -2.2617 0.9772
2.1946 4.8271 -2.2616 0.9772
2.1646 4.8403 -2.2614 0.9772
2.0437 4.8911 -2.2609 0.9772
1.9523 4.9273 -2.2605 0.9772
1.8293 4.9728 -2.2599 0.9772
1.7984 4.9837 -2.2597 0.9772
1.7674 4.9944 -2.2596 0.9772
1.7053 5.0152 -2.2593 0.9772
1.6742 5.0254 -2.2592 0.9772
1.6429 5.0353 -2.2590 0.9772
1.5490 5.0639 -2.2586 0.9772
1.5175 5.0731 -2.2584 0.9772
1.4545 5.0908 -2.2581 0.9772
1.3912 5.1077 -2.2578 0.9772
1.3595 5.1159 -2.2577 0.9772
1.3277 5.1239 -2.2575 0.9772
1.2959 5.1316 -2.2574 0.9772
1.2641 5.1392 -2.2572 0.9772
1.2322 5.1466 -2.2571 0.9772
1.2003 5.1537 -2.2569 0.9773
1.1042 5.1741 -2.2565 0.9773
1.0722 5.1805 -2.2563 0.9773
0.9434 5.2040 -2.2557 0.9773
0.8789 5.2145 -2.2554 0.9773
0.8142 5.2243 -2.2551 0.9773
0.7170 5.2374 -2.2546 0.9773
0.6846 5.2414 -2.2545 0.9773
0.6521 5.2452 -2.2543 0.9773
0.6196 5.2487 -2.2542 0.9773
0.5871 5.2521 -2.2540 0.9773
0.4243 5.2659 -2.2532 0.9773
0.3590 5.2700 -2.2529 0.9773
0.2938 5.2733 -2.2526 0.9773
0.2612 5.2747 -2.2524 0.9773
0.2285 5.2758 -2.2523 0.9773
0.1959 5.2768 -2.2521 0.9773
0.0326 5.2784 -2.2513 0.9773
-0.0000 5.2782 -2.2512 0.9773
-0.0653 5.2770 -2.2509 0.9773
-0.0979 5.2761 -2.2507 0.9773
-0.1632 5.2738 -2.2504 0.9773
-0.2283 5.2706 -2.2501 0.9773
-0.2609 5.2687 -2.2499 0.9773
-0.3585 5.2619 -2.2494 0.9773
-0.5532 5.2427 -2.2485 0.9773
-0.5856 5.2388 -2.2483 0.9773
-0.6179 5.2347 -2.2481 0.9773
-0.7148 5.2212 -2.2477 0.9773
-0.7470 5.2164 -2.2475 0.9773
-0.7792 5.2113 -2.2473 0.9773
-0.8114 5.2060 -2.2472 0.9773
-0.9396 5.1829 -2.2465 0.9774
-0.9716 5.1766 -2.2464 0.9774
-1.0354 5.1634 -2.2461 0.9774
-1.1308 5.1423 -2.2456 0.9774
-1.2572 5.1113 -2.2450 0.9774
-1.4142 5.0682 -2.2442 0.9774
-1.6621 4.9893 -2.2429 0.9774
-1.6929 4.9785 -2.2428 0.9774
-1.7846 4.9453 -2.2423 0.9774
-1.8150 4.9338 -2.2422 0.9774
-1.8453 4.9221 -2.2420 0.9774
-1.9058 4.8983 -2.2417 0.9774
-1.9359 4.8860 -2.2415 0.9774
-1.9660 4.8736 -2.2414 0.9774
-1.9959 4.8611 -2.2412 0.9774
-2.0258 4.8483 -2.2411 0.9774
-2.0557 4.8354 -2.2409 0.9774
-2.1446 4.7954 -2.2405 0.9774
-2.1740 4.7817 -2.2403 0.9774
-2.2034 4.7678 -2.2402 0.9774
-2.2910 4.7252 -2.2397 0.9774
-2.3201 4.7107 -2.2396 0.9774
-2.3490 4.6959 -2.2394 0.9774
-2.4160 4.6843 -2.2480 0.9773
-2.4878 4.6805 -2.2607 0.9772
-2.5254 4.6810 -2.2685 0.9771
-2.6781 4.6830 -2.3009 0.9768
-2.8352 4.6849 -2.3355 0.9765
-2.9155 4.6857 -2.3537 0.9763
-2.9561 4.6861 -2.3631 0.9762
-2.9970 4.6865 -2.3726 0.9761
-3.1037 4.6605 -2.3881 0.9759
-3.1322 4.6409 -2.3880 0.9759
-3.1606 4.6211 -2.3878 0.9759
-3.1890 4.6012 -2.3877 0.9759
-3.2452 4.5609 -2.3874 0.9760
-3.3010 4.5198 -2.3871 0.9760
-3.3287 4.4990 -2.3870 0.9760
-3.3562 4.4781 -2.3868 0.9760
-3.4381 4.4142 -2.3864 0.9760
-3.4920 4.3709 -2.3861 0.9760
-3.5982 4.2821 -2.3855 0.9760
-3.6505 4.2368 -2.3852 0.9760
-3.6763 4.2139 -2.3851 0.9760
-3.7021 4.1908 -2.3850 0.9760
-3.7533 4.1443 -2.3847 0.9760
-3.8038 4.0971 -2.3844 0.9760
-3.9031 4.0008 -2.3839 0.9760
-3.9518 3.9518 -2.3836 0.9760
-4.0238 3.8772 -2.3832 0.9760
-4.0710 3.8267 -2.3830 0.9760
-4.0944 3.8013 -2.3828 0.9760
-4.1407 3.7499 -2.3826 0.9760
-4.2088 3.6719 -2.3822 0.9760
-4.2312 3.6456 -2.3821 0.9760
-4.2535 3.6192 -2.3820 0.9760
-4.2755 3.5926 -2.3818 0.9760
-4.3192 3.5391 -2.3816 0.9760
-4.3835 3.4578 -2.3812 0.9760
-4.4046 3.4305 -2.3811 0.9760
-4.4254 3.4030 -2.3810 0.9760
-4.4462 3.3754 -2.3809 0.9760
-4.4872 3.3198 -2.3807 0.9760
-4.5074 3.2919 -2.3805 0.9760
-4.5275 3.2638 -2.3804 0.9760
-4.5473 3.2356 -2.3803 0.9760
-4.5671 3.2072 -2.3802 0.9760
-4.6251 3.1215 -2.3799 0.9760
-4.6441 3.0927 -2.3798 0.9760
-4.6816 3.0347 -2.3795 0.9760
-4.7544 2.9175 -2.3791 0.9760
-4.8071 2.8284 -2.3788 0.9760
-4.8413 2.7686 -2.3786 0.9760
-4.8748 2.7082 -2.3784 0.9760
-4.9236 2.6170 -2.3781 0.9760
-4.9707 2.5249 -2.3778 0.9760
-5.0012 2.4630 -2.3777 0.9760
-5.0309 2.4008 -2.3775 0.9761
-5.0454 2.3696 -2.3774 0.9761
-5.0598 2.3383 -2.3773 0.9761
-5.0739 2.3068 -2.3772 0.9761
-5.0879 2.2753 -2.3771 0.9761
-5.1017 2.2437 -2.3771 0.9761
-5.1287 2.1803 -2.3769 0.9761
-5.1420 2.1485 -2.3768 0.9761
-5.1804 2.0525 -2.3766 0.9761
-5.2051 1.9881 -2.3764 0.9761
-5.2289 1.9235 -2.3763 0.9761
-5.2519 1.8586 -2.3761 0.9761
-5.2742 1.7934 -2.3760 0.9761
-5.3163 1.6621 -2.3757 0.9761
-5.3264 1.6292 -2.3756 0.9761
-5.3552 1.5300 -2.3754 0.9761
-5.3644 1.4968 -2.3753 0.9761
-5.3909 1.3969 -2.3752 0.9761
-5.4075 1.3301 -2.3750 0.9761
-5.4454 1.1621 -2.3748 0.9761
-5.4523 1.1284 -2.3747 0.9761
-5.4656 1.0608 -2.3746 0.9761
-5.4781 0.9931 -2.3745 0.9761
-5.4840 0.9592 -2.3745 0.9761
-5.5006 0.8572 -2.3743 0.9761
-5.5105 0.7891 -2.3742 0.9761
-5.5152 0.7550 -2.3742 0.9761
-5.5239 0.6867 -2.3741 0.9761
-5.5280 0.6525 -2.3741 0.9761
-5.5318 0.6183 -2.3740 0.9761
-5.5355 0.5841 -2.3740 0.9761
-5.5421 0.5155 -2.3739 0.9761
-5.5451 0.4813 -2.3739 0.9761
-5.5528 0.3783 -2.3738 0.9761
-5.5602 0.2408 -2.3737 0.9761
-5.5647 0.0688 -2.3736 0.9761
-5.4538 -0.0000 -2.3741 0.9765
-5.4536 -0.0338 -2.3740 0.9765
-5.4533 -0.0675 -2.3740 0.9765
-5.4484 -0.2360 -2.3740 0.9765
-5.4468 -0.2697 -2.3739 0.9765
-5.4430 -0.3371 -2.3739 0.9765
-5.4408 -0.3707 -2.3739 0.9765
-5.4358 -0.4380 -2.3739 0.9765
-5.4267 -0.5387 -2.3739 0.9765
-5.4030 -0.7397 -2.3739 0.9765
-5.3983 -0.7731 -2.3739 0.9765
-5.3934 -0.8065 -2.3739 0.9765
-5.3830 -0.8731 -2.3739 0.9765
-5.3776 -0.9064 -2.3739 0.9765
-5.3719 -0.9396 -2.3739 0.9765
-5.3536 -1.0391 -2.3740 0.9765
-5.3471 -1.0722 -2.3740 0.9765
-5.3404 -1.1053 -2.3740 0.9765
-5.3335 -1.1383 -2.3740 0.9765
-5.3191 -1.2042 -2.3740 0.9765
-5.3039 -1.2699 -2.3741 0.9765
-5.2960 -1.3027 -2.3741 0.9765
-5.2879 -1.3354 -2.3741 0.9765
-5.2795 -1.3681 -2.3741 0.9765
-5.2710 -1.4008 -2.3741 0.9765
-5.2534 -1.4658 -2.3742 0.9765
-5.2443 -1.4983 -2.3742 0.9765
-5.2350 -1.5308 -2.3743 0.9765
-5.2255 -1.5631 -2.3743 0.9765
-5.1958 -1.6599 -2.3744 0.9765
-5.1855 -1.6920 -2.3744 0.9765
-5.1750 -1.7240 -2.3744 0.9765
-5.1643 -1.7561 -2.3745 0.9765
-5.1196 -1.8833 -2.3746 0.9765
-5.0961 -1.9466 -2.3747 0.9765
-5.0467 -2.0722 -2.3749 0.9765
-5.0339 -2.1034 -2.3749 0.9765
-4.9944 -2.1966 -2.3750 0.9765
-4.9670 -2.2583 -2.3751 0.9765
-4.9530 -2.2890 -2.3752 0.9765
-4.9389 -2.3196 -2.3752 0.9765
-4.8654 -2.4715 -2.3755 0.9765
-4.8501 -2.5016 -2.3756 0.9765
-4.8190 -2.5615 -2.3757 0.9765
-4.7872 -2.6210 -2.3758 0.9765
-4.7711 -2.6507 -2.3759 0.9765
-4.7547 -2.6802 -2.3759 0.9765
-4.7382 -2.7096 -2.3760 0.9765
-4.7214 -2.7389 -2.3761 0.9765
-4.6874 -2.7973 -2.3762 0.9765
-4.6702 -2.8263 -2.3763 0.9765
-4.6528 -2.8552 -2.3763 0.9765
-4.6352 -2.8840 -2.3764 0.9765
-4.5813 -2.9698 -2.3766 0.9765
-4.5630 -2.9981 -2.3767 0.9765
-4.5445 -3.0264 -2.3768 0.9765
-4.5258 -3.0545 -2.3768 0.9765
-4.5070 -3.0826 -2.3769 0.9765
-4.4880 -3.1105 -2.3770 0.9765
-4.4688 -3.1383 -2.3771 0.9765
-4.4495 -3.1660 -2.3771 0.9765
-4.4102 -3.2210 -2.3773 0.9765
-4.3904 -3.2483 -2.3774 0.9765
-4.3704 -3.2755 -2.3775 0.9765
-4.3502 -3.3026 -2.3775 0.9765
-4.3299 -3.3295 -2.3776 0.9765
-4.3093 -3.3563 -2.3777 0.9765
-4.2256 -3.4624 -2.3781 0.9764
-4.1828 -3.5147 -2.3782 0.9764
-4.0504 -3.6683 -2.3788 0.9764
-4.0051 -3.7184 -2.3790 0.9764
-3.9591 -3.7680 -2.3792 0.9764
-3.9359 -3.7925 -2.3793 0.9764
-3.8891 -3.8412 -2.3795 0.9764
-3.8415 -3.8894 -2.3797 0.9764
-3.8176 -3.9132 -2.3798 0.9764
-3.7935 -3.9369 -2.3799 0.9764
-3.6708 -4.0532 -2.3804 0.9764
-3.5954 -4.1212 -2.3807 0.9764
-3.5189 -4.1878 -2.3811 0.9764
-3.4931 -4.2096 -2.3812 0.9764
-3.4410 -4.2529 -2.3814 0.9764
-3.3885 -4.2956 -2.3816 0.9764
-3.3621 -4.3167 -2.3818 0.9764
-3.3354 -4.3376 -2.3819 0.9764
-3.3087 -4.3584 -2.3820 0.9764
-3.2819 -4.3790 -2.3821 0.9764
-3.2006 -4.4398 -2.3825 0.9764
-3.1457 -4.4795 -2.3827 0.9764
-3.1181 -4.4991 -2.3828 0.9764
-3.0904 -4.5185 -2.3830 0.9764
-3.0625 -4.5378 -2.3831 0.9764
-3.0065 -4.5758 -2.3833 0.9764
-2.9783 -4.5945 -2.3835 0.9764
-2.9500 -4.6131 -2.3836 0.9764
-2.8930 -4.6497 -2.3839 0.9764
-2.7195 -4.7554 -2.3846 0.9764
-2.6607 -4.7892 -2.3849 0.9764
-2.5719 -4.8386 -2.3853 0.9764
-2.5421 -4.8547 -2.3854 0.9764
-2.5121 -4.8706 -2.3856 0.9764
-2.4217 -4.9172 -2.3860 0.9764
-2.3914 -4.9324 -2.3861 0.9764
-2.3610 -4.9473 -2.3863 0.9764
-2.2999 -4.9767 -2.3865 0.9764
-2.2692 -4.9912 -2.3867 0.9764
-2.1766 -5.0333 -2.3871 0.9764
-2.0832 -5.0737 -2.3875 0.9764
-2.0520 -5.0868 -2.3877 0.9764
-2.0206 -5.0997 -2.3878 0.9764
-1.9891 -5.1124 -2.3880 0.9764
-1.9576 -5.1250 -2.3881 0.9764
-1.9260 -5.1373 -2.3883 0.9763
-1.8307 -5.1731 -2.3887 0.9763
-1.7988 -5.1846 -2.3889 0.9763
-1.7668 -5.1960 -2.3890 0.9763
-1.7347 -5.2071 -2.3892 0.9763
-1.7026 -5.2181 -2.3893 0.9763
-1.6704 -5.2288 -2.3895 0.9763
-1.6381 -5.2394 -2.3896 0.9763
-1.5409 -5.2699 -2.3901 0.9763
-1.4105 -5.3078 -2.3907 0.9763
-1.3449 -5.3255 -2.3910 0.9763
-1.3120 -5.3341 -2.3911 0.9763
-1.1800 -5.3663 -2.3918 0.9763
-1.1137 -5.3811 -2.3921 0.9763
-1.0139 -5.4020 -2.3926 0.9763
-0.9805 -5.4085 -2.3927 0.9763
-0.9471 -5.4148 -2.3929 0.9763
-0.8802 -5.4268 -2.3932 0.9763
-0.8467 -5.4325 -2.3933 0.9763
-0.8131 -5.4380 -2.3935 0.9763
-0.7795 -5.4433 -2.3937 0.9763
-0.7459 -5.4484 -2.3938 0.9763
-0.6448 -5.4624 -2.3943 0.9763
-0.6111 -5.4666 -2.3945 0.9763
-0.5773 -5.4707 -2.3946 0.9763
-0.4080 -5.4878 -2.3954 0.9763
-0.3741 -5.4906 -2.3956 0.9763
-0.3401 -5.4931 -2.3958 0.9763
-0.3062 -5.4955 -2.3959 0.9763
-0.2722 -5.4977 -2.3961 0.9763
-0.1702 -5.5029 -2.3966 0.9763
-0.1021 -5.5054 -2.3969 0.9763
0.1022 -5.5076 -2.3979 0.9763
0.1363 -5.5073 -2.3981 0.9763
0.2385 -5.5050 -2.3986 0.9762
0.2725 -5.5038 -2.3987 0.9762
0.4087 -5.4968 -2.3994 0.9762
0.4767 -5.4922 -2.3997 0.9762
0.5107 -5.4895 -2.3999 0.9762
0.6126 -5.4802 -2.4004 0.9762
0.6465 -5.4767 -2.4006 0.9762
0.7482 -5.4649 -2.4011 0.9762
0.8833 -5.4462 -2.4017 0.9762
0.9170 -5.4410 -2.4019 0.9762
0.9844 -5.4300 -2.4022 0.9762
1.0517 -5.4182 -2.4026 0.9762
1.1187 -5.4055 -2.4029 0.9762
1.1857 -5.3920 -2.4032 0.9762
1.2191 -5.3850 -2.4034 0.9762
1.2524 -5.3777 -2.4036 0.9762
1.4186 -5.3382 -2.4044 0.9762
1.4517 -5.3297 -2.4046 0.9762
1.4847 -5.3210 -2.4047 0.9762
1.5177 -5.3121 -2.4049 0.9762
1.5506 -5.3030 -2.4051 0.9762
1.5835 -5.2936 -2.4052 0.9762
1.6163 -5.2841 -2.4054 0.9762
1.6491 -5.2744 -2.4056 0.9762
1.6818 -5.2644 -2.4057 0.9762
1.7144 -5.2543 -2.4059 0.9762
1.7795 -5.2334 -2.4062 0.9762
1.8444 -5.2117 -2.4065 0.9762
1.8767 -5.2005 -2.4067 0.9762
1.9411 -5.1776 -2.4070 0.9762
1.9732 -5.1659 -2.4072 0.9762
2.0053 -5.1539 -2.4074 0.9762
2.0372 -5.1418 -2.4075 0.9762
2.1010 -5.1169 -2.4078 0.9762
2.1327 -5.1041 -2.4080 0.9762
2.1960 -5.0780 -2.4083 0.9762
2.2274 -5.0647 -2.4085 0.9762
2.2589 -5.0512 -2.4087 0.9761
2.2903 -5.0374 -2.4088 0.9761
2.3527 -5.0094 -2.4091 0.9761
2.3838 -4.9951 -2.4093 0.9761
2.4148 -4.9806 -2.4095 0.9761
2.5379 -4.9206 -2.4101 0.9761
2.6293 -4.8736 -2.4106 0.9761
2.7197 -4.8250 -2.4110 0.9761
2.8093 -4.7746 -2.4115 0.9761
2.8390 -4.7574 -2.4116 0.9761
2.8686 -4.7401 -2.4118 0.9761
2.9273 -4.7048 -2.4121 0.9761
2.9857 -4.6689 -2.4124 0.9761
3.0723 -4.6135 -2.4129 0.9761
3.1010 -4.5947 -2.4130 0.9761
3.2145 -4.5177 -2.4136 0.9761
3.2705 -4.4782 -2.4139 0.9761
3.3537 -4.4175 -2.4143 0.9761
3.3811 -4.3970 -2.4145 0.9761
3.4084 -4.3762 -2.4146 0.9761
3.4627 -4.3343 -2.4149 0.9761
3.4897 -4.3130 -2.4151 0.9761
3.5961 -4.2264 -2.4156 0.9761
3.6224 -4.2043 -2.4158 0.9761
3.6745 -4.1597 -2.4160 0.9761
3.7004 -4.1371 -2.4162 0.9761
3.7261 -4.1144 -2.4163 0.9761
3.7517 -4.0915 -2.4165 0.9761
3.7771 -4.0684 -2.4166 0.9761
3.8025 -4.0452 -2.4167 0.9761
3.9022 -3.9508 -2.4173 0.9761
3.9996 -3.8539 -2.4178 0.9761
4.0236 -3.8293 -2.4179 0.9761
4.0946 -3.7546 -2.4183 0.9761
4.1180 -3.7294 -2.4184 0.9761
4.2098 -3.6272 -2.4189 0.9760
4.2324 -3.6013 -2.4191 0.9760
4.2548 -3.5752 -2.4192 0.9760
4.2771 -3.5490 -2.4193 0.9760
4.2991 -3.5227 -2.4194 0.9760
4.3428 -3.4696 -2.4197 0.9760
4.3644 -3.4428 -2.4198 0.9760
4.4071 -3.3889 -2.4200 0.9760
4.4698 -3.3071 -2.4204 0.9760
4.5108 -3.2518 -2.4206 0.9760
4.5311 -3.2240 -2.4207 0.9760
4.5511 -3.1961 -2.4208 0.9760
4.6296 -3.0831 -2.4213 0.9760
4.6488 -3.0546 -2.4214 0.9760
4.6679 -3.0259 -2.4215 0.9760
4.6867 -2.9971 -2.4216 0.9760
4.7053 -2.9682 -2.4217 0.9760
4.7238 -2.9392 -2.4218 0.9760
4.7421 -2.9100 -2.4219 0.9760
4.7781 -2.8514 -2.4221 0.9760
4.8134 -2.7923 -2.4224 0.9760
4.8308 -2.7626 -2.4225 0.9760
4.8480 -2.7328 -2.4226 0.9760
4.8818 -2.6728 -2.4228 0.9760
4.9149 -2.6125 -2.4229 0.9760
4.9472 -2.5517 -2.4231 0.9760
4.9788 -2.4905 -2.4233 0.9760
5.0096 -2.4289 -2.4235 0.9760
5.0396 -2.3669 -2.4237 0.9760
5.0832 -2.2733 -2.4240 0.9760
5.1652 -2.0836 -2.4245 0.9760
5.1781 -2.0517 -2.4245 0.9760
5.2279 -1.9232 -2.4249 0.9760
5.2632 -1.8261 -2.4251 0.9760
5.2746 -1.7935 -2.4252 0.9760
5.2857 -1.7609 -2.4252 0.9760
5.2967 -1.7283 -2.4253 0.9760
5.3074 -1.6955 -2.4254 0.9760
5.3384 -1.5969 -2.4256 0.9760
5.3483 -1.5639 -2.4257 0.9760
5.3675 -1.4976 -2.4258 0.9760
5.3769 -1.4645 -2.4258 0.9760
5.3948 -1.3980 -2.4260 0.9760
5.4035 -1.3646 -2.4260 0.9760
5.4120 -1.3312 -2.4261 0.9760
5.4283 -1.2642 -2.4262 0.9760
5.4361 -1.2307 -2.4263 0.9760
5.4438 -1.1971 -2.4263 0.9760
5.4512 -1.1634 -2.4264 0.9760
5.4584 -1.1297 -2.4264 0.9760
5.4722 -1.0622 -2.4265 0.9760
5.4788 -1.0283 -2.4266 0.9760
5.4913 -0.9605 -2.4267 0.9760
5.4973 -0.9266 -2.4267 0.9760
5.5138 -0.8245 -2.4269 0.9760
5.5189 -0.7904 -2.4269 0.9760
5.5238 -0.7562 -2.4270 0.9760
5.5450 -0.5851 -2.4272 0.9760
5.5486 -0.5508 -2.4272 0.9760
5.5551 -0.4822 -2.4273 0.9760
5.5633 -0.3791 -2.4274 0.9760
5.5656 -0.3446 -2.4274 0.9760
5.5677 -0.3102 -2.4274 0.9760
5.5696 -0.2758 -2.4275 0.9760
5.5758 -0.1035 -2.4276 0.9760
5.5767 -0.0345 -2.4276 0.9760
5.5768 0.0345 -2.4277 0.9760
5.5765 0.0689 -2.4277 0.9760
5.5761 0.1034 -2.4277 0.9760
5.5754 0.1379 -2.4277 0.9760
5.5733 0.2069 -2.4278 0.9760
5.5719 0.2413 -2.4278 0.9760
5.5704 0.2758 -2.4278 0.9760
5.5666 0.3447 -2.4278 0.9760
5.5644 0.3791 -2.4278 0.9760
5.5619 0.4135 -2.4278 0.9760
5.5533 0.5166 -2.4278 0.9760
5.5500 0.5509 -2.4278 0.9760
5.5465 0.5853 -2.4278 0.9760
5.5428 0.6195 -2.4278 0.9760
5.5389 0.6538 -2.4278 0.9760
5.5304 0.7223 -2.4278 0.9760
5.5257 0.7564 -2.4278 0.9760
5.5210 0.7906 -2.4278 0.9760
5.5160 0.8247 -2.4278 0.9760
5.5107 0.8588 -2.4278 0.9760
5.4877 0.9948 -2.4278 0.9760
5.4814 1.0288 -2.4278 0.9760
5.4613 1.1303 -2.4277 0.9760
5.4469 1.1977 -2.4277 0.9760
5.4393 1.2313 -2.4277 0.9760
5.4236 1.2985 -2.4277 0.9760
5.3806 1.4655 -2.4275 0.9760
5.3714 1.4987 -2.4275 0.9760
5.3620 1.5319 -2.4275 0.9760
5.3523 1.5650 -2.4275 0.9760
5.3324 1.6311 -2.4274 0.9760
5.3117 1.6968 -2.4273 0.9760
5.3011 1.7296 -2.4273 0.9760
5.2902 1.7624 -2.4273 0.9760
5.2791 1.7950 -2.4272 0.9760
5.2678 1.8276 -2.4272 0.9760
5.2563 1.8601 -2.4272 0.9760
5.2446 1.8926 -2.4271 0.9760
5.2206 1.9572 -2.4270 0.9760
5.1831 2.0536 -2.4269 0.9760
5.1572 2.1175 -2.4268 0.9760
5.1438 2.1493 -2.4268 0.9760
5.1028 2.2442 -2.4266 0.9760
5.0887 2.2757 -2.4266 0.9760
5.0744 2.3071 -2.4265 0.9760
5.0304 2.4007 -2.4264 0.9760
5.0154 2.4317 -2.4263 0.9760
4.9847 2.4934 -2.4262 0.9760
4.9532 2.5547 -2.4261 0.9760
4.9372 2.5852 -2.4260 0.9760
4.9211 2.6157 -2.4260 0.9760
4.9046 2.6460 -2.4259 0.9760
4.8880 2.6762 -2.4258 0.9760
4.8713 2.7063 -2.4258 0.9760
4.8371 2.7662 -2.4256 0.9760
4.8198 2.7960 -2.4256 0.9760
4.8023 2.8256 -2.4255 0.9760
4.7667 2.8847 -2.4254 0.9760
4.7487 2.9140 -2.4253 0.9760
4.7120 2.9723 -2.4251 0.9760
4.6171 3.1161 -2.4248 0.9760
4.5779 3.1728 -2.4246 0.9760
4.5580 3.2009 -2.4245 0.9760
4.4974 3.2846 -2.4243 0.9760
4.4769 3.3122 -2.4242 0.9760
4.4561 3.3397 -2.4241 0.9760
4.4353 3.3671 -2.4240 0.9760
4.4142 3.3943 -2.4239 0.9760
4.3715 3.4484 -2.4238 0.9760
4.3282 3.5020 -2.4236 0.9760
4.3063 3.5285 -2.4235 0.9760
4.2843 3.5550 -2.4234 0.9760
4.2620 3.5812 -2.4233 0.9760
4.2396 3.6074 -2.4232 0.9760
4.1943 3.6593 -2.4230 0.9760
4.1715 3.6850 -2.4229 0.9760
4.1253 3.7360 -2.4227 0.9760
4.0784 3.7864 -2.4225 0.9760
4.0548 3.8114 -2.4224 0.9760
3.9828 3.8855 -2.4221 0.9760
3.9586 3.9099 -2.4220 0.9760
3.9096 3.9582 -2.4218 0.9760
3.8848 3.9821 -2.4217 0.9760
3.8349 4.0295 -2.4215 0.9760
3.8098 4.0530 -2.4214 0.9760
3.7590 4.0994 -2.4212 0.9760
3.7334 4.1224 -2.4211 0.9760
3.7077 4.1452 -2.4209 0.9760
3.6818 4.1679 -2.4208 0.9760
3.6558 4.1903 -2.4207 0.9760
3.6296 4.2127 -2.4206 0.9760
3.5769 4.2568 -2.4204 0.9760
3.5504 4.2787 -2.4203 0.9760
3.4968 4.3218 -2.4200 0.9760
3.3882 4.4061 -2.4195 0.9760
3.3607 4.4268 -2.4194 0.9760
3.3331 4.4473 -2.4193 0.9760
3.2495 4.5076 -2.4189 0.9760
3.1648 4.5664 -2.4185 0.9761
2.9077 4.6094 -2.3724 0.9765
2.7850 4.6020 -2.3415 0.9768
2.7049 4.5970 -2.3218 0.9770
2.6653 4.5946 -2.3122 0.9771
2.5873 4.5899 -2.2936 0.9773
2.5120 4.5881 -2.2770 0.9774
2.4771 4.5916 -2.2711 0.9775
2.4424 4.5949 -2.2652 0.9776
2.3536 4.6333 -2.2622 0.9776
2.3248 4.6475 -2.2621 0.9776
2.2958 4.6615 -2.2620 0.9776
2.2668 4.6754 -2.2618 0.9776
2.2377 4.6890 -2.2617 0.9776
2.2086 4.7025 -2.2616 0.9776
2.1500 4.7289 -2.2613 0.9776
2.1206 4.7418 -2.2612 0.9776
2.0911 4.7545 -2.2610 0.9776
2.0615 4.7671 -2.2609 0.9776
2.0021 4.7917 -2.2606 0.9776
1.9126 4.8271 -2.2602 0.9776
1.8825 4.8385 -2.2601 0.9776
1.8223 4.8608 -2.2598 0.9776
1.7921 4.8717 -2.2596 0.9776
1.7619 4.8824 -2.2595 0.9776
1.7012 4.9032 -2.2592 0.9776
1.6707 4.9133 -2.2591 0.9776
1.6401 4.9232 -2.2589 0.9776
1.6096 4.9330 -2.2588 0.9776
1.5789 4.9425 -2.2586 0.9776
1.4558 4.9788 -2.2581 0.9776
1.4250 4.9874 -2.2579 0.9776
1.3630 5.0040 -2.2576 0.9776
1.2072 5.0421 -2.2569 0.9776
1.1759 5.0491 -2.2568 0.9776
1.0504 5.0753 -2.2562 0.9776
0.9874 5.0872 -2.2559 0.9776
0.9558 5.0929 -2.2557 0.9776
0.8610 5.1088 -2.2553 0.9777
0.7977 5.1183 -2.2550 0.9777
0.6388 5.1388 -2.2542 0.9777
0.5114 5.1516 -2.2536 0.9777
0.3198 5.1650 -2.2527 0.9777
0.2879 5.1665 -2.2525 0.9777
0.2559 5.1678 -2.2523 0.9777
0.2239 5.1689 -2.2522 0.9777
0.1919 5.1699 -2.2520 0.9777
0.1600 5.1706 -2.2519 0.9777
0.0959 5.1715 -2.2516 0.9777
0.0000 5.1713 -2.2511 0.9777
-0.0320 5.1708 -2.2510 0.9777
-0.0959 5.1693 -2.2506 0.9777
-0.1279 5.1683 -2.2505 0.9777
-0.1598 5.1670 -2.2503 0.9777
-0.2237 5.1639 -2.2500 0.9777
-0.2556 5.1621 -2.2499 0.9777
-0.2875 5.1601 -2.2497 0.9777
-0.3831 5.1528 -2.2492 0.9777
-0.4149 5.1499 -2.2491 0.9777
-0.4467 5.1469 -2.2489 0.9777
-0.5103 5.1403 -2.2486 0.9777
-0.5420 5.1367 -2.2485 0.9777
-0.5737 5.1329 -2.2483 0.9777
-0.7949 5.1008 -2.2472 0.9777
-0.8264 5.0954 -2.2470 0.9777
-0.8579 5.0898 -2.2469 0.9777
-0.8893 5.0841 -2.2467 0.9777
-0.9206 5.0781 -2.2466 0.9777
-1.0145 5.0591 -2.2461 0.9777
-1.0457 5.0524 -2.2460 0.9777
-1.0768 5.0455 -2.2458 0.9777
-1.1389 5.0311 -2.2455 0.9777
-1.1700 5.0236 -2.2453 0.9777
-1.2319 5.0080 -2.2450 0.9778
-1.2627 5.0000 -2.2449 0.9778
-1.3550 4.9747 -2.2444 0.9778
-1.4772 4.9383 -2.2438 0.9778
-1.5380 4.9190 -2.2435 0.9778
-1.5683 4.9090 -2.2433 0.9778
-1.5985 4.8989 -2.2432 0.9778
-1.7486 4.8455 -2.2424 0.9778
-1.7784 4.8343 -2.2423 0.9778
-1.8378 4.8113 -2.2420 0.9778
-1.9263 4.7754 -2.2415 0.9778
-1.9850 4.7505 -2.2412 0.9778
-2.0433 4.7250 -2.2409 0.9778
-2.0724 4.7120 -2.2408 0.9778
-2.1013 4.6988 -2.2406 0.9778
-2.1302 4.6854 -2.2405 0.9778
-2.1614 4.6770 -2.2428 0.9778
-2.1951 4.6737 -2.2477 0.9777
-2.2638 4.6690 -2.2588 0.9776
-2.2998 4.6696 -2.2659 0.9775
-2.3726 4.6707 -2.2805 0.9774
-2.4463 4.6718 -2.2956 0.9773
-2.4835 4.6723 -2.3034 0.9772
-2.5210 4.6728 -2.3113 0.9771
-2.5966 4.6738 -2.3274 0.9769
-2.6733 4.6747 -2.3442 0.9768
-2.8300 4.6764 -2.3794 0.9764
-2.8700 4.6768 -2.3886 0.9763
-2.9280 4.6417 -2.3890 0.9763
-3.0412 4.5667 -2.3884 0.9763
-3.0692 4.5475 -2.3882 0.9763
-3.0971 4.5282 -2.3881 0.9764
-3.1248 4.5087 -2.3879 0.9764
-3.1800 4.4691 -2.3877 0.9764
-3.3156 4.3674 -2.3869 0.9764
-3.3423 4.3465 -2.3868 0.9764
-3.3690 4.3255 -2.3867 0.9764
-3.3955 4.3043 -2.3865 0.9764
-3.4218 4.2830 -2.3864 0.9764
-3.5259 4.1961 -2.3858 0.9764
-3.5516 4.1740 -2.3857 0.9764
-3.6025 4.1292 -2.3854 0.9764
-3.6529 4.0839 -2.3851 0.9764
-3.6778 4.0610 -2.3850 0.9764
-3.7027 4.0380 -2.3849 0.9764
-3.7274 4.0147 -2.3847 0.9764
-3.7763 3.9679 -2.3845 0.9764
-3.8247 3.9204 -2.3842 0.9764
-3.8487 3.8965 -2.3841 0.9764
-3.9197 3.8238 -2.3837 0.9764
-3.9430 3.7993 -2.3836 0.9764
-3.9662 3.7746 -2.3834 0.9764
-4.0575 3.6746 -2.3829 0.9764
-4.0799 3.6493 -2.3828 0.9764
-4.1243 3.5982 -2.3826 0.9764
-4.1463 3.5724 -2.3825 0.9764
-4.1681 3.5465 -2.3823 0.9764
-4.1898 3.5205 -2.3822 0.9764
-4.2112 3.4944 -2.3821 0.9764
-4.2325 3.4681 -2.3820 0.9764
-4.2747 3.4151 -2.3817 0.9764
-4.3162 3.3617 -2.3815 0.9764
-4.3367 3.3347 -2.3814 0.9764
-4.3772 3.2805 -2.3812 0.9764
-4.4170 3.2258 -2.3809 0.9764
-4.4367 3.1983 -2.3808 0.9764
-4.4755 3.1429 -2.3806 0.9764
-4.4946 3.1150 -2.3805 0.9764
-4.5136 3.0870 -2.3804 0.9764
-4.5510 3.0307 -2.3802 0.9764
-4.5878 2.9739 -2.3800 0.9764
-4.6058 2.9454 -2.3799 0.9764
-4.6591 2.8590 -2.3796 0.9764
-4.6765 2.8300 -2.3795 0.9764
-4.6937 2.8009 -2.3794 0.9764
-4.7608 2.6836 -2.3790 0.9764
-4.7771 2.6539 -2.3789 0.9764
-4.7932 2.6242 -2.3788 0.9764
-4.8092 2.5945 -2.3787 0.9764
-4.8249 2.5646 -2.3786 0.9764
-4.8405 2.5346 -2.3785 0.9764
-4.8711 2.4743 -2.3783 0.9764
-4.8861 2.4441 -2.3782 0.9764
-4.9584 2.2914 -2.3778 0.9765
-4.9724 2.2606 -2.3777 0.9765
-4.9996 2.1988 -2.3775 0.9765
-5.0129 2.1678 -2.3774 0.9765
-5.0390 2.1055 -2.3773 0.9765
-5.0517 2.0742 -2.3772 0.9765
-5.0643 2.0428 -2.3771 0.9765
-5.0767 2.0114 -2.3770 0.9765
-5.0888 1.9799 -2.3770 0.9765
-5.1008 1.9484 -2.3769 0.9765
-5.1242 1.8850 -2.3767 0.9765
-5.1356 1.8532 -2.3767 0.9765
-5.1578 1.7894 -2.3765 0.9765
-5.1686 1.7575 -2.3764 0.9765
-5.1792 1.7254 -2.3764 0.9765
-5.1897 1.6933 -2.3763 0.9765
-5.2294 1.5642 -2.3760 0.9765
-5.2388 1.5318 -2.3760 0.9765
-5.2746 1.4016 -2.3757 0.9765
-5.2830 1.3690 -2.3757 0.9765
-5.2912 1.3362 -2.3756 0.9765
-5.3071 1.2706 -2.3755 0.9765
-5.3294 1.1719 -2.3753 0.9765
-5.3364 1.1388 -2.3753 0.9765
