ply
format ascii 1.0
element vertex 1597
property float32 x
property float32 y
property float32 z
property float32 I
end_header
4.9014 -6.0578 -2.3404 0.9680
4.9393 -6.0280 -2.3406 0.9680
4.9770 -5.9980 -2.3409 0.9680
5.0146 -5.9678 -2.3412 0.9680
5.0520 -5.9374 -2.3414 0.9680
5.1630 -5.8446 -2.3423 0.9680
5.1997 -5.8133 -2.3425 0.9680
5.2361 -5.7817 -2.3428 0.9679
5.2725 -5.7499 -2.3431 0.9679
5.3085 -5.7179 -2.3434 0.9679
5.4157 -5.6205 -2.3442 0.9679
5.5211 -5.5211 -2.3451 0.9679
5.5559 -5.4876 -2.3454 0.9679
5.5904 -5.4538 -2.3457 0.9679
5.6248 -5.4198 -2.3460 0.9679
5.6928 -5.3512 -2.3466 0.9679
5.7266 -5.3166 -2.3469 0.9679
5.7601 -5.2818 -2.3472 0.9679
5.8595 -5.1761 -2.3482 0.9679
5.8921 -5.1405 -2.3485 0.9679
6.1150 -4.8854 -2.3508 0.9678
6.2376 -4.7354 -2.3521 0.9678
6.2677 -4.6974 -2.3525 0.9678
6.3271 -4.6209 -2.3532 0.9678
6.3857 -4.5436 -2.3539 0.9678
6.4433 -4.4656 -2.3546 0.9678
6.4718 -4.4264 -2.3549 0.9678
6.5281 -4.3473 -2.3557 0.9678
6.5558 -4.3075 -2.3560 0.9678
6.5833 -4.2676 -2.3564 0.9678
6.6107 -4.2274 -2.3567 0.9678
6.6377 -4.1871 -2.3571 0.9678
6.6645 -4.1466 -2.3575 0.9677
6.7174 -4.0652 -2.3582 0.9677
6.7434 -4.0242 -2.3586 0.9677
6.7693 -3.9830 -2.3590 0.9677
6.8453 -3.8586 -2.3601 0.9677
6.8701 -3.8168 -2.3605 0.9677
6.8947 -3.7749 -2.3609 0.9677
6.9191 -3.7328 -2.3612 0.9677
6.9906 -3.6056 -2.3624 0.9677
7.0139 -3.5629 -2.3628 0.9677
7.0823 -3.4338 -2.3640 0.9677
7.1484 -3.3035 -2.3652 0.9676
7.2122 -3.1719 -2.3664 0.9676
7.2533 -3.0836 -2.3672 0.9676
7.2935 -2.9946 -2.3680 0.9676
7.3131 -2.9500 -2.3684 0.9676
7.3516 -2.8603 -2.3693 0.9676
7.3890 -2.7701 -2.3701 0.9676
7.4073 -2.7249 -2.3705 0.9676
7.4430 -2.6340 -2.3713 0.9676
7.4605 -2.5884 -2.3718 0.9676
7.5277 -2.4048 -2.3735 0.9675
7.6053 -2.1729 -2.3756 0.9675
7.6200 -2.1262 -2.3761 0.9675
7.6623 -1.9855 -2.3774 0.9675
7.7272 -1.7494 -2.3796 0.9675
7.7393 -1.7018 -2.3800 0.9674
7.7511 -1.6542 -2.3804 0.9674
7.7626 -1.6066 -2.3809 0.9674
7.7739 -1.5588 -2.3813 0.9674
7.7955 -1.4631 -2.3822 0.9674
7.8059 -1.4151 -2.3827 0.9674
7.8257 -1.3190 -2.3836 0.9674
7.8619 -1.1259 -2.3854 0.9674
7.8782 -1.0290 -2.3863 0.9674
7.8859 -0.9804 -2.3867 0.9674
7.9005 -0.8831 -2.3877 0.9673
7.9138 -0.7856 -2.3886 0.9673
7.9200 -0.7368 -2.3890 0.9673
7.9420 -0.5411 -2.3909 0.9673
7.9467 -0.4921 -2.3913 0.9673
7.9511 -0.4430 -2.3918 0.9673
7.9626 -0.2956 -2.3932 0.9673
7.9687 -0.1972 -2.3941 0.9673
7.9774 -0.0000 -2.3960 0.9672
7.9788 0.0493 -2.3964 0.9672
7.9798 0.0987 -2.3969 0.9672
7.9811 0.1975 -2.3978 0.9672
7.9813 0.2469 -2.3983 0.9672
7.9812 0.2963 -2.3988 0.9672
7.9808 0.3457 -2.3992 0.9672
7.9800 0.3951 -2.3997 0.9672
7.9790 0.4446 -2.4002 0.9672
7.9776 0.4940 -2.4006 0.9672
7.9760 0.5434 -2.4011 0.9672
7.9740 0.5928 -2.4016 0.9672
7.9718 0.6422 -2.4020 0.9671
7.9692 0.6917 -2.4025 0.9671
7.9663 0.7411 -2.4030 0.9671
7.9597 0.8399 -2.4039 0.9671
7.9558 0.8893 -2.4044 0.9671
7.9517 0.9387 -2.4049 0.9671
7.9474 0.9880 -2.4053 0.9671
7.9427 1.0373 -2.4058 0.9671
7.9323 1.1359 -2.4067 0.9671
7.9079 1.3328 -2.4086 0.9671
7.8787 1.5292 -2.4105 0.9670
7.8706 1.5782 -2.4110 0.9670
7.8622 1.6272 -2.4114 0.9670
7.8445 1.7250 -2.4124 0.9670
7.8256 1.8225 -2.4133 0.9670
7.8157 1.8713 -2.4138 0.9670
7.7950 1.9685 -2.4147 0.9670
7.7616 2.1140 -2.4161 0.9670
7.7378 2.2108 -2.4170 0.9669
7.7255 2.2590 -2.4175 0.9669
7.7129 2.3072 -2.4179 0.9669
7.6999 2.3552 -2.4184 0.9669
7.6731 2.4512 -2.4193 0.9669
7.6451 2.5469 -2.4203 0.9669
7.6307 2.5946 -2.4207 0.9669
7.5699 2.7847 -2.4225 0.9669
7.5377 2.8792 -2.4235 0.9669
7.5212 2.9263 -2.4239 0.9669
7.5043 2.9733 -2.4244 0.9668
7.4872 3.0203 -2.4248 0.9668
7.4698 3.0670 -2.4253 0.9668
7.4341 3.1604 -2.4262 0.9668
7.4157 3.2069 -2.4266 0.9668
7.3971 3.2533 -2.4271 0.9668
7.3782 3.2996 -2.4275 0.9668
7.3590 3.3458 -2.4280 0.9668
7.3198 3.4378 -2.4289 0.9668
7.2587 3.5749 -2.4302 0.9668
7.2378 3.6204 -2.4306 0.9668
7.2166 3.6658 -2.4311 0.9668
7.1951 3.7110 -2.4315 0.9668
7.1512 3.8011 -2.4324 0.9667
7.1288 3.8459 -2.4328 0.9667
7.0833 3.9352 -2.4337 0.9667
7.0128 4.0681 -2.4350 0.9667
6.9887 4.1121 -2.4354 0.9667
6.9644 4.1560 -2.4359 0.9667
6.9398 4.1997 -2.4363 0.9667
6.8897 4.2867 -2.4371 0.9667
6.8642 4.3300 -2.4376 0.9667
6.8385 4.3731 -2.4380 0.9667
6.6508 4.6706 -2.4409 0.9666
6.5663 4.7956 -2.4421 0.9666
6.5087 4.8780 -2.4429 0.9666
6.4795 4.9190 -2.4434 0.9666
6.4500 4.9598 -2.4438 0.9666
6.3600 5.0811 -2.4450 0.9666
6.3295 5.1212 -2.4453 0.9666
6.2987 5.1610 -2.4457 0.9666
6.2676 5.2007 -2.4461 0.9666
6.2048 5.2795 -2.4469 0.9665
6.0761 5.4348 -2.4485 0.9665
6.0434 5.4731 -2.4488 0.9665
5.9771 5.5492 -2.4496 0.9665
5.9098 5.6244 -2.4503 0.9665
5.8758 5.6617 -2.4507 0.9665
5.8415 5.6988 -2.4511 0.9665
5.6274 5.8402 -2.4359 0.9667
5.5236 5.8039 -2.4064 0.9671
5.4231 5.7692 -2.3781 0.9675
5.3248 5.7354 -2.3505 0.9678
5.2288 5.7022 -2.3237 0.9682
5.1034 5.7056 -2.2992 0.9685
5.0339 5.7699 -2.2998 0.9685
4.9988 5.8018 -2.3001 0.9685
4.9635 5.8334 -2.3004 0.9685
4.8923 5.8959 -2.3011 0.9685
4.8204 5.9576 -2.3017 0.9685
4.7475 6.0184 -2.3023 0.9685
4.6740 6.0783 -2.3029 0.9685
4.6369 6.1078 -2.3032 0.9685
4.5622 6.1663 -2.3038 0.9685
4.5245 6.1952 -2.3041 0.9685
4.4867 6.2239 -2.3044 0.9685
4.4488 6.2523 -2.3047 0.9685
4.4105 6.2805 -2.3050 0.9685
4.3721 6.3084 -2.3053 0.9685
4.3336 6.3361 -2.3056 0.9684
4.2948 6.3635 -2.3058 0.9684
4.2559 6.3908 -2.3061 0.9684
4.2168 6.4177 -2.3064 0.9684
4.1775 6.4445 -2.3067 0.9684
4.1381 6.4709 -2.3069 0.9684
4.0985 6.4971 -2.3072 0.9684
4.0587 6.5231 -2.3075 0.9684
3.9383 6.5996 -2.3083 0.9684
3.8979 6.6246 -2.3085 0.9684
3.8573 6.6493 -2.3088 0.9684
3.8165 6.6737 -2.3090 0.9684
3.6932 6.7456 -2.3098 0.9684
3.6518 6.7690 -2.3100 0.9684
3.4426 6.8822 -2.3112 0.9684
3.3579 6.9256 -2.3117 0.9684
3.2726 6.9680 -2.3121 0.9684
3.1004 7.0494 -2.3130 0.9683
3.0570 7.0691 -2.3132 0.9683
3.0135 7.0885 -2.3134 0.9683
2.9699 7.1077 -2.3136 0.9683
2.8823 7.1451 -2.3140 0.9683
2.7499 7.1992 -2.3146 0.9683
2.6611 7.2338 -2.3150 0.9683
2.6165 7.2507 -2.3152 0.9683
2.5718 7.2673 -2.3154 0.9683
2.5270 7.2836 -2.3155 0.9683
2.4821 7.2997 -2.3157 0.9683
2.4371 7.3154 -2.3159 0.9683
2.3920 7.3309 -2.3161 0.9683
2.3015 7.3610 -2.3164 0.9683
2.2561 7.3756 -2.3166 0.9683
2.2106 7.3899 -2.3167 0.9683
2.0735 7.4312 -2.3172 0.9683
2.0276 7.4443 -2.3173 0.9683
1.9356 7.4698 -2.3176 0.9683
1.8896 7.4821 -2.3178 0.9683
1.8433 7.4941 -2.3179 0.9683
1.7971 7.5058 -2.3180 0.9683
1.6578 7.5391 -2.3184 0.9683
1.5646 7.5598 -2.3187 0.9683
1.5179 7.5698 -2.3188 0.9683
1.4711 7.5794 -2.3189 0.9683
1.4243 7.5887 -2.3190 0.9683
1.3774 7.5977 -2.3192 0.9683
1.2834 7.6149 -2.3194 0.9683
1.0949 7.6456 -2.3198 0.9683
0.9530 7.6655 -2.3200 0.9683
0.9056 7.6715 -2.3201 0.9683
0.7632 7.6878 -2.3204 0.9682
0.7156 7.6926 -2.3204 0.9682
0.5729 7.7052 -2.3206 0.9682
0.5252 7.7088 -2.3207 0.9682
0.4775 7.7121 -2.3207 0.9682
0.4299 7.7151 -2.3208 0.9682
0.2389 7.7240 -2.3210 0.9682
0.1434 7.7267 -2.3211 0.9682
0.0478 7.7281 -2.3212 0.9682
0.0000 7.7283 -2.3212 0.9682
-0.0478 7.7283 -2.3212 0.9682
-0.1434 7.7273 -2.3213 0.9682
-0.3344 7.7216 -2.3213 0.9682
-0.4777 7.7141 -2.3213 0.9682
-0.6207 7.7038 -2.3213 0.9682
-0.7159 7.6955 -2.3213 0.9682
-0.7635 7.6909 -2.3213 0.9682
-0.8110 7.6860 -2.3213 0.9682
-0.8586 7.6807 -2.3213 0.9682
-0.9060 7.6752 -2.3212 0.9682
-0.9534 7.6694 -2.3212 0.9682
-1.0009 7.6632 -2.3212 0.9682
-1.0482 7.6568 -2.3211 0.9682
-1.1428 7.6430 -2.3211 0.9682
-1.1900 7.6357 -2.3210 0.9682
-1.2372 7.6280 -2.3210 0.9682
-1.4722 7.5852 -2.3207 0.9682
-1.5191 7.5758 -2.3207 0.9682
-1.8451 7.5012 -2.3201 0.9683
-1.9376 7.4772 -2.3199 0.9683
-1.9837 7.4648 -2.3199 0.9683
-2.0298 7.4521 -2.3198 0.9683
-2.0757 7.4391 -2.3197 0.9683
-2.1674 7.4122 -2.3195 0.9683
-2.2130 7.3983 -2.3193 0.9683
-2.2587 7.3841 -2.3192 0.9683
-2.3042 7.3697 -2.3191 0.9683
-2.3949 7.3399 -2.3189 0.9683
-2.6647 7.2435 -2.3181 0.9683
-2.7092 7.2265 -2.3180 0.9683
-2.7537 7.2092 -2.3178 0.9683
-2.7981 7.1916 -2.3177 0.9683
-2.8423 7.1737 -2.3176 0.9683
-2.8864 7.1555 -2.3174 0.9683
-2.9304 7.1371 -2.3173 0.9683
-3.1487 7.0408 -2.3165 0.9683
-3.2351 7.0003 -2.3162 0.9683
-3.3208 6.9586 -2.3158 0.9683
-3.3635 6.9374 -2.3156 0.9683
-3.4485 6.8941 -2.3152 0.9683
-3.4908 6.8720 -2.3150 0.9683
-3.5750 6.8273 -2.3146 0.9683
-3.6585 6.7814 -2.3143 0.9683
-3.7827 6.7106 -2.3137 0.9683
-3.8647 6.6621 -2.3132 0.9683
-3.9055 6.6375 -2.3130 0.9683
-4.0268 6.5621 -2.3124 0.9684
-4.1069 6.5105 -2.3120 0.9684
-4.2650 6.4044 -2.3110 0.9684
-4.4203 6.2943 -2.3101 0.9684
-4.5726 6.1804 -2.3091 0.9684
-4.7220 6.0627 -2.3081 0.9684
-4.7588 6.0327 -2.3078 0.9684
-4.7955 6.0025 -2.3075 0.9684
-4.8683 5.9413 -2.3070 0.9684
-4.9043 5.9104 -2.3067 0.9684
-4.9402 5.8793 -2.3064 0.9684
-5.0816 5.7525 -2.3053 0.9685
-5.1165 5.7202 -2.3050 0.9685
-5.1855 5.6551 -2.3045 0.9685
-5.2197 5.6222 -2.3042 0.9685
-5.2875 5.5558 -2.3036 0.9685
-5.3211 5.5223 -2.3033 0.9685
-5.3544 5.4885 -2.3030 0.9685
-5.4205 5.4205 -2.3024 0.9685
-5.4532 5.3861 -2.3021 0.9685
-5.5179 5.3169 -2.3015 0.9685
-5.5499 5.2819 -2.3011 0.9685
-5.5817 5.2468 -2.3008 0.9685
-5.6133 5.2114 -2.3005 0.9685
-5.6887 5.1520 -2.3051 0.9685
-5.9682 5.2068 -2.3788 0.9675
-6.1786 5.2572 -2.4366 0.9667
-6.2861 5.2160 -2.4533 0.9665
-6.4396 5.0155 -2.4515 0.9665
-6.4991 4.9340 -2.4508 0.9665
-6.5866 4.8104 -2.4497 0.9665
-6.6152 4.7688 -2.4493 0.9665
-6.6435 4.7271 -2.4489 0.9665
-6.6716 4.6851 -2.4485 0.9665
-6.6994 4.6431 -2.4481 0.9665
-6.7811 4.5159 -2.4470 0.9665
-6.8079 4.4731 -2.4466 0.9666
-6.8605 4.3872 -2.4458 0.9666
-6.8864 4.3440 -2.4454 0.9666
-6.9120 4.3006 -2.4450 0.9666
-6.9373 4.2571 -2.4446 0.9666
-6.9624 4.2134 -2.4442 0.9666
-6.9871 4.1696 -2.4438 0.9666
-7.0116 4.1256 -2.4434 0.9666
-7.0358 4.0815 -2.4430 0.9666
-7.1068 3.9483 -2.4418 0.9666
-7.1752 3.8138 -2.4406 0.9666
-7.1974 3.7688 -2.4402 0.9666
-7.2410 3.6782 -2.4393 0.9666
-7.3247 3.4956 -2.4376 0.9667
-7.3649 3.4035 -2.4368 0.9667
-7.4038 3.3110 -2.4359 0.9667
-7.4228 3.2646 -2.4355 0.9667
-7.4416 3.2180 -2.4351 0.9667
-7.4600 3.1714 -2.4346 0.9667
-7.5135 3.0309 -2.4333 0.9667
-7.5308 2.9838 -2.4329 0.9667
-7.5968 2.7946 -2.4312 0.9668
-7.6432 2.6518 -2.4298 0.9668
-7.7144 2.4119 -2.4276 0.9668
-7.7408 2.3155 -2.4267 0.9668
-7.7660 2.2187 -2.4258 0.9668
-7.7781 2.1702 -2.4254 0.9668
-7.8014 2.0731 -2.4244 0.9668
-7.8126 2.0245 -2.4240 0.9669
-7.8235 1.9758 -2.4235 0.9669
-7.8444 1.8781 -2.4226 0.9669
-7.8641 1.7803 -2.4217 0.9669
-7.8825 1.6823 -2.4208 0.9669
-7.8912 1.6332 -2.4203 0.9669
-7.8997 1.5840 -2.4199 0.9669
-7.9079 1.5349 -2.4194 0.9669
-7.9157 1.4856 -2.4190 0.9669
-7.9373 1.3378 -2.4176 0.9669
-7.9439 1.2884 -2.4171 0.9669
-7.9502 1.2390 -2.4166 0.9670
-7.9619 1.1402 -2.4157 0.9670
-7.9672 1.0907 -2.4152 0.9670
-7.9723 1.0412 -2.4148 0.9670
-7.9815 0.9422 -2.4139 0.9670
-7.9929 0.7935 -2.4124 0.9670
-7.9990 0.6943 -2.4115 0.9670
-8.0016 0.6447 -2.4110 0.9670
-8.0039 0.5951 -2.4106 0.9670
-8.0075 0.4958 -2.4096 0.9670
-8.0099 0.3966 -2.4087 0.9671
-8.0105 0.1486 -2.4064 0.9671
-8.0097 0.0991 -2.4059 0.9671
-7.7851 -0.2408 -2.4025 0.9679
-7.7820 -0.2889 -2.4021 0.9679
-7.7749 -0.3850 -2.4012 0.9679
-7.7709 -0.4329 -2.4007 0.9679
-7.7346 -0.7678 -2.3975 0.9680
-7.7282 -0.8155 -2.3971 0.9680
-7.7216 -0.8631 -2.3966 0.9680
-7.7074 -0.9582 -2.3957 0.9680
-7.6755 -1.1477 -2.3939 0.9680
-7.6668 -1.1949 -2.3935 0.9680
-7.6579 -1.2420 -2.3930 0.9680
-7.6086 -1.4768 -2.3908 0.9681
-7.5979 -1.5235 -2.3903 0.9681
-7.5757 -1.6168 -2.3894 0.9681
-7.5641 -1.6633 -2.3890 0.9681
-7.5151 -1.8485 -2.3872 0.9681
-7.5021 -1.8946 -2.3867 0.9681
-7.4888 -1.9406 -2.3863 0.9681
-7.4753 -1.9865 -2.3859 0.9681
-7.4615 -2.0323 -2.3854 0.9681
-7.4474 -2.0780 -2.3850 0.9682
-7.4330 -2.1237 -2.3845 0.9682
-7.4184 -2.1692 -2.3841 0.9682
-7.4035 -2.2146 -2.3837 0.9682
-7.3411 -2.3953 -2.3819 0.9682
-7.3248 -2.4402 -2.3815 0.9682
-7.3082 -2.4850 -2.3810 0.9682
-7.2914 -2.5297 -2.3806 0.9682
-7.2569 -2.6187 -2.3798 0.9682
-7.2393 -2.6631 -2.3793 0.9682
-7.2032 -2.7514 -2.3785 0.9682
-7.1848 -2.7954 -2.3780 0.9682
-7.1661 -2.8393 -2.3776 0.9682
-7.1471 -2.8830 -2.3772 0.9683
-7.1278 -2.9267 -2.3768 0.9683
-7.0886 -3.0135 -2.3759 0.9683
-6.9859 -3.2284 -2.3738 0.9683
-6.8313 -3.5234 -2.3710 0.9683
-6.7613 -3.6477 -2.3697 0.9684
-6.7134 -3.7297 -2.3689 0.9684
-6.6891 -3.7706 -2.3685 0.9684
-6.6397 -3.8517 -2.3677 0.9684
-6.6146 -3.8921 -2.3673 0.9684
-6.5638 -3.9722 -2.3666 0.9684
-6.5381 -4.0121 -2.3662 0.9684
-6.4858 -4.0913 -2.3654 0.9684
-6.4326 -4.1698 -2.3646 0.9684
-6.4056 -4.2089 -2.3642 0.9684
-6.3511 -4.2864 -2.3635 0.9684
-6.3234 -4.3249 -2.3631 0.9684
-6.2955 -4.3632 -2.3627 0.9684
-6.2674 -4.4014 -2.3623 0.9685
-6.0941 -4.6265 -2.3601 0.9685
-6.0345 -4.7000 -2.3594 0.9685
-5.9128 -4.8449 -2.3579 0.9685
-5.8819 -4.8806 -2.3576 0.9685
-5.8193 -4.9515 -2.3569 0.9685
-5.6917 -5.0909 -2.3555 0.9685
-5.6593 -5.1253 -2.3551 0.9685
-5.6267 -5.1594 -2.3548 0.9685
-5.5938 -5.1934 -2.3545 0.9686
-5.4942 -5.2940 -2.3534 0.9686
-5.3927 -5.3927 -2.3525 0.9686
-5.3585 -5.4253 -2.3521 0.9686
-5.3242 -5.4575 -2.3518 0.9686
-5.2548 -5.5214 -2.3512 0.9686
-5.2198 -5.5531 -2.3508 0.9686
-5.1494 -5.6157 -2.3502 0.9686
-5.1139 -5.6467 -2.3499 0.9686
-5.0782 -5.6775 -2.3496 0.9686
-4.8971 -5.8280 -2.3481 0.9686
-4.8603 -5.8574 -2.3478 0.9686
-4.7863 -5.9156 -2.3472 0.9686
-4.7490 -5.9443 -2.3469 0.9687
-4.7116 -5.9728 -2.3466 0.9687
-4.6362 -6.0292 -2.3460 0.9687
-4.5219 -6.1119 -2.3452 0.9687
-4.4835 -6.1390 -2.3449 0.9687
-4.4449 -6.1659 -2.3446 0.9687
-4.3283 -6.2452 -2.3438 0.9687
-4.2890 -6.2711 -2.3435 0.9687
-4.2497 -6.2968 -2.3433 0.9687
-4.1706 -6.3474 -2.3427 0.9687
-4.1308 -6.3724 -2.3425 0.9687
-4.0909 -6.3971 -2.3422 0.9687
-4.0508 -6.4216 -2.3420 0.9687
-3.9297 -6.4936 -2.3412 0.9687
-3.8890 -6.5171 -2.3410 0.9687
-3.7663 -6.5861 -2.3403 0.9687
-3.7252 -6.6086 -2.3400 0.9687
-3.6424 -6.6528 -2.3396 0.9687
-3.5173 -6.7173 -2.3389 0.9688
-3.4754 -6.7382 -2.3387 0.9688
-3.4333 -6.7590 -2.3384 0.9688
-3.3488 -6.7997 -2.3380 0.9688
-3.3064 -6.8196 -2.3378 0.9688
-3.1785 -6.8780 -2.3372 0.9688
-3.0064 -6.9521 -2.3364 0.9688
-2.9197 -6.9876 -2.3360 0.9688
-2.8326 -7.0221 -2.3356 0.9688
-2.7889 -7.0389 -2.3354 0.9688
-2.7012 -7.0717 -2.3351 0.9688
-2.6572 -7.0878 -2.3349 0.9688
-2.6131 -7.1036 -2.3347 0.9688
-2.5690 -7.1191 -2.3345 0.9688
-2.4804 -7.1492 -2.3342 0.9688
-2.3021 -7.2064 -2.3336 0.9688
-2.2574 -7.2201 -2.3334 0.9688
-2.2125 -7.2334 -2.3333 0.9688
-2.1227 -7.2593 -2.3330 0.9688
-2.0776 -7.2719 -2.3328 0.9688
-2.0324 -7.2841 -2.3327 0.9688
-1.9420 -7.3078 -2.3324 0.9688
-1.8058 -7.3414 -2.3320 0.9688
-1.7602 -7.3520 -2.3319 0.9689
-1.3939 -7.4271 -2.3310 0.9689
-1.3019 -7.4432 -2.3308 0.9689
-1.2096 -7.4581 -2.3306 0.9689
-1.1634 -7.4651 -2.3305 0.9689
-0.9783 -7.4905 -2.3301 0.9689
-0.8391 -7.5066 -2.3299 0.9689
-0.7926 -7.5114 -2.3298 0.9689
-0.7461 -7.5160 -2.3298 0.9689
-0.5599 -7.5313 -2.3295 0.9689
-0.5133 -7.5344 -2.3295 0.9689
-0.4201 -7.5399 -2.3293 0.9689
-0.3734 -7.5422 -2.3293 0.9689
-0.3268 -7.5442 -2.3293 0.9689
-0.1868 -7.5486 -2.3291 0.9689
-0.1401 -7.5495 -2.3291 0.9689
-0.0934 -7.5501 -2.3291 0.9689
-0.0467 -7.5504 -2.3290 0.9689
0.1401 -7.5490 -2.3289 0.9689
0.2801 -7.5449 -2.3289 0.9689
0.3268 -7.5431 -2.3289 0.9689
0.5598 -7.5293 -2.3289 0.9689
0.6063 -7.5258 -2.3289 0.9689
0.6529 -7.5219 -2.3289 0.9689
0.7923 -7.5087 -2.3290 0.9689
0.9315 -7.4929 -2.3290 0.9689
1.0241 -7.4810 -2.3291 0.9689
1.0704 -7.4746 -2.3291 0.9689
1.1166 -7.4680 -2.3292 0.9689
1.1628 -7.4610 -2.3292 0.9689
1.2090 -7.4538 -2.3292 0.9689
1.2551 -7.4464 -2.3293 0.9689
1.3011 -7.4386 -2.3293 0.9689
1.3930 -7.4223 -2.3294 0.9689
1.5306 -7.3957 -2.3296 0.9689
1.6677 -7.3667 -2.3298 0.9689
1.7133 -7.3564 -2.3299 0.9689
1.7588 -7.3460 -2.3300 0.9689
1.8043 -7.3352 -2.3300 0.9689
1.8496 -7.3241 -2.3301 0.9689
1.9402 -7.3012 -2.3303 0.9689
1.9854 -7.2893 -2.3304 0.9689
2.0305 -7.2772 -2.3305 0.9689
2.0756 -7.2648 -2.3305 0.9689
2.2550 -7.2124 -2.3309 0.9689
2.2997 -7.1987 -2.3310 0.9689
2.3443 -7.1847 -2.3312 0.9689
2.3887 -7.1704 -2.3313 0.9689
2.4332 -7.1558 -2.3314 0.9689
2.4775 -7.1410 -2.3315 0.9689
2.5217 -7.1259 -2.3316 0.9689
2.6100 -7.0949 -2.3319 0.9689
2.6978 -7.0628 -2.3321 0.9688
2.7853 -7.0297 -2.3324 0.9688
2.8289 -7.0128 -2.3325 0.9688
2.9157 -6.9781 -2.3328 0.9688
3.1311 -6.8868 -2.3335 0.9688
3.1738 -6.8678 -2.3337 0.9688
3.2164 -6.8484 -2.3338 0.9688
3.2590 -6.8289 -2.3340 0.9688
3.3014 -6.8091 -2.3342 0.9688
3.3437 -6.7890 -2.3343 0.9688
3.5533 -6.6849 -2.3352 0.9688
3.6775 -6.6194 -2.3358 0.9688
3.7597 -6.5745 -2.3361 0.9688
3.8820 -6.5052 -2.3367 0.9688
3.9225 -6.4817 -2.3369 0.9688
3.9628 -6.4578 -2.3371 0.9688
4.0431 -6.4094 -2.3375 0.9688
4.0831 -6.3849 -2.3377 0.9688
4.1228 -6.3601 -2.3380 0.9688
4.2020 -6.3098 -2.3384 0.9688
4.2413 -6.2842 -2.3386 0.9688
4.4357 -6.1531 -2.3397 0.9687
4.4741 -6.1262 -2.3400 0.9687
4.5505 -6.0716 -2.3404 0.9687
4.5884 -6.0440 -2.3407 0.9687
4.6638 -5.9880 -2.3412 0.9687
4.7385 -5.9311 -2.3417 0.9687
4.8125 -5.8733 -2.3422 0.9687
4.8493 -5.8441 -2.3424 0.9687
4.8859 -5.8146 -2.3427 0.9687
4.9223 -5.7849 -2.3430 0.9687
4.9946 -5.7249 -2.3435 0.9687
5.0304 -5.6945 -2.3437 0.9687
5.0662 -5.6640 -2.3440 0.9687
5.1017 -5.6332 -2.3443 0.9687
5.1371 -5.6022 -2.3446 0.9687
5.1722 -5.5710 -2.3448 0.9687
5.2071 -5.5396 -2.3451 0.9687
5.3452 -5.4117 -2.3462 0.9687
5.3792 -5.3792 -2.3465 0.9687
5.4801 -5.2804 -2.3474 0.9686
5.5464 -5.2136 -2.3480 0.9686
5.5792 -5.1798 -2.3483 0.9686
5.6766 -5.0774 -2.3492 0.9686
5.7404 -5.0081 -2.3498 0.9686
5.7721 -4.9732 -2.3502 0.9686
5.8035 -4.9381 -2.3505 0.9686
5.8347 -4.9027 -2.3508 0.9686
5.8965 -4.8315 -2.3514 0.9686
6.0473 -4.6501 -2.3531 0.9686
6.0767 -4.6133 -2.3534 0.9686
6.1351 -4.5391 -2.3541 0.9686
6.1640 -4.5017 -2.3544 0.9686
6.1925 -4.4641 -2.3547 0.9685
6.2210 -4.4264 -2.3551 0.9685
6.2491 -4.3885 -2.3554 0.9685
6.2770 -4.3504 -2.3558 0.9685
6.3048 -4.3121 -2.3561 0.9685
6.4399 -4.1182 -2.3579 0.9685
6.4662 -4.0789 -2.3582 0.9685
6.5691 -3.9201 -2.3597 0.9685
6.6192 -3.8398 -2.3604 0.9685
6.6438 -3.7994 -2.3608 0.9685
6.6682 -3.7588 -2.3611 0.9685
6.7400 -3.6362 -2.3623 0.9685
6.7634 -3.5950 -2.3626 0.9684
6.7866 -3.5537 -2.3630 0.9684
6.8096 -3.5122 -2.3634 0.9684
6.8322 -3.4706 -2.3638 0.9684
6.8547 -3.4288 -2.3642 0.9684
6.8988 -3.3448 -2.3649 0.9684
6.9205 -3.3027 -2.3653 0.9684
7.0652 -3.0036 -2.3681 0.9684
7.0848 -2.9603 -2.3685 0.9684
7.1042 -2.9169 -2.3689 0.9684
7.1421 -2.8298 -2.3697 0.9684
7.1790 -2.7422 -2.3705 0.9683
7.2324 -2.6099 -2.3717 0.9683
7.2998 -2.4319 -2.3733 0.9683
7.3159 -2.3871 -2.3738 0.9683
7.3319 -2.3422 -2.3742 0.9683
7.3629 -2.2522 -2.3750 0.9683
7.4073 -2.1163 -2.3763 0.9683
7.4215 -2.0708 -2.3767 0.9683
7.4759 -1.8880 -2.3784 0.9682
7.5136 -1.7499 -2.3797 0.9682
7.5374 -1.6574 -2.3805 0.9682
7.5816 -1.4716 -2.3823 0.9682
7.5920 -1.4249 -2.3827 0.9682
7.6118 -1.3314 -2.3836 0.9682
7.6213 -1.2845 -2.3840 0.9682
7.6481 -1.1436 -2.3853 0.9681
7.6564 -1.0964 -2.3858 0.9681
7.6722 -1.0020 -2.3867 0.9681
7.6869 -0.9074 -2.3875 0.9681
7.7004 -0.8126 -2.3884 0.9681
7.7067 -0.7651 -2.3889 0.9681
7.7127 -0.7175 -2.3893 0.9681
7.7185 -0.6700 -2.3898 0.9681
7.7290 -0.5746 -2.3907 0.9681
7.7339 -0.5270 -2.3911 0.9681
7.7427 -0.4314 -2.3920 0.9681
7.7467 -0.3836 -2.3925 0.9681
7.7504 -0.3357 -2.3929 0.9680
7.7569 -0.2399 -2.3938 0.9680
7.7596 -0.1920 -2.3943 0.9680
7.7622 -0.1440 -2.3947 0.9680
7.7644 -0.0961 -2.3952 0.9680
7.7663 -0.0480 -2.3956 0.9680
7.7710 0.1442 -2.3974 0.9680
7.7714 0.1923 -2.3979 0.9680
7.7716 0.2404 -2.3984 0.9680
7.7714 0.2885 -2.3988 0.9680
7.7710 0.3366 -2.3993 0.9680
7.7702 0.3847 -2.3997 0.9680
7.7662 0.5291 -2.4011 0.9679
7.7642 0.5772 -2.4015 0.9679
7.7594 0.6735 -2.4025 0.9679
7.7534 0.7697 -2.4034 0.9679
7.7423 0.9139 -2.4047 0.9679
7.7379 0.9619 -2.4052 0.9679
7.7284 1.0580 -2.4061 0.9679
7.7176 1.1539 -2.4070 0.9679
7.7057 1.2498 -2.4079 0.9679
7.6993 1.2976 -2.4084 0.9678
7.6925 1.3455 -2.4089 0.9678
7.6782 1.4411 -2.4098 0.9678
7.6706 1.4888 -2.4102 0.9678
7.6627 1.5365 -2.4107 0.9678
7.6281 1.7269 -2.4125 0.9678
7.6188 1.7744 -2.4130 0.9678
7.6090 1.8218 -2.4134 0.9678
7.5888 1.9165 -2.4143 0.9678
7.5782 1.9637 -2.4148 0.9678
7.5562 2.0581 -2.4157 0.9677
7.5447 2.1052 -2.4161 0.9677
7.5209 2.1992 -2.4170 0.9677
7.4698 2.3863 -2.4188 0.9677
7.4424 2.4794 -2.4197 0.9677
7.3842 2.6647 -2.4215 0.9677
7.3690 2.7108 -2.4220 0.9677
7.3215 2.8486 -2.4233 0.9676
7.3051 2.8943 -2.4237 0.9676
7.2883 2.9400 -2.4242 0.9676
7.2713 2.9856 -2.4246 0.9676
7.2541 3.0310 -2.4251 0.9676
7.2187 3.1216 -2.4259 0.9676
7.2005 3.1668 -2.4264 0.9676
7.1821 3.2118 -2.4268 0.9676
7.1444 3.3016 -2.4277 0.9676
7.1251 3.3463 -2.4281 0.9676
7.0857 3.4354 -2.4290 0.9676
7.0655 3.4798 -2.4294 0.9676
7.0451 3.5241 -2.4298 0.9676
7.0244 3.5682 -2.4303 0.9676
6.9822 3.6561 -2.4311 0.9675
6.9607 3.6998 -2.4315 0.9675
6.9389 3.7435 -2.4320 0.9675
6.9168 3.7869 -2.4324 0.9675
6.8944 3.8303 -2.4328 0.9675
6.8257 3.9596 -2.4341 0.9675
6.8023 4.0024 -2.4345 0.9675
6.7786 4.0451 -2.4349 0.9675
6.7546 4.0876 -2.4353 0.9675
6.7303 4.1300 -2.4357 0.9675
6.7058 4.1723 -2.4362 0.9675
6.6810 4.2144 -2.4366 0.9675
6.6559 4.2564 -2.4370 0.9675
6.6306 4.2981 -2.4374 0.9675
6.5791 4.3813 -2.4382 0.9675
6.5530 4.4226 -2.4386 0.9674
6.4999 4.5048 -2.4394 0.9674
6.4730 4.5457 -2.4398 0.9674
6.4459 4.5864 -2.4402 0.9674
6.4184 4.6270 -2.4406 0.9674
6.3907 4.6673 -2.4410 0.9674
6.3345 4.7475 -2.4418 0.9674
6.3061 4.7874 -2.4422 0.9674
6.2774 4.8271 -2.4426 0.9674
6.2484 4.8666 -2.4430 0.9674
6.2192 4.9059 -2.4434 0.9674
6.1600 4.9840 -2.4441 0.9674
6.0997 5.0614 -2.4449 0.9674
6.0693 5.0998 -2.4453 0.9674
6.0386 5.1381 -2.4457 0.9674
6.0076 5.1761 -2.4460 0.9674
5.9764 5.2140 -2.4464 0.9673
5.9133 5.2891 -2.4472 0.9673
5.8813 5.3264 -2.4475 0.9673
5.8492 5.3634 -2.4479 0.9673
5.7841 5.4370 -2.4486 0.9673
5.7181 5.5098 -2.4494 0.9673
5.6847 5.5458 -2.4497 0.9673
5.6174 5.6173 -2.4504 0.9673
5.5833 5.6528 -2.4508 0.9673
5.5490 5.6880 -2.4511 0.9673
5.5146 5.7231 -2.4515 0.9673
5.4799 5.7579 -2.4518 0.9673
5.4035 5.7484 -2.4336 0.9675
5.3062 5.7153 -2.4056 0.9679
5.1189 5.6522 -2.3522 0.9686
5.0320 5.6258 -2.3282 0.9689
4.7955 5.7070 -2.2993 0.9693
4.6907 5.7973 -2.3003 0.9693
4.6553 5.8270 -2.3006 0.9693
4.5841 5.8856 -2.3012 0.9693
4.5481 5.9146 -2.3014 0.9693
4.5120 5.9434 -2.3017 0.9692
4.4758 5.9719 -2.3020 0.9692
4.4393 6.0002 -2.3023 0.9692
4.4026 6.0283 -2.3026 0.9692
4.3658 6.0562 -2.3029 0.9692
4.3289 6.0838 -2.3032 0.9692
4.2917 6.1112 -2.3035 0.9692
4.1790 6.1920 -2.3043 0.9692
4.1031 6.2447 -2.3048 0.9692
4.0649 6.2707 -2.3051 0.9692
4.0265 6.2964 -2.3054 0.9692
3.9879 6.3219 -2.3056 0.9692
3.9103 6.3722 -2.3061 0.9692
3.8712 6.3970 -2.3064 0.9692
3.8321 6.4214 -2.3066 0.9692
3.7927 6.4458 -2.3069 0.9692
3.7532 6.4698 -2.3071 0.9692
3.7135 6.4936 -2.3074 0.9692
3.5532 6.5862 -2.3084 0.9692
3.4314 6.6530 -2.3091 0.9692
3.3906 6.6747 -2.3093 0.9691
3.2257 6.7592 -2.3102 0.9691
3.0587 6.8394 -2.3110 0.9691
3.0166 6.8588 -2.3112 0.9691
2.9743 6.8779 -2.3114 0.9691
2.8470 6.9337 -2.3120 0.9691
2.7615 6.9696 -2.3124 0.9691
2.7185 6.9871 -2.3126 0.9691
2.6755 7.0044 -2.3128 0.9691
2.5457 7.0545 -2.3134 0.9691
2.5022 7.0706 -2.3135 0.9691
2.4149 7.1021 -2.3139 0.9691
2.3272 7.1324 -2.3142 0.9691
2.2833 7.1472 -2.3144 0.9691
2.2392 7.1617 -2.3145 0.9691
2.1950 7.1759 -2.3147 0.9691
1.9280 7.2552 -2.3156 0.9691
1.8832 7.2674 -2.3157 0.9691
1.8383 7.2794 -2.3159 0.9691
1.7934 7.2910 -2.3160 0.9691
1.7484 7.3024 -2.3162 0.9691
1.6581 7.3243 -2.3164 0.9691
1.5222 7.3549 -2.3168 0.9690
1.4767 7.3646 -2.3169 0.9690
1.4312 7.3739 -2.3170 0.9690
1.2486 7.4084 -2.3174 0.9690
1.1570 7.4239 -2.3176 0.9690
1.1111 7.4313 -2.3177 0.9690
1.0652 7.4383 -2.3178 0.9690
1.0192 7.4450 -2.3179 0.9690
0.9271 7.4576 -2.3181 0.9690
0.8810 7.4635 -2.3182 0.9690
0.8349 7.4690 -2.3182 0.9690
0.7425 7.4793 -2.3184 0.9690
0.6962 7.4839 -2.3185 0.9690
0.5573 7.4962 -2.3187 0.9690
0.5109 7.4997 -2.3187 0.9690
0.4646 7.5029 -2.3188 0.9690
0.3718 7.5084 -2.3189 0.9690
0.1860 7.5158 -2.3190 0.9690
0.1395 7.5170 -2.3191 0.9690
0.0465 7.5183 -2.3191 0.9690
-0.0465 7.5185 -2.3192 0.9690
-0.0930 7.5182 -2.3192 0.9690
-0.1859 7.5166 -2.3193 0.9690
-0.3254 7.5120 -2.3193 0.9690
-0.3718 7.5099 -2.3193 0.9690
-0.4183 7.5074 -2.3193 0.9690
-0.5575 7.4984 -2.3193 0.9690
-0.6038 7.4948 -2.3193 0.9690
-0.6965 7.4867 -2.3193 0.9690
-0.7890 7.4774 -2.3193 0.9690
-0.8353 7.4723 -2.3193 0.9690
-0.9276 7.4612 -2.3192 0.9690
-0.9737 7.4553 -2.3192 0.9690
-1.0197 7.4490 -2.3191 0.9690
-1.1118 7.4356 -2.3191 0.9690
-1.2036 7.4210 -2.3190 0.9690
-1.2495 7.4133 -2.3189 0.9690
-1.3867 7.3883 -2.3188 0.9690
-1.4323 7.3794 -2.3187 0.9690
-1.5688 7.3509 -2.3185 0.9690
-1.6142 7.3409 -2.3185 0.9690
-1.6595 7.3305 -2.3184 0.9690
-1.7047 7.3199 -2.3183 0.9690
-1.7499 7.3090 -2.3182 0.9690
-1.7950 7.2977 -2.3182 0.9690
-1.8401 7.2862 -2.3181 0.9690
-1.8850 7.2744 -2.3180 0.9690
-2.0194 7.2373 -2.3177 0.9690
-2.0640 7.2244 -2.3176 0.9690
-2.1086 7.2112 -2.3175 0.9690
-2.2417 7.1698 -2.3172 0.9690
-2.3300 7.1408 -2.3170 0.9690
-2.4179 7.1108 -2.3167 0.9690
-2.5490 7.0635 -2.3163 0.9691
-2.5924 7.0472 -2.3162 0.9691
-2.6358 7.0307 -2.3161 0.9691
-2.7222 6.9966 -2.3158 0.9691
-2.7653 6.9793 -2.3156 0.9691
-2.8938 6.9255 -2.3152 0.9691
-2.9364 6.9070 -2.3151 0.9691
-2.9788 6.8883 -2.3149 0.9691
-3.0633 6.8499 -2.3146 0.9691
-3.1054 6.8303 -2.3144 0.9691
-3.1473 6.8105 -2.3142 0.9691
-3.1892 6.7904 -2.3141 0.9691
-3.3552 6.7075 -2.3134 0.9691
-3.4782 6.6425 -2.3128 0.9691
-3.5999 6.5752 -2.3123 0.9691
-3.7602 6.4820 -2.3115 0.9691
-3.8394 6.4338 -2.3111 0.9691
-3.9179 6.3847 -2.3107 0.9691
-3.9570 6.3597 -2.3104 0.9691
-3.9959 6.3345 -2.3102 0.9691
-4.1115 6.2575 -2.3096 0.9691
-4.1497 6.2314 -2.3093 0.9691
-4.2633 6.1515 -2.3086 0.9692
-4.4124 6.0416 -2.3077 0.9692
-4.4492 6.0136 -2.3074 0.9692
-4.5585 5.9281 -2.3067 0.9692
-4.5946 5.8991 -2.3064 0.9692
-4.6305 5.8700 -2.3062 0.9692
-4.7370 5.7811 -2.3054 0.9692
-4.8070 5.7207 -2.3049 0.9692
-4.8762 5.6595 -2.3043 0.9692
-4.9105 5.6286 -2.3041 0.9692
-4.9786 5.5661 -2.3035 0.9692
-5.0123 5.5345 -2.3032 0.9692
-5.0458 5.5027 -2.3029 0.9692
-5.0791 5.4707 -2.3027 0.9692
-5.1122 5.4386 -2.3024 0.9692
-5.1451 5.4062 -2.3021 0.9692
-5.2425 5.3078 -2.3012 0.9693
-5.2746 5.2746 -2.3009 0.9693
-5.4817 5.0893 -2.3073 0.9692
-5.5641 5.1021 -2.3286 0.9689
-5.6564 5.1227 -2.3540 0.9686
-5.7507 5.1437 -2.3799 0.9682
-5.9460 5.1875 -2.4340 0.9675
-6.0865 5.1144 -2.4523 0.9673
-6.1172 5.0759 -2.4519 0.9673
-6.1476 5.0373 -2.4516 0.9673
-6.1777 4.9984 -2.4512 0.9673
-6.2077 4.9594 -2.4509 0.9673
-6.2958 4.8413 -2.4498 0.9673
-6.3247 4.8016 -2.4494 0.9673
-6.3818 4.7216 -2.4487 0.9673
-6.4654 4.6003 -2.4476 0.9673
-6.5466 4.4775 -2.4465 0.9673
-6.6255 4.3533 -2.4454 0.9674
-6.6512 4.3116 -2.4450 0.9674
-6.7019 4.2277 -2.4442 0.9674
-6.7516 4.1431 -2.4434 0.9674
-6.7760 4.1006 -2.4431 0.9674
-6.8710 3.9293 -2.4415 0.9674
-6.9168 3.8427 -2.4407 0.9674
-6.9834 3.7119 -2.4395 0.9674
-7.0051 3.6680 -2.4391 0.9674
-7.0265 3.6241 -2.4387 0.9674
-7.0889 3.4913 -2.4375 0.9675
-7.1092 3.4469 -2.4371 0.9675
-7.1292 3.4022 -2.4366 0.9675
-7.1683 3.3127 -2.4358 0.9675
-7.2248 3.1775 -2.4346 0.9675
-7.2431 3.1322 -2.4342 0.9675
-7.2610 3.0868 -2.4337 0.9675
-7.3466 2.8584 -2.4316 0.9675
-7.3629 2.8124 -2.4312 0.9675
-7.3945 2.7202 -2.4303 0.9676
-7.4099 2.6739 -2.4299 0.9676
-7.4250 2.6276 -2.4295 0.9676
-7.4543 2.5346 -2.4286 0.9676
-7.4685 2.4881 -2.4282 0.9676
-7.4823 2.4414 -2.4278 0.9676
-7.4960 2.3946 -2.4273 0.9676
-7.5223 2.3009 -2.4264 0.9676
-7.5350 2.2540 -2.4260 0.9676
-7.5596 2.1598 -2.4251 0.9676
-7.5830 2.0654 -2.4243 0.9676
-7.6158 1.9233 -2.4229 0.9677
-7.6262 1.8758 -2.4225 0.9677
-7.6363 1.8283 -2.4220 0.9677
-7.6460 1.7807 -2.4216 0.9677
-7.6554 1.7331 -2.4212 0.9677
-7.6646 1.6854 -2.4207 0.9677
-7.6735 1.6377 -2.4203 0.9677
-7.6903 1.5421 -2.4194 0.9677
-7.7398 1.2062 -2.4162 0.9677
-7.7456 1.1581 -2.4158 0.9677
-7.7564 1.0618 -2.4149 0.9678
-7.7614 1.0137 -2.4144 0.9678
-7.7660 0.9655 -2.4139 0.9678
-7.7782 0.8208 -2.4126 0.9678
-7.7849 0.7242 -2.4117 0.9678
-7.7877 0.6760 -2.4112 0.9678
-7.7945 0.5310 -2.4099 0.9678
-7.7961 0.4827 -2.4094 0.9678
-7.7975 0.4344 -2.4089 0.9678
-7.7986 0.3862 -2.4085 0.9678
-7.7999 0.2413 -2.4071 0.9679
-7.7998 0.1930 -2.4067 0.9679
-7.7994 0.1447 -2.4062 0.9679
-7.7976 0.0482 -2.4053 0.9679
-7.5937 -0.0470 -2.4043 0.9686
-7.5816 -0.2814 -2.4020 0.9687
-7.5783 -0.3283 -2.4016 0.9687
-7.5622 -0.5152 -2.3998 0.9687
-7.5416 -0.7016 -2.3981 0.9687
-7.5296 -0.7946 -2.3972 0.9687
-7.5231 -0.8409 -2.3967 0.9687
-7.5164 -0.8873 -2.3963 0.9687
-7.5021 -0.9798 -2.3954 0.9688
-7.4945 -1.0260 -2.3950 0.9688
-7.4866 -1.0721 -2.3945 0.9688
-7.4613 -1.2102 -2.3932 0.9688
-7.4430 -1.3019 -2.3923 0.9688
-7.4335 -1.3476 -2.3919 0.9688
-7.4136 -1.4389 -2.3910 0.9688
-7.3925 -1.5300 -2.3901 0.9688
-7.3470 -1.7111 -2.3884 0.9688
-7.3227 -1.8012 -2.3875 0.9689
-7.3101 -1.8461 -2.3871 0.9689
-7.2972 -1.8909 -2.3867 0.9689
-7.2840 -1.9357 -2.3862 0.9689
-7.2706 -1.9803 -2.3858 0.9689
-7.2430 -2.0693 -2.3849 0.9689
-7.1216 -2.4216 -2.3815 0.9689
-7.1052 -2.4651 -2.3811 0.9689
-7.0886 -2.5086 -2.3807 0.9689
-7.0717 -2.5519 -2.3803 0.9689
-7.0545 -2.5951 -2.3799 0.9690
-7.0195 -2.6812 -2.3790 0.9690
-7.0015 -2.7241 -2.3786 0.9690
-6.9833 -2.7669 -2.3782 0.9690
-6.9461 -2.8521 -2.3774 0.9690
-6.9079 -2.9367 -2.3765 0.9690
-6.8884 -2.9789 -2.3761 0.9690
-6.8687 -3.0209 -2.3757 0.9690
-6.8487 -3.0628 -2.3753 0.9690
-6.8080 -3.1462 -2.3745 0.9690
-6.7662 -3.2291 -2.3737 0.9690
-6.7018 -3.3523 -2.3725 0.9690
-6.6798 -3.3931 -2.3721 0.9691
-6.6576 -3.4338 -2.3717 0.9691
-6.6351 -3.4743 -2.3713 0.9691
-6.5895 -3.5550 -2.3705 0.9691
-6.5428 -3.6350 -2.3697 0.9691
-6.5191 -3.6748 -2.3693 0.9691
-6.4952 -3.7144 -2.3690 0.9691
-6.4711 -3.7539 -2.3686 0.9691
-6.4220 -3.8324 -2.3678 0.9691
-6.3972 -3.8714 -2.3674 0.9691
-6.3468 -3.9489 -2.3667 0.9691
-6.2954 -4.0258 -2.3659 0.9691
-6.2694 -4.0641 -2.3655 0.9691
-6.2432 -4.1021 -2.3651 0.9691
-6.1900 -4.1777 -2.3644 0.9692
-6.1359 -4.2526 -2.3637 0.9692
-6.1086 -4.2898 -2.3633 0.9692
-6.0810 -4.3268 -2.3629 0.9692
-6.0532 -4.3637 -2.3626 0.9692
-6.0252 -4.4004 -2.3622 0.9692
-5.9969 -4.4369 -2.3618 0.9692
-5.9685 -4.4732 -2.3615 0.9692
-5.9398 -4.5093 -2.3611 0.9692
-5.8818 -4.5811 -2.3604 0.9692
-5.7932 -4.6873 -2.3594 0.9692
-5.7633 -4.7223 -2.3590 0.9692
-5.7331 -4.7572 -2.3587 0.9692
-5.7027 -4.7919 -2.3583 0.9692
-5.6104 -4.8947 -2.3573 0.9692
-5.5792 -4.9286 -2.3570 0.9692
-5.5163 -4.9958 -2.3563 0.9693
-5.4845 -5.0291 -2.3560 0.9693
-5.4204 -5.0951 -2.3553 0.9693
-5.3880 -5.1278 -2.3550 0.9693
-5.3555 -5.1603 -2.3546 0.9693
-5.3227 -5.1926 -2.3543 0.9693
-5.2567 -5.2566 -2.3537 0.9693
-5.2233 -5.2883 -2.3534 0.9693
-5.1561 -5.3511 -2.3527 0.9693
-5.0882 -5.4130 -2.3521 0.9693
-5.0196 -5.4741 -2.3515 0.9693
-4.8801 -5.5937 -2.3503 0.9693
-4.8448 -5.6230 -2.3500 0.9693
-4.8093 -5.6522 -2.3497 0.9693
-4.6657 -5.7666 -2.3485 0.9694
-4.6294 -5.7946 -2.3482 0.9694
-4.4082 -5.9581 -2.3466 0.9694
-4.3331 -6.0108 -2.3460 0.9694
-4.1429 -6.1385 -2.3447 0.9694
-4.0657 -6.1879 -2.3442 0.9694
-4.0270 -6.2122 -2.3439 0.9694
-3.8705 -6.3073 -2.3430 0.9694
-3.8310 -6.3304 -2.3427 0.9694
-3.7118 -6.3985 -2.3420 0.9694
-3.6317 -6.4426 -2.3415 0.9694
-3.5914 -6.4643 -2.3413 0.9694
-3.4698 -6.5280 -2.3406 0.9695
-3.3472 -6.5894 -2.3400 0.9695
-3.2648 -6.6291 -2.3396 0.9695
-3.2235 -6.6486 -2.3394 0.9695
-3.1404 -6.6868 -2.3389 0.9695
-3.0988 -6.7055 -2.3387 0.9695
-3.0151 -6.7422 -2.3384 0.9695
-2.8041 -6.8294 -2.3374 0.9695
-2.7616 -6.8461 -2.3372 0.9695
-2.7190 -6.8625 -2.3370 0.9695
-2.6763 -6.8786 -2.3369 0.9695
-2.5906 -6.9102 -2.3365 0.9695
-2.5046 -6.9407 -2.3362 0.9695
-2.4615 -6.9556 -2.3360 0.9695
-2.4182 -6.9702 -2.3359 0.9695
-2.2880 -7.0124 -2.3354 0.9695
-2.2445 -7.0260 -2.3352 0.9695
-2.2009 -7.0393 -2.3351 0.9695
-2.1572 -7.0523 -2.3349 0.9695
-2.1134 -7.0651 -2.3348 0.9695
-2.0695 -7.0776 -2.3346 0.9695
-2.0256 -7.0898 -2.3345 0.9695
-1.8934 -7.1249 -2.3341 0.9695
-1.5826 -7.1975 -2.3332 0.9696
-1.5380 -7.2068 -2.3331 0.9696
-1.4934 -7.2159 -2.3330 0.9696
-1.4487 -7.2246 -2.3329 0.9696
-1.4039 -7.2331 -2.3328 0.9696
-1.3591 -7.2413 -2.3327 0.9696
-1.3142 -7.2493 -2.3326 0.9696
-1.2244 -7.2644 -2.3324 0.9696
-1.1794 -7.2715 -2.3323 0.9696
-1.1343 -7.2784 -2.3322 0.9696
-1.0892 -7.2850 -2.3321 0.9696
-0.9538 -7.3032 -2.3319 0.9696
-0.9086 -7.3087 -2.3318 0.9696
-0.8634 -7.3140 -2.3317 0.9696
-0.7728 -7.3236 -2.3316 0.9696
-0.7275 -7.3280 -2.3315 0.9696
-0.6821 -7.3322 -2.3315 0.9696
-0.5913 -7.3397 -2.3313 0.9696
-0.5459 -7.3430 -2.3313 0.9696
-0.5005 -7.3461 -2.3312 0.9696
-0.4096 -7.3514 -2.3311 0.9696
-0.2276 -7.3587 -2.3310 0.9696
-0.1821 -7.3599 -2.3309 0.9696
-0.0910 -7.3614 -2.3309 0.9696
0.0000 -7.3618 -2.3308 0.9696
0.0455 -7.3616 -2.3308 0.9696
0.0911 -7.3611 -2.3308 0.9696
0.1366 -7.3603 -2.3307 0.9696
0.1821 -7.3593 -2.3307 0.9696
0.2731 -7.3564 -2.3307 0.9696
0.5004 -7.3444 -2.3307 0.9696
0.5458 -7.3412 -2.3307 0.9696
0.5912 -7.3376 -2.3307 0.9696
0.7272 -7.3256 -2.3307 0.9696
0.9082 -7.3056 -2.3308 0.9696
0.9534 -7.2999 -2.3308 0.9696
1.0437 -7.2878 -2.3309 0.9696
1.0887 -7.2813 -2.3309 0.9696
1.1787 -7.2675 -2.3310 0.9696
1.2237 -7.2602 -2.3311 0.9696
1.3134 -7.2448 -2.3312 0.9696
1.4477 -7.2197 -2.3313 0.9696
1.5370 -7.2017 -2.3314 0.9696
1.5815 -7.1922 -2.3315 0.9696
1.7148 -7.1623 -2.3317 0.9696
1.8034 -7.1410 -2.3319 0.9696
1.8917 -7.1186 -2.3320 0.9696
1.9798 -7.0952 -2.3322 0.9696
2.0237 -7.0831 -2.3323 0.9696
2.0675 -7.0707 -2.3324 0.9696
2.1986 -7.0320 -2.3327 0.9696
2.2422 -7.0186 -2.3328 0.9696
2.2856 -7.0049 -2.3329 0.9696
2.5017 -6.9326 -2.3335 0.9696
2.5875 -6.9018 -2.3337 0.9695
2.7155 -6.8538 -2.3341 0.9695
2.7580 -6.8372 -2.3342 0.9695
2.8005 -6.8204 -2.3343 0.9695
2.8427 -6.8034 -2.3345 0.9695
2.8849 -6.7861 -2.3346 0.9695
2.9690 -6.7507 -2.3349 0.9695
3.0109 -6.7326 -2.3351 0.9695
3.0527 -6.7143 -2.3352 0.9695
3.1359 -6.6770 -2.3355 0.9695
3.2187 -6.6386 -2.3358 0.9695
3.2599 -6.6190 -2.3360 0.9695
3.3010 -6.5992 -2.3362 0.9695
3.3420 -6.5791 -2.3363 0.9695
3.4642 -6.5174 -2.3368 0.9695
3.5047 -6.4963 -2.3370 0.9695
3.5451 -6.4750 -2.3372 0.9695
3.6254 -6.4317 -2.3376 0.9695
3.7847 -6.3421 -2.3383 0.9695
3.8242 -6.3191 -2.3385 0.9695
3.9027 -6.2724 -2.3389 0.9695
3.9417 -6.2487 -2.3391 0.9695
4.0580 -6.1761 -2.3397 0.9695
4.1349 -6.1266 -2.3402 0.9695
4.1731 -6.1014 -2.3404 0.9695
4.2111 -6.0761 -2.3406 0.9695
4.3618 -5.9724 -2.3415 0.9694
4.3991 -5.9458 -2.3417 0.9694
4.4362 -5.9191 -2.3420 0.9694
4.4732 -5.8922 -2.3422 0.9694
4.5100 -5.8650 -2.3424 0.9694
4.5466 -5.8376 -2.3427 0.9694
4.6194 -5.7821 -2.3431 0.9694
4.7274 -5.6972 -2.3439 0.9694
4.7986 -5.6395 -2.3444 0.9694
4.8338 -5.6104 -2.3447 0.9694
4.8690 -5.5810 -2.3449 0.9694
4.9387 -5.5215 -2.3454 0.9694
5.1437 -5.3382 -2.3471 0.9694
5.2437 -5.2437 -2.3479 0.9694
5.3421 -5.1474 -2.3487 0.9694
5.3745 -5.1149 -2.3490 0.9694
5.4066 -5.0822 -2.3493 0.9693
5.4387 -5.0493 -2.3496 0.9693
5.4704 -5.0162 -2.3499 0.9693
5.5335 -4.9494 -2.3505 0.9693
5.5647 -4.9158 -2.3508 0.9693
5.5957 -4.8819 -2.3511 0.9693
5.6265 -4.8478 -2.3514 0.9693
5.6571 -4.8135 -2.3517 0.9693
5.6876 -4.7791 -2.3520 0.9693
5.7477 -4.7096 -2.3527 0.9693
5.7775 -4.6746 -2.3530 0.9693
5.8657 -4.5685 -2.3539 0.9693
5.8946 -4.5327 -2.3543 0.9693
5.9233 -4.4968 -2.3546 0.9693
5.9518 -4.4607 -2.3549 0.9693
5.9801 -4.4244 -2.3552 0.9693
6.0361 -4.3513 -2.3559 0.9693
6.0638 -4.3146 -2.3562 0.9693
6.0912 -4.2776 -2.3566 0.9693
6.1722 -4.1656 -2.3576 0.9692
6.1987 -4.1280 -2.3579 0.9692
6.2250 -4.0902 -2.3583 0.9692
6.2511 -4.0522 -2.3586 0.9692
6.2769 -4.0140 -2.3589 0.9692
6.3532 -3.8987 -2.3600 0.9692
6.4028 -3.8209 -2.3607 0.9692
6.4273 -3.7818 -2.3611 0.9692
6.4515 -3.7425 -2.3614 0.9692
6.4755 -3.7031 -2.3618 0.9692
6.5229 -3.6239 -2.3625 0.9692
6.5461 -3.5840 -2.3629 0.9692
6.6146 -3.4636 -2.3640 0.9692
6.7449 -3.2189 -2.3662 0.9691
6.7658 -3.1776 -2.3666 0.9691
6.8268 -3.0530 -2.3677 0.9691
6.8663 -2.9693 -2.3685 0.9691
6.9048 -2.8851 -2.3693 0.9691
6.9422 -2.8004 -2.3701 0.9691
6.9605 -2.7579 -2.3704 0.9691
7.0141 -2.6296 -2.3716 0.9691
7.0979 -2.4135 -2.3736 0.9690
7.1139 -2.3700 -2.3740 0.9690
7.1451 -2.2826 -2.3748 0.9690
7.1753 -2.1948 -2.3757 0.9690
7.1900 -2.1507 -2.3761 0.9690
7.2044 -2.1066 -2.3765 0.9690
7.2324 -2.0180 -2.3773 0.9690
7.2460 -1.9736 -2.3777 0.9690
7.2593 -1.9291 -2.3781 0.9690
7.2724 -1.8845 -2.3785 0.9690
7.3099 -1.7502 -2.3798 0.9690
7.3336 -1.6602 -2.3806 0.9689
7.3776 -1.4794 -2.3823 0.9689
7.3879 -1.4340 -2.3827 0.9689
7.4172 -1.2974 -2.3840 0.9689
7.4264 -1.2517 -2.3844 0.9689
7.4440 -1.1601 -2.3853 0.9689
7.4524 -1.1143 -2.3857 0.9689
7.4605 -1.0684 -2.3862 0.9689
7.4683 -1.0224 -2.3866 0.9689
7.4831 -0.9303 -2.3874 0.9689
7.4900 -0.8842 -2.3879 0.9689
7.4967 -0.8380 -2.3883 0.9688
7.5031 -0.7917 -2.3887 0.9688
7.5093 -0.7455 -2.3892 0.9688
7.5151 -0.6991 -2.3896 0.9688
7.5259 -0.6064 -2.3905 0.9688
7.5356 -0.5134 -2.3914 0.9688
7.5400 -0.4669 -2.3918 0.9688
7.5441 -0.4203 -2.3922 0.9688
7.5548 -0.2805 -2.3936 0.9688
7.5684 -0.0000 -2.3962 0.9687
7.5705 0.0936 -2.3971 0.9687
7.5712 0.1405 -2.3975 0.9687
7.5715 0.2811 -2.3989 0.9687
7.5692 0.4217 -2.4002 0.9687
7.5679 0.4686 -2.4006 0.9687
7.5662 0.5155 -2.4011 0.9687
7.5567 0.7030 -2.4029 0.9687
7.5426 0.8904 -2.4046 0.9686
7.5290 1.0307 -2.4060 0.9686
7.5184 1.1242 -2.4069 0.9686
7.5068 1.2175 -2.4078 0.9686
7.4798 1.4039 -2.4095 0.9686
7.4724 1.4504 -2.4100 0.9686
7.4646 1.4968 -2.4104 0.9686
7.4566 1.5432 -2.4109 0.9686
7.4483 1.5896 -2.4113 0.9686
7.4216 1.7285 -2.4126 0.9685
7.4024 1.8208 -2.4135 0.9685
7.3605 2.0048 -2.4153 0.9685
7.3492 2.0507 -2.4157 0.9685
7.3260 2.1422 -2.4166 0.9685
7.2890 2.2790 -2.4179 0.9685
7.2494 2.4151 -2.4192 0.9684
7.2356 2.4603 -2.4197 0.9684
7.2216 2.5055 -2.4201 0.9684
7.1926 2.5955 -2.4210 0.9684
7.1471 2.7299 -2.4223 0.9684
7.1313 2.7746 -2.4227 0.9684
7.0989 2.8636 -2.4236 0.9684
7.0823 2.9080 -2.4240 0.9684
6.9952 3.1283 -2.4261 0.9684
6.9769 3.1720 -2.4265 0.9684
6.9584 3.2157 -2.4270 0.9683
6.9396 3.2592 -2.4274 0.9683
6.8815 3.3892 -2.4287 0.9683
6.8210 3.5181 -2.4299 0.9683
6.6703 3.8145 -2.4328 0.9683
6.6247 3.8980 -2.4336 0.9683
6.6017 3.9396 -2.4340 0.9683
6.5307 4.0633 -2.4352 0.9682
6.5065 4.1043 -2.4356 0.9682
6.4072 4.2668 -2.4372 0.9682
6.3560 4.3471 -2.4380 0.9682
6.3300 4.3870 -2.4384 0.9682
6.3038 4.4268 -2.4388 0.9682
6.2773 4.4665 -2.4392 0.9682
6.2505 4.5059 -2.4396 0.9682
6.2235 4.5452 -2.4400 0.9682
6.1688 4.6233 -2.4407 0.9682
6.1410 4.6621 -2.4411 0.9682
6.0848 4.7391 -2.4419 0.9682
6.0563 4.7774 -2.4422 0.9682
6.0276 4.8155 -2.4426 0.9681
5.9986 4.8534 -2.4430 0.9681
5.9694 4.8912 -2.4434 0.9681
5.9399 4.9288 -2.4437 0.9681
5.9102 4.9662 -2.4441 0.9681
5.8197 5.0772 -2.4452 0.9681
5.7890 5.1139 -2.4456 0.9681
5.6957 5.2227 -2.4467 0.9681
5.6323 5.2943 -2.4474 0.9681
5.6002 5.3298 -2.4477 0.9681
5.5680 5.3651 -2.4481 0.9681
5.5355 5.4002 -2.4484 0.9681
5.5028 5.4351 -2.4488 0.9681
5.4367 5.5043 -2.4495 0.9681
5.4033 5.5386 -2.4498 0.9681
5.3018 5.6402 -2.4508 0.9680
5.2676 5.6737 -2.4512 0.9680
5.1943 5.6647 -2.4333 0.9683
4.7689 5.5349 -2.3131 0.9698
4.7029 5.5271 -2.2977 0.9700
4.6014 5.6156 -2.2986 0.9700
4.5327 5.6736 -2.2992 0.9700
4.4633 5.7306 -2.2998 0.9700
4.4284 5.7588 -2.3000 0.9700
4.3932 5.7868 -2.3003 0.9700
4.2147 5.9235 -2.3017 0.9700
4.1785 5.9501 -2.3020 0.9700
4.1421 5.9766 -2.3023 0.9700
4.0688 6.0287 -2.3028 0.9699
4.0320 6.0545 -2.3031 0.9699
3.9203 6.1303 -2.3038 0.9699
3.8827 6.1551 -2.3041 0.9699
3.8450 6.1797 -2.3044 0.9699
3.7691 6.2281 -2.3049 0.9699
3.7309 6.2520 -2.3051 0.9699
3.6926 6.2756 -2.3053 0.9699
3.5377 6.3677 -2.3063 0.9699
3.4594 6.4122 -2.3068 0.9699
3.4199 6.4341 -2.3070 0.9699
3.3804 6.4558 -2.3072 0.9699
3.3010 6.4984 -2.3077 0.9699
3.0999 6.6004 -2.3088 0.9699
2.9778 6.6586 -2.3094 0.9699
2.8545 6.7144 -2.3100 0.9699
2.7717 6.7503 -2.3104 0.9698
2.7301 6.7679 -2.3105 0.9698
2.5627 6.8355 -2.3113 0.9698
2.4783 6.8677 -2.3116 0.9698
2.2656 6.9436 -2.3125 0.9698
2.2228 6.9579 -2.3126 0.9698
2.1799 6.9720 -2.3128 0.9698
2.1369 6.9858 -2.3129 0.9698
2.0937 6.9994 -2.3131 0.9698
2.0072 7.0256 -2.3134 0.9698
1.9205 7.0508 -2.3137 0.9698
1.8333 7.0748 -2.3140 0.9698
1.7896 7.0865 -2.3141 0.9698
1.5701 7.1404 -2.3147 0.9698
1.3490 7.1872 -2.3153 0.9698
1.3045 7.1958 -2.3154 0.9698
1.2601 7.2040 -2.3155 0.9698
1.2155 7.2120 -2.3156 0.9698
0.9922 7.2476 -2.3161 0.9698
0.9474 7.2538 -2.3161 0.9698
0.7228 7.2809 -2.3165 0.9698
0.6327 7.2897 -2.3167 0.9698
0.5876 7.2937 -2.3167 0.9698
0.5425 7.2973 -2.3168 0.9698
0.3167 7.3115 -2.3170 0.9698
0.2715 7.3134 -2.3171 0.9698
0.1810 7.3164 -2.3172 0.9698
-0.0000 7.3191 -2.3173 0.9698
-0.0453 7.3190 -2.3173 0.9698
-0.0905 7.3186 -2.3173 0.9698
-0.4072 7.3082 -2.3174 0.9698
-0.4524 7.3055 -2.3174 0.9698
-0.6329 7.2920 -2.3174 0.9698
-0.6780 7.2879 -2.3174 0.9698
-0.7231 7.2836 -2.3174 0.9698
-0.8580 7.2687 -2.3173 0.9698
-0.9029 7.2632 -2.3173 0.9698
-0.9927 7.2513 -2.3172 0.9698
-1.0375 7.2449 -2.3172 0.9698
-1.1270 7.2313 -2.3171 0.9698
-1.1717 7.2241 -2.3171 0.9698
-1.2163 7.2165 -2.3170 0.9698
-1.3499 7.1922 -2.3169 0.9698
-1.4387 7.1746 -2.3168 0.9698
-1.5714 7.1461 -2.3166 0.9698
-1.6155 7.1360 -2.3165 0.9698
-1.7474 7.1041 -2.3163 0.9698
-1.8350 7.0815 -2.3161 0.9698
-1.9223 7.0577 -2.3159 0.9698
-2.0093 7.0328 -2.3157 0.9698
-2.1391 6.9934 -2.3154 0.9698
-2.1822 6.9797 -2.3153 0.9698
-2.2252 6.9657 -2.3152 0.9698
-2.2682 6.9515 -2.3151 0.9698
-2.4813 6.8763 -2.3145 0.9698
-2.5237 6.8604 -2.3144 0.9698
-2.6501 6.8112 -2.3140 0.9698
-2.7755 6.7597 -2.3136 0.9698
-2.8171 6.7420 -2.3134 0.9698
-2.9822 6.6685 -2.3128 0.9698
-3.0232 6.6495 -2.3127 0.9698
-3.0640 6.6302 -2.3125 0.9698
-3.1048 6.6106 -2.3123 0.9698
-3.1453 6.5908 -2.3122 0.9698
-3.1858 6.5708 -2.3120 0.9698
-3.2663 6.5300 -2.3117 0.9698
-3.3464 6.4880 -2.3113 0.9698
-3.3862 6.4667 -2.3111 0.9698
-3.4653 6.4233 -2.3108 0.9698
-3.5047 6.4013 -2.3106 0.9698
-3.5439 6.3789 -2.3104 0.9698
-3.5830 6.3564 -2.3102 0.9698
-3.6219 6.3336 -2.3100 0.9699
-3.6994 6.2872 -2.3096 0.9699
-3.7379 6.2637 -2.3094 0.9699
-3.8144 6.2159 -2.3090 0.9699
-3.8524 6.1916 -2.3088 0.9699
-3.8902 6.1671 -2.3086 0.9699
-3.9280 6.1423 -2.3084 0.9699
-4.0771 6.0410 -2.3075 0.9699
-4.1507 5.9890 -2.3070 0.9699
-4.2236 5.9360 -2.3066 0.9699
-4.2959 5.8821 -2.3061 0.9699
-4.3317 5.8548 -2.3059 0.9699
-4.3674 5.8273 -2.3056 0.9699
-4.4029 5.7996 -2.3054 0.9699
-4.4382 5.7716 -2.3051 0.9699
-4.6120 5.6286 -2.3039 0.9699
-4.6462 5.5993 -2.3036 0.9699
-4.7811 5.4802 -2.3026 0.9699
-4.8802 5.3886 -2.3018 0.9700
-4.9453 5.3266 -2.3012 0.9700
-4.9775 5.2953 -2.3009 0.9700
-5.0096 5.2638 -2.3007 0.9700
-5.0414 5.2320 -2.3004 0.9700
-5.1045 5.1680 -2.2998 0.9700
-5.3723 5.0499 -2.3344 0.9695
-5.4567 5.0660 -2.3574 0.9692
-5.5460 5.0855 -2.3824 0.9689
-5.7309 5.1260 -2.4344 0.9683
-5.8047 5.1278 -2.4522 0.9680
-5.8965 5.0172 -2.4512 0.9680
-5.9266 4.9799 -2.4509 0.9680
-5.9564 4.9425 -2.4506 0.9680
-6.0446 4.8291 -2.4495 0.9681
-6.0735 4.7910 -2.4492 0.9681
-6.2143 4.5977 -2.4474 0.9681
-6.3224 4.4400 -2.4460 0.9681
-6.4264 4.2797 -2.4446 0.9681
-6.4518 4.2392 -2.4442 0.9681
-6.5264 4.1169 -2.4431 0.9681
-6.5747 4.0346 -2.4423 0.9682
-6.6221 3.9518 -2.4416 0.9682
-6.6454 3.9101 -2.4412 0.9682
-6.6684 3.8683 -2.4408 0.9682
-6.6911 3.8264 -2.4404 0.9682
-6.7136 3.7844 -2.4400 0.9682
-6.8428 3.5293 -2.4377 0.9682
-6.9037 3.4001 -2.4365 0.9682
-6.9235 3.3568 -2.4361 0.9682
-6.9622 3.2698 -2.4353 0.9682
-6.9998 3.1825 -2.4345 0.9683
-7.0717 3.0063 -2.4329 0.9683
-7.1059 2.9176 -2.4320 0.9683
-7.1226 2.8731 -2.4316 0.9683
-7.1710 2.7391 -2.4304 0.9683
-7.1866 2.6942 -2.4300 0.9683
-7.2316 2.5592 -2.4287 0.9683
-7.2602 2.4687 -2.4279 0.9683
-7.2740 2.4233 -2.4275 0.9683
-7.3139 2.2867 -2.4262 0.9684
-7.3746 2.0577 -2.4241 0.9684
-7.3859 2.0117 -2.4236 0.9684
-7.3969 1.9656 -2.4232 0.9684
-7.4281 1.8271 -2.4219 0.9684
-7.4475 1.7345 -2.4210 0.9684
-7.4657 1.6416 -2.4202 0.9684
-7.4908 1.5020 -2.4189 0.9685
-7.4986 1.4554 -2.4184 0.9685
-7.5061 1.4088 -2.4180 0.9685
-7.5269 1.2686 -2.4167 0.9685
-7.5392 1.1750 -2.4158 0.9685
-7.5556 1.0343 -2.4145 0.9685
-7.5604 0.9874 -2.4140 0.9685
-7.5650 0.9405 -2.4136 0.9685
-7.5693 0.8935 -2.4132 0.9685
-7.5733 0.8465 -2.4127 0.9685
-7.5770 0.7996 -2.4123 0.9685
-7.5835 0.7055 -2.4114 0.9685
-7.5889 0.6115 -2.4105 0.9686
-7.5911 0.5644 -2.4101 0.9686
-7.5931 0.5173 -2.4096 0.9686
-7.5972 0.3762 -2.4083 0.9686
-7.5979 0.3291 -2.4078 0.9686
-7.5974 0.0940 -2.4056 0.9686
-7.5965 0.0470 -2.4052 0.9686
-7.4020 -0.0458 -2.4042 0.9693
-7.4002 -0.0915 -2.4037 0.9694
-7.3982 -0.1373 -2.4033 0.9694
-7.3932 -0.2287 -2.4024 0.9694
-7.3871 -0.3200 -2.4016 0.9694
-7.3837 -0.3656 -2.4011 0.9694
-7.3799 -0.4112 -2.4007 0.9694
-7.3716 -0.5022 -2.3998 0.9694
-7.3571 -0.6386 -2.3985 0.9694
-7.3517 -0.6839 -2.3981 0.9694
-7.3337 -0.8198 -2.3968 0.9694
-7.3272 -0.8650 -2.3964 0.9694
-7.3133 -0.9552 -2.3955 0.9695
-7.3060 -1.0002 -2.3951 0.9695
-7.2983 -1.0452 -2.3947 0.9695
-7.2823 -1.1350 -2.3938 0.9695
-7.2738 -1.1797 -2.3934 0.9695
-7.2650 -1.2245 -2.3929 0.9695
-7.2274 -1.4028 -2.3912 0.9695
-7.1963 -1.5358 -2.3900 0.9695
-7.1742 -1.6241 -2.3891 0.9695
-7.1390 -1.7560 -2.3878 0.9696
-7.1142 -1.8435 -2.3870 0.9696
-7.1014 -1.8871 -2.3866 0.9696
-7.0751 -1.9741 -2.3857 0.9696
-7.0192 -2.1471 -2.3841 0.9696
-7.0046 -2.1900 -2.3837 0.9696
-6.9897 -2.2329 -2.3833 0.9696
-6.9745 -2.2757 -2.3828 0.9696
-6.9591 -2.3184 -2.3824 0.9696
-6.9434 -2.3610 -2.3820 0.9696
-6.9275 -2.4035 -2.3816 0.9696
-6.9113 -2.4458 -2.3812 0.9696
-6.8949 -2.4881 -2.3808 0.9696
-6.8782 -2.5303 -2.3804 0.9696
-6.8440 -2.6142 -2.3796 0.9697
-6.8266 -2.6561 -2.3792 0.9697
-6.8088 -2.6978 -2.3788 0.9697
-6.7542 -2.8222 -2.3775 0.9697
-6.6778 -2.9864 -2.3759 0.9697
-6.6581 -3.0271 -2.3756 0.9697
-6.6180 -3.1082 -2.3748 0.9697
-6.5975 -3.1486 -2.3744 0.9697
-6.5559 -3.2288 -2.3736 0.9697
-6.4917 -3.3483 -2.3724 0.9697
-6.4698 -3.3878 -2.3720 0.9698
-6.4253 -3.4664 -2.3713 0.9698
-6.4028 -3.5055 -2.3709 0.9698
-6.3100 -3.6605 -2.3694 0.9698
-6.2863 -3.6988 -2.3690 0.9698
-6.2623 -3.7371 -2.3686 0.9698
-6.2381 -3.7751 -2.3682 0.9698
-6.1890 -3.8508 -2.3675 0.9698
-6.1641 -3.8884 -2.3671 0.9698
-6.1389 -3.9258 -2.3668 0.9698
-6.1136 -3.9631 -2.3664 0.9698
-6.0880 -4.0002 -2.3660 0.9698
-6.0622 -4.0371 -2.3657 0.9698
-6.0362 -4.0739 -2.3653 0.9698
-6.0100 -4.1106 -2.3649 0.9698
-5.9569 -4.1833 -2.3642 0.9699
-5.9300 -4.2194 -2.3639 0.9699
-5.8756 -4.2911 -2.3632 0.9699
-5.8481 -4.3267 -2.3628 0.9699
-5.8204 -4.3622 -2.3624 0.9699
-5.6786 -4.5367 -2.3607 0.9699
-5.6496 -4.5711 -2.3604 0.9699
-5.6204 -4.6053 -2.3600 0.9699
-5.5614 -4.6731 -2.3594 0.9699
-5.5316 -4.7067 -2.3590 0.9699
-5.5016 -4.7402 -2.3587 0.9699
-5.4714 -4.7734 -2.3584 0.9699
-5.4411 -4.8065 -2.3580 0.9699
-5.3797 -4.8721 -2.3574 0.9699
-5.3487 -4.9046 -2.3571 0.9699
-5.2862 -4.9690 -2.3564 0.9699
-5.2229 -5.0327 -2.3558 0.9700
-5.0941 -5.1576 -2.3545 0.9700
-5.0287 -5.2188 -2.3539 0.9700
-4.9956 -5.2491 -2.3536 0.9700
-4.8955 -5.3388 -2.3527 0.9700
-4.8279 -5.3976 -2.3521 0.9700
-4.7938 -5.4267 -2.3518 0.9700
-4.7252 -5.4842 -2.3512 0.9700
-4.6906 -5.5126 -2.3509 0.9700
-4.6558 -5.5409 -2.3506 0.9700
-4.6209 -5.5689 -2.3504 0.9700
-4.5858 -5.5967 -2.3501 0.9700
-4.4439 -5.7057 -2.3490 0.9700
-4.4080 -5.7324 -2.3487 0.9700
-4.3358 -5.7852 -2.3482 0.9701
-4.2263 -5.8626 -2.3474 0.9701
-4.1895 -5.8880 -2.3471 0.9701
-4.1526 -5.9131 -2.3468 0.9701
-4.0782 -5.9627 -2.3463 0.9701
-4.0408 -5.9872 -2.3461 0.9701
-3.9656 -6.0354 -2.3456 0.9701
-3.8899 -6.0828 -2.3451 0.9701
-3.7751 -6.1520 -2.3444 0.9701
-3.7367 -6.1746 -2.3441 0.9701
-3.4636 -6.3262 -2.3425 0.9701
-3.3447 -6.3876 -2.3419 0.9701
-3.2649 -6.4273 -2.3415 0.9701
-3.1443 -6.4851 -2.3409 0.9701
-3.1038 -6.5039 -2.3407 0.9701
-3.0226 -6.5407 -2.3403 0.9702
-2.8590 -6.6113 -2.3395 0.9702
-2.8179 -6.6283 -2.3393 0.9702
-2.7766 -6.6451 -2.3391 0.9702
-2.6522 -6.6940 -2.3386 0.9702
-2.6106 -6.7097 -2.3384 0.9702
-2.5270 -6.7405 -2.3381 0.9702
-2.4010 -6.7848 -2.3376 0.9702
-2.3166 -6.8131 -2.3373 0.9702
