ply
format ascii 1.0
element vertex 1596
property float32 x
property float32 y
property float32 z
property float32 I
end_header
-8.6827 -0.1074 -2.3985 0.9646
-8.6703 -0.3219 -2.3966 0.9646
-8.6576 -0.4824 -2.3951 0.9647
-8.6418 -0.6424 -2.3937 0.9647
-8.6298 -0.7491 -2.3927 0.9647
-8.6232 -0.8022 -2.3922 0.9647
-8.6091 -0.9084 -2.3912 0.9647
-8.6016 -0.9615 -2.3908 0.9647
-8.5938 -1.0145 -2.3903 0.9647
-8.5856 -1.0674 -2.3898 0.9647
-8.5771 -1.1202 -2.3893 0.9647
-8.5683 -1.1730 -2.3888 0.9647
-8.5591 -1.2257 -2.3883 0.9648
-8.5497 -1.2784 -2.3879 0.9648
-8.5399 -1.3310 -2.3874 0.9648
-8.5194 -1.4359 -2.3864 0.9648
-8.4862 -1.5928 -2.3850 0.9648
-8.4376 -1.8007 -2.3831 0.9648
-8.3977 -1.9558 -2.3817 0.9649
-8.3838 -2.0073 -2.3812 0.9649
-8.3250 -2.2123 -2.3794 0.9649
-8.3096 -2.2633 -2.3789 0.9649
-8.2938 -2.3142 -2.3784 0.9649
-8.2778 -2.3650 -2.3780 0.9649
-8.2447 -2.4662 -2.3771 0.9649
-8.2277 -2.5167 -2.3766 0.9649
-8.2104 -2.5671 -2.3762 0.9649
-8.1928 -2.6173 -2.3757 0.9649
-8.1749 -2.6674 -2.3752 0.9649
-8.1193 -2.8169 -2.3739 0.9650
-8.0611 -2.9654 -2.3725 0.9650
-8.0208 -3.0637 -2.3716 0.9650
-7.9581 -3.2102 -2.3703 0.9650
-7.9366 -3.2588 -2.3699 0.9650
-7.8478 -3.4515 -2.3681 0.9650
-7.8017 -3.5470 -2.3673 0.9651
-7.6058 -3.9228 -2.3639 0.9651
-7.5277 -4.0611 -2.3626 0.9651
-7.4742 -4.1525 -2.3618 0.9651
-7.4471 -4.1979 -2.3614 0.9651
-7.4197 -4.2431 -2.3610 0.9652
-7.3075 -4.4223 -2.3593 0.9652
-7.2788 -4.4667 -2.3589 0.9652
-7.2498 -4.5108 -2.3585 0.9652
-7.1910 -4.5986 -2.3577 0.9652
-7.0704 -4.7719 -2.3562 0.9652
-7.0085 -4.8574 -2.3554 0.9652
-6.9772 -4.8998 -2.3550 0.9652
-6.9138 -4.9841 -2.3542 0.9652
-6.8495 -5.0676 -2.3535 0.9653
-6.7841 -5.1503 -2.3527 0.9653
-6.7178 -5.2322 -2.3520 0.9653
-6.6843 -5.2728 -2.3516 0.9653
-6.6505 -5.3132 -2.3513 0.9653
-6.4429 -5.5512 -2.3491 0.9653
-6.4075 -5.5901 -2.3488 0.9653
-6.3360 -5.6672 -2.3481 0.9653
-6.2999 -5.7055 -2.3477 0.9653
-6.2636 -5.7436 -2.3474 0.9653
-6.2270 -5.7813 -2.3471 0.9654
-6.1161 -5.8933 -2.3460 0.9654
-6.0786 -5.9301 -2.3457 0.9654
-5.9651 -6.0394 -2.3447 0.9654
-5.7323 -6.2514 -2.3428 0.9654
-5.6927 -6.2859 -2.3425 0.9654
-5.5730 -6.3879 -2.3416 0.9654
-5.5327 -6.4214 -2.3413 0.9654
-5.4514 -6.4877 -2.3407 0.9654
-5.4105 -6.5205 -2.3404 0.9655
-5.3694 -6.5530 -2.3401 0.9655
-5.3281 -6.5853 -2.3398 0.9655
-5.2867 -6.6173 -2.3395 0.9655
-5.2450 -6.6491 -2.3392 0.9655
-5.2032 -6.6805 -2.3390 0.9655
-5.1189 -6.7428 -2.3384 0.9655
-5.0765 -6.7735 -2.3381 0.9655
-5.0339 -6.8040 -2.3379 0.9655
-4.8184 -6.9524 -2.3365 0.9655
-4.7748 -6.9813 -2.3363 0.9655
-4.7310 -7.0099 -2.3360 0.9655
-4.5542 -7.1217 -2.3350 0.9655
-4.5096 -7.1490 -2.3348 0.9655
-4.4649 -7.1760 -2.3345 0.9655
-4.1931 -7.3323 -2.3331 0.9656
-4.1473 -7.3574 -2.3329 0.9656
-3.9625 -7.4550 -2.3320 0.9656
-3.9160 -7.4787 -2.3318 0.9656
-3.8693 -7.5021 -2.3316 0.9656
-3.8225 -7.5252 -2.3314 0.9656
-3.7756 -7.5480 -2.3312 0.9656
-3.7285 -7.5706 -2.3310 0.9656
-3.6813 -7.5929 -2.3308 0.9656
-3.5865 -7.6365 -2.3304 0.9656
-3.4912 -7.6790 -2.3300 0.9656
-3.3474 -7.7407 -2.3295 0.9656
-3.1053 -7.8376 -2.3286 0.9656
-2.8113 -7.9442 -2.3277 0.9656
-2.7620 -7.9609 -2.3276 0.9656
-2.7125 -7.9774 -2.3274 0.9656
-2.6630 -7.9935 -2.3273 0.9656
-2.5636 -8.0249 -2.3270 0.9656
-2.4639 -8.0550 -2.3267 0.9656
-2.3136 -8.0980 -2.3264 0.9657
-2.2131 -8.1252 -2.3261 0.9657
-2.0110 -8.1759 -2.3257 0.9657
-1.9096 -8.1994 -2.3255 0.9657
-1.8588 -8.2108 -2.3254 0.9657
-1.8079 -8.2218 -2.3253 0.9657
-1.7569 -8.2325 -2.3252 0.9657
-1.5013 -8.2814 -2.3248 0.9657
-1.3473 -8.3070 -2.3246 0.9657
-1.2958 -8.3150 -2.3245 0.9657
-1.1413 -8.3369 -2.3243 0.9657
-1.0897 -8.3436 -2.3242 0.9657
-1.0380 -8.3500 -2.3242 0.9657
-0.9864 -8.3561 -2.3241 0.9657
-0.8311 -8.3725 -2.3240 0.9657
-0.7793 -8.3773 -2.3240 0.9657
-0.7275 -8.3818 -2.3239 0.9657
-0.6237 -8.3899 -2.3239 0.9657
-0.5199 -8.3969 -2.3238 0.9657
-0.4160 -8.4025 -2.3238 0.9657
-0.3641 -8.4048 -2.3238 0.9657
-0.2601 -8.4086 -2.3237 0.9657
-0.2081 -8.4100 -2.3237 0.9657
-0.1040 -8.4119 -2.3237 0.9657
-0.0520 -8.4124 -2.3237 0.9657
0.1561 -8.4113 -2.3238 0.9657
0.2601 -8.4088 -2.3238 0.9657
0.3641 -8.4051 -2.3238 0.9657
0.4161 -8.4028 -2.3239 0.9657
0.4680 -8.4002 -2.3239 0.9657
0.5719 -8.3940 -2.3240 0.9657
0.6239 -8.3904 -2.3240 0.9657
1.0382 -8.3508 -2.3244 0.9657
1.0898 -8.3444 -2.3245 0.9657
1.1930 -8.3308 -2.3246 0.9657
1.2961 -8.3159 -2.3248 0.9657
1.3989 -8.2998 -2.3249 0.9657
1.4503 -8.2913 -2.3250 0.9657
1.5528 -8.2734 -2.3252 0.9657
1.6040 -8.2639 -2.3253 0.9657
1.7062 -8.2441 -2.3255 0.9657
1.8083 -8.2231 -2.3257 0.9657
1.8591 -8.2122 -2.3258 0.9657
1.9100 -8.2009 -2.3259 0.9657
1.9608 -8.1893 -2.3260 0.9657
2.0114 -8.1774 -2.3261 0.9657
2.0621 -8.1652 -2.3262 0.9657
2.1127 -8.1528 -2.3263 0.9657
2.2136 -8.1269 -2.3266 0.9657
2.2639 -8.1134 -2.3267 0.9656
2.3644 -8.0858 -2.3270 0.9656
2.4145 -8.0714 -2.3271 0.9656
2.4644 -8.0568 -2.3273 0.9656
2.5642 -8.0267 -2.3275 0.9656
2.8121 -7.9462 -2.3283 0.9656
2.8614 -7.9292 -2.3285 0.9656
2.9105 -7.9119 -2.3286 0.9656
2.9596 -7.8943 -2.3288 0.9656
3.0086 -7.8765 -2.3290 0.9656
3.0575 -7.8583 -2.3291 0.9656
3.1063 -7.8398 -2.3293 0.9656
3.1549 -7.8210 -2.3295 0.9656
3.2035 -7.8020 -2.3297 0.9656
3.3003 -7.7630 -2.3300 0.9656
3.3485 -7.7430 -2.3302 0.9656
3.3966 -7.7228 -2.3304 0.9656
3.4446 -7.7023 -2.3306 0.9656
3.4924 -7.6815 -2.3308 0.9656
3.5401 -7.6604 -2.3310 0.9656
3.5877 -7.6390 -2.3312 0.9656
3.6826 -7.5954 -2.3316 0.9656
3.7299 -7.5732 -2.3318 0.9656
3.7770 -7.5506 -2.3320 0.9656
3.8239 -7.5278 -2.3322 0.9656
3.8707 -7.5047 -2.3324 0.9656
4.1029 -7.3850 -2.3336 0.9655
4.1489 -7.3602 -2.3338 0.9655
4.2405 -7.3098 -2.3343 0.9655
4.2860 -7.2842 -2.3345 0.9655
4.3315 -7.2583 -2.3347 0.9655
4.3767 -7.2321 -2.3350 0.9655
4.4218 -7.2057 -2.3352 0.9655
4.4667 -7.1789 -2.3355 0.9655
4.6450 -7.0693 -2.3365 0.9655
4.7770 -6.9843 -2.3373 0.9655
4.8206 -6.9554 -2.3376 0.9655
4.9505 -6.8672 -2.3384 0.9655
4.9935 -6.8373 -2.3387 0.9655
5.0789 -6.7766 -2.3392 0.9655
5.1213 -6.7459 -2.3395 0.9655
5.2476 -6.6522 -2.3404 0.9655
5.4132 -6.5237 -2.3416 0.9654
5.4949 -6.4579 -2.3422 0.9654
5.5759 -6.3912 -2.3428 0.9654
5.6560 -6.3234 -2.3434 0.9654
5.7747 -6.2199 -2.3444 0.9654
5.8138 -6.1849 -2.3447 0.9654
5.9300 -6.0786 -2.3457 0.9654
5.9684 -6.0426 -2.3460 0.9654
6.0065 -6.0065 -2.3463 0.9654
6.0444 -5.9701 -2.3467 0.9654
6.0821 -5.9334 -2.3470 0.9654
6.1938 -5.8221 -2.3480 0.9653
6.2306 -5.7846 -2.3484 0.9653
6.2672 -5.7468 -2.3487 0.9653
6.4467 -5.5544 -2.3505 0.9653
6.4820 -5.5153 -2.3509 0.9653
6.5170 -5.4760 -2.3512 0.9653
6.5517 -5.4364 -2.3516 0.9653
6.6205 -5.3567 -2.3523 0.9653
6.7553 -5.1945 -2.3538 0.9653
6.8538 -5.0708 -2.3550 0.9652
6.8861 -5.0291 -2.3553 0.9652
6.9501 -4.9452 -2.3561 0.9652
7.0750 -4.7750 -2.3577 0.9652
7.1660 -4.6452 -2.3589 0.9652
7.1958 -4.6016 -2.3593 0.9652
7.2253 -4.5578 -2.3597 0.9652
7.2546 -4.5138 -2.3601 0.9652
7.2836 -4.4696 -2.3605 0.9652
7.3124 -4.4252 -2.3609 0.9652
7.3692 -4.3360 -2.3617 0.9651
7.4248 -4.2460 -2.3625 0.9651
7.5063 -4.1097 -2.3638 0.9651
7.5853 -3.9719 -2.3651 0.9651
7.6111 -3.9256 -2.3655 0.9651
7.6618 -3.8325 -2.3663 0.9651
7.7114 -3.7388 -2.3672 0.9651
7.7358 -3.6917 -2.3676 0.9651
7.7599 -3.6445 -2.3681 0.9650
7.8305 -3.5018 -2.3694 0.9650
7.8535 -3.4540 -2.3698 0.9650
7.8762 -3.4060 -2.3703 0.9650
7.9206 -3.3095 -2.3711 0.9650
7.9852 -3.1638 -2.3725 0.9650
8.0267 -3.0660 -2.3734 0.9650
8.0471 -3.0169 -2.3738 0.9650
8.0671 -2.9676 -2.3743 0.9650
8.0868 -2.9182 -2.3747 0.9650
8.1254 -2.8190 -2.3756 0.9649
8.1990 -2.6192 -2.3775 0.9649
8.2339 -2.5186 -2.3784 0.9649
8.2676 -2.4175 -2.3793 0.9649
8.3002 -2.3160 -2.3802 0.9649
8.3466 -2.1629 -2.3816 0.9649
8.3615 -2.1116 -2.3821 0.9648
8.4042 -1.9573 -2.3835 0.9648
8.4178 -1.9057 -2.3840 0.9648
8.4441 -1.8021 -2.3849 0.9648
8.4928 -1.5940 -2.3869 0.9648
8.5042 -1.5417 -2.3873 0.9648
8.5153 -1.4894 -2.3878 0.9648
8.5261 -1.4370 -2.3883 0.9648
8.5564 -1.2794 -2.3897 0.9647
8.5750 -1.1739 -2.3907 0.9647
8.5839 -1.1211 -2.3912 0.9647
8.5924 -1.0682 -2.3917 0.9647
8.6006 -1.0153 -2.3921 0.9647
8.6084 -0.9622 -2.3926 0.9647
8.6232 -0.8560 -2.3936 0.9647
8.6300 -0.8029 -2.3941 0.9647
8.6543 -0.5896 -2.3960 0.9646
8.6690 -0.4293 -2.3975 0.9646
8.6808 -0.2685 -2.3990 0.9646
8.6870 -0.1612 -2.3999 0.9646
8.6896 -0.1075 -2.4004 0.9646
8.6919 -0.0537 -2.4009 0.9646
8.6955 0.0538 -2.4019 0.9646
8.6968 0.1075 -2.4024 0.9646
8.6977 0.1614 -2.4029 0.9645
8.6986 0.2691 -2.4039 0.9645
8.6932 0.5923 -2.4068 0.9645
8.6861 0.7539 -2.4083 0.9645
8.6830 0.8078 -2.4088 0.9645
8.6759 0.9155 -2.4098 0.9644
8.6576 1.1307 -2.4117 0.9644
8.6465 1.2382 -2.4127 0.9644
8.6404 1.2919 -2.4132 0.9644
8.6340 1.3456 -2.4137 0.9644
8.6273 1.3993 -2.4142 0.9644
8.5969 1.6135 -2.4161 0.9644
8.5885 1.6670 -2.4166 0.9643
8.5092 2.0930 -2.4205 0.9643
8.4616 2.3047 -2.4224 0.9643
8.4488 2.3575 -2.4229 0.9643
8.4086 2.5153 -2.4243 0.9642
8.3801 2.6201 -2.4253 0.9642
8.3350 2.7767 -2.4267 0.9642
8.3193 2.8288 -2.4272 0.9642
8.3033 2.8808 -2.4276 0.9642
8.2869 2.9326 -2.4281 0.9642
8.2532 3.0361 -2.4291 0.9642
8.2358 3.0877 -2.4295 0.9642
8.2181 3.1391 -2.4300 0.9642
8.2002 3.1905 -2.4305 0.9641
8.1819 3.2418 -2.4309 0.9641
8.1442 3.3440 -2.4318 0.9641
8.1250 3.3949 -2.4323 0.9641
8.1053 3.4458 -2.4328 0.9641
8.0651 3.5471 -2.4337 0.9641
8.0237 3.6480 -2.4346 0.9641
7.9809 3.7483 -2.4355 0.9641
7.9591 3.7983 -2.4360 0.9641
7.9369 3.8481 -2.4364 0.9641
7.9144 3.8979 -2.4369 0.9641
7.8685 3.9969 -2.4378 0.9640
7.8213 4.0955 -2.4387 0.9640
7.7973 4.1445 -2.4391 0.9640
7.7729 4.1934 -2.4396 0.9640
7.7482 4.2422 -2.4400 0.9640
7.7232 4.2908 -2.4404 0.9640
7.5937 4.5315 -2.4426 0.9640
7.5123 4.6741 -2.4439 0.9639
7.4845 4.7213 -2.4443 0.9639
7.3995 4.8619 -2.4456 0.9639
7.3706 4.9084 -2.4460 0.9639
7.3118 5.0009 -2.4469 0.9639
7.2820 5.0468 -2.4473 0.9639
7.2518 5.0927 -2.4477 0.9639
7.2214 5.1383 -2.4481 0.9639
7.1907 5.1837 -2.4485 0.9639
7.1597 5.2289 -2.4489 0.9639
7.0650 5.3635 -2.4501 0.9639
6.9677 5.4964 -2.4513 0.9638
6.9347 5.5403 -2.4517 0.9638
6.9014 5.5839 -2.4521 0.9638
6.8678 5.6274 -2.4525 0.9638
6.8340 5.6707 -2.4529 0.9638
6.7999 5.7137 -2.4533 0.9638
6.6958 5.8417 -2.4545 0.9638
6.6607 5.8839 -2.4548 0.9638
6.6251 5.9258 -2.4552 0.9638
6.5533 6.0092 -2.4560 0.9638
6.5171 6.0505 -2.4564 0.9638
6.4805 6.0916 -2.4567 0.9638
6.3940 6.1611 -2.4526 0.9638
6.2574 6.1045 -2.4147 0.9644
5.8225 5.9683 -2.3031 0.9660
5.7863 6.0050 -2.3035 0.9660
5.5642 6.2208 -2.3054 0.9660
5.4884 6.2909 -2.3060 0.9659
5.3729 6.3942 -2.3070 0.9659
5.2158 6.5286 -2.3082 0.9659
5.0146 6.6909 -2.3096 0.9659
4.8915 6.7853 -2.3105 0.9659
4.8500 6.8162 -2.3107 0.9659
4.8083 6.8469 -2.3110 0.9659
4.7664 6.8773 -2.3113 0.9659
4.7244 6.9075 -2.3116 0.9659
4.6396 6.9670 -2.3121 0.9659
4.5970 6.9963 -2.3124 0.9659
4.5541 7.0254 -2.3126 0.9659
4.5111 7.0542 -2.3129 0.9658
4.4679 7.0828 -2.3131 0.9658
4.3809 7.1391 -2.3136 0.9658
4.3371 7.1668 -2.3139 0.9658
4.0708 7.3273 -2.3153 0.9658
3.9353 7.4037 -2.3160 0.9658
3.8899 7.4286 -2.3162 0.9658
3.8442 7.4532 -2.3164 0.9658
3.7063 7.5254 -2.3171 0.9658
3.6565 7.5415 -2.3151 0.9658
3.5911 7.5248 -2.3031 0.9660
3.2845 7.7258 -2.3189 0.9658
3.2369 7.7466 -2.3191 0.9658
3.1891 7.7671 -2.3192 0.9658
3.1413 7.7873 -2.3194 0.9658
2.8515 7.9019 -2.3204 0.9657
2.6067 7.9889 -2.3212 0.9657
2.5080 8.0215 -2.3215 0.9657
2.4585 8.0374 -2.3216 0.9657
2.3094 8.0830 -2.3220 0.9657
2.1593 8.1257 -2.3224 0.9657
1.6538 8.2474 -2.3235 0.9657
1.6028 8.2578 -2.3235 0.9657
1.5007 8.2776 -2.3237 0.9657
1.4495 8.2870 -2.3238 0.9657
1.2442 8.3214 -2.3241 0.9657
1.1928 8.3291 -2.3241 0.9657
1.1413 8.3366 -2.3242 0.9657
1.0897 8.3437 -2.3243 0.9657
1.0381 8.3504 -2.3243 0.9657
0.9865 8.3569 -2.3244 0.9657
0.8831 8.3688 -2.3245 0.9657
0.7277 8.3842 -2.3246 0.9657
0.6759 8.3886 -2.3246 0.9657
0.6240 8.3928 -2.3247 0.9657
0.4682 8.4033 -2.3248 0.9657
0.4162 8.4061 -2.3248 0.9657
0.3643 8.4085 -2.3248 0.9657
0.3122 8.4107 -2.3248 0.9657
0.2602 8.4125 -2.3248 0.9657
0.2082 8.4140 -2.3248 0.9657
0.1041 8.4160 -2.3248 0.9657
0.0520 8.4165 -2.3248 0.9657
-0.0520 8.4164 -2.3248 0.9657
-0.1041 8.4159 -2.3248 0.9657
-0.2082 8.4139 -2.3248 0.9657
-0.2602 8.4124 -2.3248 0.9657
-0.3642 8.4084 -2.3247 0.9657
-0.4682 8.4030 -2.3247 0.9657
-0.5720 8.3963 -2.3246 0.9657
-0.6240 8.3925 -2.3246 0.9657
-0.7277 8.3838 -2.3245 0.9657
-0.7795 8.3790 -2.3245 0.9657
-0.8313 8.3738 -2.3244 0.9657
-0.9864 8.3564 -2.3242 0.9657
-1.0896 8.3430 -2.3241 0.9657
-1.1926 8.3284 -2.3240 0.9657
-1.2441 8.3206 -2.3239 0.9657
-1.2955 8.3125 -2.3238 0.9657
-1.3468 8.3040 -2.3237 0.9657
-1.4493 8.2861 -2.3236 0.9657
-1.5005 8.2767 -2.3235 0.9657
-1.6026 8.2568 -2.3233 0.9657
-1.9073 8.1894 -2.3226 0.9657
-2.1088 8.1380 -2.3221 0.9657
-2.1590 8.1244 -2.3220 0.9657
-2.2090 8.1104 -2.3219 0.9657
-2.2590 8.0962 -2.3218 0.9657
-2.3089 8.0815 -2.3216 0.9657
-2.4580 8.0358 -2.3212 0.9657
-2.5075 8.0199 -2.3210 0.9657
-2.6061 7.9873 -2.3207 0.9657
-2.7043 7.9533 -2.3204 0.9657
-2.7533 7.9358 -2.3202 0.9657
-2.8021 7.9181 -2.3201 0.9657
-2.8508 7.9000 -2.3199 0.9657
-2.8994 7.8816 -2.3197 0.9658
-2.9478 7.8629 -2.3195 0.9658
-3.0444 7.8247 -2.3192 0.9658
-3.1882 7.7649 -2.3186 0.9658
-3.2359 7.7444 -2.3184 0.9658
-3.3782 7.6811 -2.3178 0.9658
-3.5191 7.6150 -2.3172 0.9658
-3.5658 7.5924 -2.3170 0.9658
-3.6124 7.5695 -2.3167 0.9658
-3.7970 7.4749 -2.3158 0.9658
-3.8884 7.4259 -2.3154 0.9658
-3.9339 7.4011 -2.3152 0.9658
-3.9792 7.3759 -2.3149 0.9658
-4.0243 7.3504 -2.3147 0.9658
-4.0693 7.3246 -2.3145 0.9658
-4.1141 7.2985 -2.3142 0.9658
-4.1587 7.2722 -2.3140 0.9658
-4.2032 7.2456 -2.3138 0.9658
-4.2474 7.2187 -2.3135 0.9658
-4.2915 7.1914 -2.3132 0.9658
-4.3354 7.1639 -2.3130 0.9658
-4.3791 7.1361 -2.3127 0.9659
-4.4659 7.0797 -2.3121 0.9659
-4.5091 7.0511 -2.3119 0.9659
-4.5521 7.0223 -2.3116 0.9659
-4.5949 6.9932 -2.3113 0.9659
-4.6375 6.9638 -2.3111 0.9659
-4.7221 6.9043 -2.3105 0.9659
-4.7642 6.8741 -2.3102 0.9659
-4.8891 6.7820 -2.3094 0.9659
-4.9713 6.7194 -2.3088 0.9659
-5.0122 6.6876 -2.3085 0.9659
-5.0528 6.6557 -2.3082 0.9659
-5.0932 6.6234 -2.3079 0.9659
-5.1334 6.5910 -2.3076 0.9659
-5.2131 6.5253 -2.3070 0.9659
-5.2920 6.4585 -2.3064 0.9659
-5.4087 6.3567 -2.3054 0.9660
-5.5234 6.2526 -2.3045 0.9660
-5.5987 6.1821 -2.3038 0.9660
-5.6360 6.1464 -2.3035 0.9660
-5.6731 6.1106 -2.3032 0.9660
-5.7466 6.0382 -2.3025 0.9660
-5.8551 5.9280 -2.3015 0.9660
-5.9262 5.8533 -2.3008 0.9660
-5.9613 5.8157 -2.3004 0.9660
-6.0310 5.7398 -2.2997 0.9660
-6.0996 5.6630 -2.2990 0.9661
-6.1336 5.6243 -2.2987 0.9661
-6.2339 5.5069 -2.2976 0.9661
-6.2669 5.4674 -2.2972 0.9661
-6.4137 5.3893 -2.3140 0.9658
-6.6561 5.4539 -2.3769 0.9649
-6.7916 5.4951 -2.4131 0.9644
-6.9303 5.5368 -2.4502 0.9639
-6.9632 5.4929 -2.4498 0.9639
-7.0283 5.4046 -2.4490 0.9639
-7.0922 5.3154 -2.4482 0.9639
-7.2167 5.1349 -2.4465 0.9639
-7.2771 5.0435 -2.4457 0.9639
-7.3069 4.9975 -2.4452 0.9639
-7.3656 4.9051 -2.4444 0.9639
-7.4231 4.8119 -2.4435 0.9640
-7.4514 4.7651 -2.4431 0.9640
-7.5071 4.6709 -2.4422 0.9640
-7.6149 4.4806 -2.4405 0.9640
-7.6410 4.4326 -2.4400 0.9640
-7.7178 4.2877 -2.4387 0.9640
-7.7674 4.1904 -2.4378 0.9640
-7.7917 4.1415 -2.4374 0.9640
-7.8157 4.0925 -2.4369 0.9641
-7.8394 4.0434 -2.4365 0.9641
-7.8628 3.9941 -2.4360 0.9641
-7.8859 3.9446 -2.4356 0.9641
-7.9533 3.7955 -2.4342 0.9641
-7.9751 3.7456 -2.4337 0.9641
-7.9966 3.6955 -2.4333 0.9641
-8.0386 3.5949 -2.4324 0.9641
-8.0993 3.4432 -2.4310 0.9641
-8.1571 3.2905 -2.4296 0.9642
-8.2639 2.9821 -2.4268 0.9642
-8.3881 2.5658 -2.4229 0.9643
-8.4292 2.4083 -2.4215 0.9643
-8.4674 2.2501 -2.4201 0.9643
-8.4912 2.1444 -2.4191 0.9643
-8.5026 2.0914 -2.4186 0.9643
-8.5244 1.9853 -2.4176 0.9643
-8.5448 1.8790 -2.4167 0.9643
-8.5546 1.8257 -2.4162 0.9644
-8.5640 1.7724 -2.4157 0.9644
-8.5730 1.7191 -2.4152 0.9644
-8.5818 1.6657 -2.4147 0.9644
-8.6060 1.5053 -2.4132 0.9644
-8.6134 1.4517 -2.4128 0.9644
-8.6272 1.3445 -2.4118 0.9644
-8.6336 1.2909 -2.4113 0.9644
-8.6396 1.2372 -2.4108 0.9644
-8.6558 1.0761 -2.4093 0.9645
-8.6605 1.0224 -2.4088 0.9645
-8.6649 0.9686 -2.4083 0.9645
-8.6727 0.8610 -2.4074 0.9645
-8.6819 0.6995 -2.4059 0.9645
-8.6863 0.5918 -2.4049 0.9645
-8.6880 0.5380 -2.4044 0.9645
-8.6894 0.4841 -2.4039 0.9645
-8.6912 0.3765 -2.4029 0.9645
-8.6916 0.3227 -2.4025 0.9646
-8.6916 0.2688 -2.4020 0.9646
-8.6907 0.1612 -2.4010 0.9646
-8.6885 0.0537 -2.4000 0.9646
-8.4422 0.0000 -2.3995 0.9655
-8.4383 -0.1044 -2.3986 0.9655
-8.4358 -0.1565 -2.3981 0.9655
-8.4330 -0.2087 -2.3976 0.9655
-8.4227 -0.3648 -2.3962 0.9655
-8.4186 -0.4169 -2.3957 0.9656
-8.4142 -0.4688 -2.3953 0.9656
-8.4095 -0.5207 -2.3948 0.9656
-8.3874 -0.7280 -2.3929 0.9656
-8.3745 -0.8314 -2.3920 0.9656
-8.3527 -0.9860 -2.3906 0.9656
-8.3366 -1.0888 -2.3896 0.9656
-8.3280 -1.1401 -2.3892 0.9656
-8.3192 -1.1914 -2.3887 0.9657
-8.3100 -1.2425 -2.3882 0.9657
-8.3006 -1.2937 -2.3878 0.9657
-8.2908 -1.3447 -2.3873 0.9657
-8.2704 -1.4466 -2.3864 0.9657
-8.2373 -1.5988 -2.3850 0.9657
-8.2137 -1.6999 -2.3841 0.9657
-8.1889 -1.8007 -2.3831 0.9657
-8.1761 -1.8510 -2.3827 0.9657
-8.0925 -2.1505 -2.3800 0.9658
-8.0623 -2.2496 -2.3791 0.9658
-8.0467 -2.2990 -2.3786 0.9658
-8.0146 -2.3974 -2.3777 0.9658
-7.9981 -2.4465 -2.3773 0.9658
-7.9643 -2.5443 -2.3764 0.9658
-7.9469 -2.5930 -2.3759 0.9658
-7.9113 -2.6901 -2.3751 0.9658
-7.8931 -2.7385 -2.3746 0.9659
-7.8557 -2.8348 -2.3737 0.9659
-7.7775 -3.0260 -2.3720 0.9659
-7.7572 -3.0735 -2.3716 0.9659
-7.7366 -3.1209 -2.3712 0.9659
-7.6733 -3.2621 -2.3699 0.9659
-7.6516 -3.3089 -2.3694 0.9659
-7.6074 -3.4021 -2.3686 0.9659
-7.4919 -3.6324 -2.3665 0.9660
-7.4680 -3.6781 -2.3661 0.9660
-7.4438 -3.7235 -2.3657 0.9660
-7.4194 -3.7688 -2.3653 0.9660
-7.3697 -3.8590 -2.3645 0.9660
-7.2931 -3.9930 -2.3632 0.9660
-7.2670 -4.0373 -2.3628 0.9660
-7.2407 -4.0815 -2.3624 0.9660
-7.2140 -4.1255 -2.3620 0.9660
-7.1327 -4.2565 -2.3609 0.9660
-7.1051 -4.2998 -2.3605 0.9661
-6.9919 -4.4713 -2.3589 0.9661
-6.9630 -4.5137 -2.3585 0.9661
-6.9044 -4.5980 -2.3578 0.9661
-6.8747 -4.6398 -2.3574 0.9661
-6.6915 -4.8871 -2.3552 0.9661
-6.6285 -4.9679 -2.3544 0.9661
-6.5967 -5.0080 -2.3541 0.9661
-6.5646 -5.0479 -2.3537 0.9662
-6.2994 -5.3600 -2.3509 0.9662
-6.1961 -5.4735 -2.3499 0.9662
-6.1613 -5.5110 -2.3495 0.9662
-6.1262 -5.5482 -2.3492 0.9662
-5.9476 -5.7309 -2.3475 0.9662
-5.9112 -5.7668 -2.3472 0.9662
-5.8008 -5.8731 -2.3463 0.9663
-5.7636 -5.9080 -2.3459 0.9663
-5.5361 -6.1130 -2.3441 0.9663
-5.4587 -6.1794 -2.3435 0.9663
-5.3411 -6.2772 -2.3426 0.9663
-5.3016 -6.3094 -2.3423 0.9663
-5.2618 -6.3412 -2.3421 0.9663
-5.2218 -6.3729 -2.3418 0.9663
-5.1817 -6.4043 -2.3415 0.9663
-5.0194 -6.5274 -2.3404 0.9663
-4.9783 -6.5576 -2.3401 0.9663
-4.8541 -6.6465 -2.3393 0.9664
-4.7705 -6.7046 -2.3388 0.9664
-4.7284 -6.7332 -2.3385 0.9664
-4.6438 -6.7897 -2.3380 0.9664
-4.6012 -6.8176 -2.3378 0.9664
-4.5585 -6.8452 -2.3375 0.9664
-4.4293 -6.9264 -2.3368 0.9664
-4.3860 -6.9529 -2.3366 0.9664
-4.3424 -6.9793 -2.3363 0.9664
-4.2110 -7.0565 -2.3356 0.9664
-4.1668 -7.0818 -2.3354 0.9664
-4.0336 -7.1558 -2.3348 0.9664
-3.9889 -7.1799 -2.3345 0.9664
-3.8540 -7.2508 -2.3339 0.9664
-3.8087 -7.2738 -2.3337 0.9664
-3.7633 -7.2966 -2.3335 0.9664
-3.7179 -7.3191 -2.3333 0.9664
-3.5805 -7.3850 -2.3327 0.9664
-3.4883 -7.4275 -2.3323 0.9665
-3.4421 -7.4483 -2.3322 0.9665
-3.3957 -7.4689 -2.3320 0.9665
-3.3492 -7.4892 -2.3318 0.9665
-3.3025 -7.5092 -2.3316 0.9665
-3.2558 -7.5289 -2.3314 0.9665
-3.0204 -7.6232 -2.3306 0.9665
-2.7824 -7.7104 -2.3298 0.9665
-2.6383 -7.7593 -2.3294 0.9665
-2.5419 -7.7904 -2.3291 0.9665
-2.4935 -7.8055 -2.3290 0.9665
-2.4450 -7.8204 -2.3289 0.9665
-2.3479 -7.8491 -2.3286 0.9665
-2.2992 -7.8631 -2.3285 0.9665
-2.2504 -7.8767 -2.3284 0.9665
-2.2015 -7.8901 -2.3283 0.9665
-2.1526 -7.9032 -2.3281 0.9665
-2.1036 -7.9160 -2.3280 0.9665
-2.0053 -7.9407 -2.3278 0.9665
-1.9561 -7.9526 -2.3277 0.9665
-1.9068 -7.9642 -2.3276 0.9665
-1.8574 -7.9755 -2.3275 0.9665
-1.8080 -7.9865 -2.3274 0.9665
-1.7585 -7.9972 -2.3273 0.9665
-1.5101 -8.0463 -2.3269 0.9665
-1.4603 -8.0552 -2.3268 0.9665
-1.4104 -8.0638 -2.3268 0.9665
-1.3105 -8.0802 -2.3266 0.9665
-1.2605 -8.0879 -2.3266 0.9665
-1.1101 -8.1093 -2.3264 0.9665
-0.9594 -8.1279 -2.3262 0.9665
-0.9091 -8.1336 -2.3262 0.9665
-0.8084 -8.1439 -2.3261 0.9665
-0.7581 -8.1486 -2.3261 0.9665
-0.6572 -8.1571 -2.3260 0.9665
-0.5562 -8.1644 -2.3259 0.9665
-0.5057 -8.1676 -2.3259 0.9665
-0.3541 -8.1754 -2.3259 0.9665
-0.3035 -8.1774 -2.3258 0.9665
-0.2530 -8.1791 -2.3258 0.9665
-0.1012 -8.1823 -2.3258 0.9665
0.1012 -8.1824 -2.3258 0.9665
0.1518 -8.1817 -2.3259 0.9665
0.2025 -8.1806 -2.3259 0.9665
0.2530 -8.1793 -2.3259 0.9665
0.3036 -8.1776 -2.3259 0.9665
0.5058 -8.1680 -2.3260 0.9665
0.6068 -8.1614 -2.3261 0.9665
0.7077 -8.1535 -2.3262 0.9665
0.7581 -8.1491 -2.3262 0.9665
0.8086 -8.1445 -2.3263 0.9665
0.8589 -8.1395 -2.3263 0.9665
0.9596 -8.1286 -2.3264 0.9665
1.0099 -8.1228 -2.3265 0.9665
1.0601 -8.1166 -2.3266 0.9665
1.2606 -8.0888 -2.3268 0.9665
1.3107 -8.0811 -2.3269 0.9665
1.4107 -8.0649 -2.3271 0.9665
1.4606 -8.0563 -2.3271 0.9665
1.5602 -8.0382 -2.3273 0.9665
1.6099 -8.0287 -2.3274 0.9665
1.6596 -8.0189 -2.3275 0.9665
1.7588 -7.9985 -2.3277 0.9665
1.8083 -7.9878 -2.3278 0.9665
1.9565 -7.9540 -2.3281 0.9665
2.0058 -7.9421 -2.3282 0.9665
2.0549 -7.9299 -2.3284 0.9665
2.1040 -7.9175 -2.3285 0.9665
2.2509 -7.8784 -2.3289 0.9665
2.2997 -7.8647 -2.3290 0.9665
2.3971 -7.8366 -2.3293 0.9665
2.4457 -7.8221 -2.3294 0.9665
2.6871 -7.7452 -2.3301 0.9665
2.7831 -7.7124 -2.3304 0.9665
2.8787 -7.6784 -2.3307 0.9665
3.0213 -7.6253 -2.3312 0.9665
3.2099 -7.5505 -2.3320 0.9665
3.2568 -7.5311 -2.3321 0.9665
3.3503 -7.4915 -2.3325 0.9664
3.3968 -7.4712 -2.3327 0.9664
3.4895 -7.4298 -2.3331 0.9664
3.5357 -7.4088 -2.3333 0.9664
3.5817 -7.3874 -2.3335 0.9664
3.7647 -7.2991 -2.3343 0.9664
3.8101 -7.2763 -2.3345 0.9664
4.1242 -7.1094 -2.3361 0.9664
4.1685 -7.0844 -2.3363 0.9664
4.2126 -7.0592 -2.3365 0.9664
4.2567 -7.0338 -2.3368 0.9664
4.3878 -6.9558 -2.3375 0.9664
4.4312 -6.9292 -2.3378 0.9664
4.6032 -6.8204 -2.3388 0.9664
4.6882 -6.7645 -2.3393 0.9664
4.7305 -6.7361 -2.3395 0.9664
4.7726 -6.7075 -2.3398 0.9663
4.8146 -6.6786 -2.3401 0.9663
4.9394 -6.5904 -2.3409 0.9663
5.0217 -6.5304 -2.3415 0.9663
5.0626 -6.5000 -2.3417 0.9663
5.1438 -6.4385 -2.3423 0.9663
5.3042 -6.3124 -2.3435 0.9663
5.3438 -6.2803 -2.3438 0.9663
5.3832 -6.2479 -2.3441 0.9663
5.4225 -6.2153 -2.3444 0.9663
5.5003 -6.1494 -2.3450 0.9663
5.5390 -6.1160 -2.3453 0.9663
5.7292 -5.9459 -2.3469 0.9662
5.7667 -5.9111 -2.3472 0.9662
5.8039 -5.8762 -2.3475 0.9662
5.8410 -5.8410 -2.3478 0.9662
5.8778 -5.8055 -2.3482 0.9662
5.9144 -5.7699 -2.3485 0.9662
6.0230 -5.6616 -2.3495 0.9662
6.0588 -5.6250 -2.3498 0.9662
6.0943 -5.5883 -2.3502 0.9662
6.1296 -5.5512 -2.3505 0.9662
6.2688 -5.4011 -2.3519 0.9662
6.3030 -5.3630 -2.3522 0.9662
6.3370 -5.3248 -2.3526 0.9662
6.4043 -5.2476 -2.3533 0.9662
6.4376 -5.2087 -2.3537 0.9662
6.4707 -5.1696 -2.3540 0.9661
6.5036 -5.1302 -2.3544 0.9661
6.5362 -5.0907 -2.3547 0.9661
6.6007 -5.0110 -2.3555 0.9661
6.6642 -4.9306 -2.3562 0.9661
6.6957 -4.8900 -2.3566 0.9661
6.7269 -4.8493 -2.3570 0.9661
6.7578 -4.8084 -2.3573 0.9661
6.7885 -4.7673 -2.3577 0.9661
6.8189 -4.7259 -2.3581 0.9661
6.8492 -4.6844 -2.3585 0.9661
6.8791 -4.6427 -2.3589 0.9661
6.9088 -4.6009 -2.3593 0.9661
6.9964 -4.4741 -2.3604 0.9661
7.0251 -4.4315 -2.3608 0.9660
7.1097 -4.3025 -2.3620 0.9660
7.1648 -4.2157 -2.3628 0.9660
7.3238 -3.9511 -2.3652 0.9660
7.3493 -3.9064 -2.3656 0.9660
7.4489 -3.7260 -2.3673 0.9660
7.5208 -3.5891 -2.3686 0.9659
7.5442 -3.5432 -2.3690 0.9659
7.5673 -3.4971 -2.3694 0.9659
7.5901 -3.4508 -2.3698 0.9659
7.6787 -3.2644 -2.3715 0.9659
7.7001 -3.2174 -2.3720 0.9659
7.7213 -3.1703 -2.3724 0.9659
7.7421 -3.1231 -2.3728 0.9659
7.7627 -3.0757 -2.3733 0.9659
7.7831 -3.0282 -2.3737 0.9659
7.8228 -2.9328 -2.3746 0.9659
7.8422 -2.8849 -2.3750 0.9658
7.8614 -2.8369 -2.3754 0.9658
7.8988 -2.7404 -2.3763 0.9658
7.9171 -2.6920 -2.3768 0.9658
7.9527 -2.5949 -2.3777 0.9658
8.0040 -2.4483 -2.3790 0.9658
8.0205 -2.3992 -2.3795 0.9658
8.0682 -2.2513 -2.3808 0.9658
8.1133 -2.1024 -2.3822 0.9657
8.1417 -2.0026 -2.3831 0.9657
8.1556 -1.9526 -2.3835 0.9657
8.1690 -1.9025 -2.3840 0.9657
8.1822 -1.8523 -2.3845 0.9657
8.2319 -1.6506 -2.3863 0.9657
8.2766 -1.4477 -2.3882 0.9657
8.2871 -1.3967 -2.3886 0.9657
8.2971 -1.3457 -2.3891 0.9656
8.3164 -1.2435 -2.3900 0.9656
8.3256 -1.1923 -2.3905 0.9656
8.3512 -1.0382 -2.3919 0.9656
8.3591 -0.9867 -2.3924 0.9656
8.3667 -0.9352 -2.3928 0.9656
8.3809 -0.8320 -2.3938 0.9656
8.3875 -0.7803 -2.3943 0.9656
8.3938 -0.7286 -2.3947 0.9656
8.3999 -0.6768 -2.3952 0.9656
8.4160 -0.5211 -2.3966 0.9655
8.4207 -0.4692 -2.3971 0.9655
8.4329 -0.3130 -2.3985 0.9655
8.4395 -0.2088 -2.3995 0.9655
8.4423 -0.1566 -2.4000 0.9655
8.4488 0.0000 -2.4014 0.9655
8.4504 0.0522 -2.4019 0.9655
8.4530 0.3138 -2.4042 0.9654
8.4519 0.4185 -2.4052 0.9654
8.4508 0.4708 -2.4057 0.9654
8.4494 0.5232 -2.4062 0.9654
8.4477 0.5756 -2.4066 0.9654
8.4433 0.6802 -2.4076 0.9654
8.4406 0.7326 -2.4081 0.9654
8.4376 0.7849 -2.4085 0.9654
8.4342 0.8373 -2.4090 0.9654
8.4306 0.8896 -2.4095 0.9654
8.4176 1.0465 -2.4109 0.9653
8.4073 1.1510 -2.4119 0.9653
8.3957 1.2553 -2.4128 0.9653
8.3895 1.3075 -2.4133 0.9653
8.3828 1.3596 -2.4138 0.9653
8.3611 1.5158 -2.4152 0.9653
8.3533 1.5677 -2.4157 0.9653
8.3450 1.6198 -2.4161 0.9653
8.3089 1.8271 -2.4180 0.9652
8.2564 2.0851 -2.4204 0.9652
8.2450 2.1365 -2.4208 0.9652
8.2332 2.1879 -2.4213 0.9652
8.2086 2.2905 -2.4222 0.9652
8.1959 2.3416 -2.4227 0.9652
8.1828 2.3927 -2.4232 0.9652
8.1557 2.4947 -2.4241 0.9652
8.1417 2.5456 -2.4246 0.9651
8.1273 2.5964 -2.4250 0.9651
8.0977 2.6977 -2.4259 0.9651
8.0668 2.7987 -2.4269 0.9651
8.0508 2.8491 -2.4273 0.9651
8.0346 2.8993 -2.4278 0.9651
8.0180 2.9495 -2.4282 0.9651
7.9303 3.1990 -2.4305 0.9651
7.8931 3.2981 -2.4314 0.9651
7.8740 3.3474 -2.4319 0.9650
7.8546 3.3967 -2.4323 0.9650
7.7945 3.5437 -2.4336 0.9650
7.7529 3.6412 -2.4345 0.9650
7.6882 3.7865 -2.4358 0.9650
7.6660 3.8346 -2.4363 0.9650
7.6435 3.8826 -2.4367 0.9650
7.6207 3.9305 -2.4371 0.9650
7.5742 4.0259 -2.4380 0.9650
7.5505 4.0734 -2.4384 0.9650
7.5265 4.1208 -2.4389 0.9649
7.4775 4.2150 -2.4397 0.9649
7.4526 4.2619 -2.4401 0.9649
7.2969 4.5401 -2.4427 0.9649
7.2151 4.6771 -2.4439 0.9649
7.1591 4.7676 -2.4447 0.9649
7.1019 4.8573 -2.4455 0.9649
7.0436 4.9464 -2.4463 0.9648
7.0141 4.9907 -2.4467 0.9648
6.9541 5.0787 -2.4475 0.9648
6.9236 5.1225 -2.4479 0.9648
6.8929 5.1660 -2.4483 0.9648
6.8307 5.2526 -2.4491 0.9648
6.7992 5.2956 -2.4495 0.9648
6.7674 5.3383 -2.4499 0.9648
6.7029 5.4233 -2.4507 0.9648
6.6374 5.5075 -2.4514 0.9648
6.5708 5.5909 -2.4522 0.9648
6.4689 5.7144 -2.4533 0.9647
6.2938 5.9161 -2.4551 0.9647
6.2580 5.9558 -2.4555 0.9647
6.2219 5.9952 -2.4558 0.9647
6.1856 6.0345 -2.4562 0.9647
5.7549 5.8990 -2.3424 0.9663
5.5840 5.8673 -2.3022 0.9669
5.5483 5.9025 -2.3025 0.9669
5.5125 5.9375 -2.3028 0.9669
5.4401 6.0069 -2.3034 0.9669
5.4036 6.0412 -2.3037 0.9669
5.3668 6.0753 -2.3040 0.9669
5.2177 6.2095 -2.3053 0.9668
5.1798 6.2424 -2.3056 0.9668
5.1418 6.2751 -2.3058 0.9668
5.1035 6.3076 -2.3061 0.9668
5.0650 6.3399 -2.3064 0.9668
4.8696 6.4974 -2.3078 0.9668
4.7096 6.6190 -2.3089 0.9668
4.6692 6.6487 -2.3092 0.9668
4.6285 6.6783 -2.3095 0.9668
4.5053 6.7653 -2.3102 0.9668
4.4223 6.8220 -2.3108 0.9668
4.3805 6.8499 -2.3110 0.9668
4.3385 6.8776 -2.3113 0.9668
4.2963 6.9051 -2.3115 0.9667
4.2115 6.9592 -2.3120 0.9667
4.0829 7.0382 -2.3127 0.9667
4.0397 7.0640 -2.3129 0.9667
3.9963 7.0896 -2.3131 0.9667
3.9528 7.1149 -2.3134 0.9667
3.9091 7.1399 -2.3136 0.9667
3.6882 7.2607 -2.3147 0.9667
3.5538 7.3298 -2.3153 0.9667
3.5087 7.3523 -2.3155 0.9667
3.4181 7.3964 -2.3159 0.9667
3.2811 7.4603 -2.3165 0.9667
3.2352 7.4811 -2.3166 0.9667
3.1429 7.5217 -2.3170 0.9667
3.0500 7.5611 -2.3173 0.9667
3.0035 7.5804 -2.3175 0.9667
2.9099 7.6180 -2.3178 0.9667
2.8629 7.6364 -2.3180 0.9667
2.8159 7.6545 -2.3182 0.9667
2.7213 7.6898 -2.3185 0.9666
2.6263 7.7239 -2.3188 0.9666
2.5787 7.7404 -2.3189 0.9666
2.4831 7.7727 -2.3192 0.9666
2.3389 7.8188 -2.3196 0.9666
2.2906 7.8335 -2.3197 0.9666
2.2422 7.8480 -2.3199 0.9666
2.1938 7.8621 -2.3200 0.9666
2.1452 7.8759 -2.3201 0.9666
2.0966 7.8894 -2.3202 0.9666
2.0478 7.9027 -2.3204 0.9666
1.9990 7.9156 -2.3205 0.9666
1.9501 7.9281 -2.3206 0.9666
1.9011 7.9404 -2.3207 0.9666
1.8029 7.9640 -2.3209 0.9666
1.7538 7.9753 -2.3210 0.9666
1.3576 8.0547 -2.3217 0.9666
1.2580 8.0713 -2.3218 0.9666
1.2080 8.0792 -2.3219 0.9666
1.1581 8.0867 -2.3219 0.9666
1.1081 8.0939 -2.3220 0.9666
1.0079 8.1074 -2.3221 0.9666
0.8574 8.1253 -2.3223 0.9666
0.7569 8.1355 -2.3223 0.9666
0.6562 8.1445 -2.3224 0.9666
0.6058 8.1485 -2.3224 0.9666
0.5555 8.1522 -2.3224 0.9666
0.5050 8.1555 -2.3225 0.9666
0.4546 8.1586 -2.3225 0.9666
0.3536 8.1637 -2.3225 0.9666
0.3031 8.1658 -2.3226 0.9666
0.2021 8.1690 -2.3226 0.9666
0.0000 8.1716 -2.3226 0.9666
-0.0505 8.1714 -2.3226 0.9666
-0.1011 8.1709 -2.3226 0.9666
-0.2021 8.1690 -2.3226 0.9666
-0.3536 8.1636 -2.3225 0.9666
-0.4041 8.1611 -2.3225 0.9666
-0.5050 8.1553 -2.3224 0.9666
-0.5554 8.1519 -2.3224 0.9666
-0.6562 8.1441 -2.3223 0.9666
-0.7065 8.1398 -2.3223 0.9666
-0.8071 8.1301 -2.3222 0.9666
-1.0078 8.1068 -2.3219 0.9666
-1.0579 8.1002 -2.3219 0.9666
-1.1079 8.0933 -2.3218 0.9666
-1.3076 8.0624 -2.3215 0.9666
-1.4071 8.0450 -2.3213 0.9666
-1.4568 8.0358 -2.3212 0.9666
-1.5560 8.0166 -2.3211 0.9666
-1.6549 7.9960 -2.3209 0.9666
-1.7042 7.9853 -2.3208 0.9666
-1.7535 7.9743 -2.3207 0.9666
-1.8027 7.9629 -2.3206 0.9666
-1.8518 7.9512 -2.3204 0.9666
-1.9008 7.9392 -2.3203 0.9666
-2.0962 7.8881 -2.3198 0.9666
-2.1448 7.8746 -2.3197 0.9666
-2.1933 7.8607 -2.3196 0.9666
-2.2901 7.8321 -2.3193 0.9666
-2.3384 7.8173 -2.3192 0.9666
-2.3865 7.8022 -2.3190 0.9666
-2.5781 7.7388 -2.3184 0.9666
-2.6257 7.7222 -2.3183 0.9667
-2.7207 7.6880 -2.3179 0.9667
-2.7680 7.6705 -2.3178 0.9667
-2.8622 7.6346 -2.3174 0.9667
-2.9092 7.6161 -2.3173 0.9667
-2.9560 7.5974 -2.3171 0.9667
-3.1420 7.5195 -2.3163 0.9667
-3.2342 7.4789 -2.3160 0.9667
-3.2801 7.4581 -2.3158 0.9667
-3.3715 7.4157 -2.3154 0.9667
-3.4170 7.3940 -2.3152 0.9667
-3.5075 7.3499 -2.3147 0.9667
-3.5975 7.3046 -2.3143 0.9667
-3.6423 7.2815 -2.3141 0.9667
-3.7314 7.2345 -2.3136 0.9667
-3.7756 7.2106 -2.3134 0.9667
-3.8198 7.1864 -2.3132 0.9667
-3.9076 7.1372 -2.3127 0.9667
-3.9948 7.0869 -2.3123 0.9667
-4.1242 7.0093 -2.3115 0.9667
-4.1671 6.9829 -2.3113 0.9667
-4.2097 6.9563 -2.3110 0.9668
-4.2522 6.9294 -2.3108 0.9668
-4.4203 6.8190 -2.3098 0.9668
-4.4619 6.7908 -2.3095 0.9668
-4.5855 6.7045 -2.3087 0.9668
-4.6264 6.6753 -2.3084 0.9668
-4.6670 6.6458 -2.3082 0.9668
-4.7075 6.6160 -2.3079 0.9668
-4.7477 6.5859 -2.3076 0.9668
-4.7878 6.5556 -2.3073 0.9668
-4.8276 6.5251 -2.3070 0.9668
-4.9850 6.4005 -2.3059 0.9668
-5.0239 6.3687 -2.3056 0.9668
-5.0625 6.3367 -2.3053 0.9668
-5.1009 6.3045 -2.3050 0.9668
-5.2525 6.1731 -2.3038 0.9669
-5.3271 6.1060 -2.3032 0.9669
-5.3640 6.0722 -2.3028 0.9669
-5.4007 6.0380 -2.3025 0.9669
-5.4372 6.0037 -2.3022 0.9669
-5.4735 5.9691 -2.3019 0.9669
-5.5809 5.8641 -2.3009 0.9669
-5.6863 5.7571 -2.2999 0.9669
-5.7209 5.7210 -2.2996 0.9669
-5.7896 5.6481 -2.2989 0.9669
-5.8573 5.5745 -2.2983 0.9669
-5.8907 5.5373 -2.2979 0.9669
-5.9240 5.4999 -2.2976 0.9669
-6.0545 5.3485 -2.2962 0.9670
-6.0866 5.3101 -2.2958 0.9670
-6.1623 5.3094 -2.3119 0.9667
-6.5062 5.3987 -2.4030 0.9655
-6.6988 5.4200 -2.4492 0.9648
-6.7311 5.3776 -2.4488 0.9648
-6.8576 5.2061 -2.4472 0.9648
-6.9192 5.1192 -2.4464 0.9648
-6.9797 5.0316 -2.4456 0.9649
-7.0391 4.9433 -2.4448 0.9649
-7.0683 4.8988 -2.4444 0.9649
-7.0973 4.8542 -2.4440 0.9649
-7.2103 4.6740 -2.4423 0.9649
-7.2378 4.6285 -2.4419 0.9649
-7.2920 4.5371 -2.4410 0.9649
-7.3187 4.4911 -2.4406 0.9649
-7.3450 4.4450 -2.4402 0.9649
-7.3711 4.3987 -2.4398 0.9649
-7.4475 4.2590 -2.4385 0.9650
-7.4970 4.1651 -2.4376 0.9650
-7.5689 4.0231 -2.4363 0.9650
-7.6153 3.9278 -2.4354 0.9650
-7.6381 3.8799 -2.4350 0.9650
-7.6606 3.8319 -2.4346 0.9650
-7.6827 3.7838 -2.4341 0.9650
-7.7046 3.7355 -2.4337 0.9650
-7.7262 3.6871 -2.4332 0.9650
-7.8092 3.4923 -2.4315 0.9651
-7.8292 3.4433 -2.4310 0.9651
-7.8489 3.3942 -2.4306 0.9651
-7.8874 3.2957 -2.4297 0.9651
-7.9246 3.1967 -2.4287 0.9651
-7.9605 3.0973 -2.4278 0.9651
-7.9952 2.9974 -2.4269 0.9651
-8.0121 2.9474 -2.4265 0.9651
-8.0286 2.8972 -2.4260 0.9651
-8.0449 2.8470 -2.4255 0.9651
-8.0608 2.7967 -2.4251 0.9651
-8.0917 2.6957 -2.4242 0.9652
-8.1767 2.3909 -2.4214 0.9652
-8.2149 2.2375 -2.4200 0.9652
-8.2269 2.1862 -2.4195 0.9652
-8.2613 2.0320 -2.4181 0.9652
-8.2721 1.9805 -2.4176 0.9652
-8.2825 1.9289 -2.4171 0.9653
-8.3301 1.6704 -2.4148 0.9653
-8.3386 1.6185 -2.4143 0.9653
-8.3468 1.5666 -2.4138 0.9653
-8.3623 1.4626 -2.4129 0.9653
-8.3764 1.3586 -2.4119 0.9653
-8.3892 1.2544 -2.4110 0.9653
-8.4008 1.1501 -2.4100 0.9654
-8.4061 1.0979 -2.4096 0.9654
-8.4157 0.9934 -2.4086 0.9654
-8.4310 0.7843 -2.4067 0.9654
-8.4443 0.4704 -2.4038 0.9654
-8.4466 0.2613 -2.4019 0.9655
-8.4464 0.2090 -2.4014 0.9655
-8.2083 -0.0508 -2.3991 0.9664
-8.1913 -0.3548 -2.3963 0.9664
-8.1832 -0.4559 -2.3954 0.9664
-8.1786 -0.5065 -2.3949 0.9664
-8.1738 -0.5569 -2.3945 0.9664
-8.1685 -0.6073 -2.3940 0.9664
-8.1512 -0.7583 -2.3927 0.9665
-8.1381 -0.8587 -2.3917 0.9665
-8.1000 -1.1089 -2.3895 0.9665
-8.0914 -1.1587 -2.3890 0.9665
-8.0542 -1.3575 -2.3872 0.9665
-8.0231 -1.5058 -2.3858 0.9666
-7.9892 -1.6535 -2.3845 0.9666
-7.9652 -1.7515 -2.3836 0.9666
-7.9400 -1.8492 -2.3827 0.9666
-7.9269 -1.8979 -2.3823 0.9666
-7.8999 -1.9950 -2.3814 0.9666
-7.8717 -2.0919 -2.3805 0.9666
-7.8423 -2.1883 -2.3796 0.9666
-7.8272 -2.2363 -2.3792 0.9666
-7.8118 -2.2842 -2.3788 0.9667
-7.7473 -2.4750 -2.3770 0.9667
-7.7304 -2.5224 -2.3766 0.9667
-7.7133 -2.5696 -2.3762 0.9667
-7.6782 -2.6639 -2.3753 0.9667
-7.6233 -2.8044 -2.3741 0.9667
-7.6045 -2.8509 -2.3736 0.9667
-7.5853 -2.8975 -2.3732 0.9667
-7.5659 -2.9437 -2.3728 0.9667
-7.5060 -3.0820 -2.3715 0.9668
-7.4648 -3.1735 -2.3707 0.9668
-7.3567 -3.3998 -2.3686 0.9668
-7.3343 -3.4446 -2.3682 0.9668
-7.2886 -3.5339 -2.3674 0.9668
-7.2654 -3.5783 -2.3670 0.9668
-7.2419 -3.6225 -2.3666 0.9668
-7.1453 -3.7980 -2.3650 0.9668
-7.0701 -3.9279 -2.3639 0.9669
-7.0445 -3.9709 -2.3635 0.9669
-7.0187 -4.0137 -2.3631 0.9669
-6.9662 -4.0989 -2.3623 0.9669
-6.9396 -4.1412 -2.3619 0.9669
-6.9127 -4.1834 -2.3616 0.9669
-6.8306 -4.3089 -2.3604 0.9669
-6.7747 -4.3916 -2.3597 0.9669
-6.7463 -4.4327 -2.3593 0.9669
-6.6889 -4.5144 -2.3586 0.9669
-6.5108 -4.7551 -2.3564 0.9670
-6.4803 -4.7945 -2.3560 0.9670
-6.4186 -4.8728 -2.3553 0.9670
-6.2923 -5.0271 -2.3539 0.9670
-6.2602 -5.0652 -2.3536 0.9670
-6.2279 -5.1030 -2.3532 0.9670
-6.1625 -5.1782 -2.3526 0.9670
-6.1295 -5.2155 -2.3522 0.9670
-6.0963 -5.2525 -2.3519 0.9670
-6.0628 -5.2894 -2.3516 0.9670
-5.9612 -5.3987 -2.3506 0.9670
-5.9268 -5.4347 -2.3502 0.9670
-5.8226 -5.5415 -2.3493 0.9671
-5.7874 -5.5766 -2.3490 0.9671
-5.7165 -5.6462 -2.3483 0.9671
-5.6807 -5.6807 -2.3480 0.9671
-5.5721 -5.7829 -2.3471 0.9671
-5.3873 -5.9486 -2.3456 0.9671
-5.2741 -6.0453 -2.3448 0.9671
-5.1591 -6.1399 -2.3439 0.9671
-5.1205 -6.1709 -2.3436 0.9671
-5.0425 -6.2323 -2.3431 0.9671
-4.8846 -6.3522 -2.3420 0.9672
-4.8447 -6.3816 -2.3417 0.9672
-4.8046 -6.4107 -2.3415 0.9672
-4.6833 -6.4966 -2.3407 0.9672
-4.6016 -6.5526 -2.3402 0.9672
-4.5605 -6.5803 -2.3399 0.9672
-4.5192 -6.6076 -2.3397 0.9672
-4.4362 -6.6616 -2.3392 0.9672
-4.3527 -6.7146 -2.3387 0.9672
-4.3106 -6.7408 -2.3385 0.9672
-4.1409 -6.8427 -2.3376 0.9672
-4.0982 -6.8675 -2.3374 0.9672
-4.0552 -6.8920 -2.3372 0.9672
-3.9689 -6.9404 -2.3367 0.9672
-3.8821 -6.9877 -2.3363 0.9672
-3.7947 -7.0339 -2.3359 0.9672
-3.7508 -7.0566 -2.3357 0.9672
-3.6626 -7.1013 -2.3353 0.9673
-3.6183 -7.1232 -2.3351 0.9673
-3.5739 -7.1449 -2.3349 0.9673
-3.4847 -7.1874 -2.3345 0.9673
-3.4399 -7.2082 -2.3343 0.9673
-3.3049 -7.2691 -2.3338 0.9673
-3.2142 -7.3083 -2.3335 0.9673
-3.1687 -7.3275 -2.3333 0.9673
-2.9396 -7.4194 -2.3325 0.9673
-2.8935 -7.4369 -2.3323 0.9673
-2.8473 -7.4542 -2.3322 0.9673
-2.7545 -7.4879 -2.3319 0.9673
-2.6614 -7.5205 -2.3316 0.9673
-2.5678 -7.5519 -2.3313 0.9673
-2.4740 -7.5822 -2.3310 0.9673
-2.4269 -7.5970 -2.3309 0.9673
-2.2852 -7.6395 -2.3305 0.9673
-2.1903 -7.6664 -2.3303 0.9673
-2.0951 -7.6921 -2.3301 0.9673
-2.0474 -7.7046 -2.3300 0.9673
-1.9996 -7.7168 -2.3299 0.9673
-1.9518 -7.7286 -2.3298 0.9673
-1.9039 -7.7402 -2.3297 0.9673
-1.8559 -7.7515 -2.3296 0.9673
-1.8079 -7.7625 -2.3295 0.9673
-1.7116 -7.7837 -2.3293 0.9673
-1.6633 -7.7938 -2.3292 0.9673
-1.5183 -7.8225 -2.3290 0.9673
-1.4698 -7.8315 -2.3289 0.9673
-1.3728 -7.8486 -2.3287 0.9673
-1.3242 -7.8567 -2.3287 0.9673
-1.2755 -7.8645 -2.3286 0.9673
-1.1781 -7.8793 -2.3285 0.9673
-1.0317 -7.8992 -2.3283 0.9673
-0.9827 -7.9053 -2.3283 0.9673
-0.9338 -7.9110 -2.3282 0.9673
-0.8849 -7.9165 -2.3282 0.9673
-0.8359 -7.9217 -2.3281 0.9673
-0.7378 -7.9312 -2.3280 0.9674
-0.6887 -7.9354 -2.3280 0.9674
-0.5905 -7.9432 -2.3280 0.9674
-0.4922 -7.9497 -2.3279 0.9674
-0.4431 -7.9525 -2.3279 0.9674
-0.3939 -7.9550 -2.3279 0.9674
-0.3447 -7.9573 -2.3279 0.9674
0.0000 -7.9646 -2.3278 0.9674
0.0493 -7.9645 -2.3278 0.9674
0.0985 -7.9641 -2.3278 0.9674
0.1478 -7.9634 -2.3279 0.9674
0.1970 -7.9624 -2.3279 0.9674
0.2463 -7.9610 -2.3279 0.9674
0.2955 -7.9594 -2.3279 0.9674
0.3939 -7.9553 -2.3280 0.9674
0.4923 -7.9500 -2.3280 0.9674
0.6398 -7.9399 -2.3281 0.9673
0.6888 -7.9359 -2.3282 0.9673
0.7379 -7.9317 -2.3282 0.9673
0.7870 -7.9271 -2.3283 0.9673
0.8360 -7.9223 -2.3283 0.9673
0.8850 -7.9171 -2.3284 0.9673
0.9340 -7.9117 -2.3284 0.9673
1.0318 -7.9000 -2.3285 0.9673
1.0807 -7.8937 -2.3286 0.9673
1.1295 -7.8870 -2.3287 0.9673
1.1783 -7.8801 -2.3287 0.9673
1.2270 -7.8729 -2.3288 0.9673
1.2757 -7.8654 -2.3289 0.9673
1.3730 -7.8496 -2.3290 0.9673
1.4701 -7.8325 -2.3292 0.9673
1.5186 -7.8236 -2.3293 0.9673
1.5670 -7.8144 -2.3294 0.9673
1.6636 -7.7950 -2.3296 0.9673
1.7600 -7.7745 -2.3297 0.9673
1.9522 -7.7300 -2.3302 0.9673
2.1432 -7.6809 -2.3306 0.9673
2.2857 -7.6411 -2.3310 0.9673
2.3331 -7.6272 -2.3312 0.9673
2.3803 -7.6131 -2.3313 0.9673
2.4275 -7.5986 -2.3314 0.9673
2.4746 -7.5839 -2.3316 0.9673
2.5216 -7.5689 -2.3317 0.9673
2.5685 -7.5537 -2.3319 0.9673
2.6153 -7.5381 -2.3320 0.9673
2.6621 -7.5223 -2.3321 0.9673
2.7087 -7.5062 -2.3323 0.9673
2.8017 -7.4731 -2.3326 0.9673
2.8943 -7.4389 -2.3329 0.9673
2.9405 -7.4214 -2.3331 0.9673
3.0325 -7.3855 -2.3334 0.9673
3.1697 -7.3296 -2.3340 0.9673
3.2152 -7.3104 -2.3341 0.9673
3.2606 -7.2910 -2.3343 0.9673
3.3961 -7.2310 -2.3349 0.9673
3.4411 -7.2104 -2.3351 0.9673
3.5306 -7.1686 -2.3355 0.9672
3.5751 -7.1472 -2.3357 0.9672
3.6196 -7.1256 -2.3359 0.9672
3.7081 -7.0815 -2.3363 0.9672
3.7522 -7.0591 -2.3365 0.9672
3.7961 -7.0364 -2.3367 0.9672
3.8399 -7.0134 -2.3369 0.9672
3.8835 -6.9901 -2.3371 0.9672
3.9271 -6.9667 -2.3374 0.9672
4.0137 -6.9189 -2.3378 0.9672
4.1425 -6.8452 -2.3385 0.9672
4.2701 -6.7692 -2.3392 0.9672
4.3124 -6.7434 -2.3394 0.9672
4.3544 -6.7173 -2.3397 0.9672
4.3963 -6.6909 -2.3399 0.9672
4.5212 -6.6103 -2.3407 0.9672
4.6036 -6.5554 -2.3412 0.9672
4.6445 -6.5275 -2.3414 0.9672
4.7260 -6.4710 -2.3420 0.9672
5.0056 -6.2655 -2.3439 0.9671
5.0449 -6.2351 -2.3441 0.9671
5.1229 -6.1738 -2.3447 0.9671
5.1616 -6.1427 -2.3450 0.9671
5.2001 -6.1115 -2.3453 0.9671
5.2385 -6.0800 -2.3456 0.9671
5.4274 -5.9188 -2.3471 0.9671
5.5016 -5.8528 -2.3477 0.9671
5.6477 -5.7179 -2.3489 0.9671
5.7551 -5.6145 -2.3499 0.9670
5.7905 -5.5795 -2.3502 0.9670
5.8257 -5.5444 -2.3505 0.9670
5.8955 -5.4734 -2.3512 0.9670
5.9301 -5.4376 -2.3515 0.9670
5.9986 -5.3654 -2.3522 0.9670
6.1330 -5.2184 -2.3535 0.9670
6.3280 -4.9917 -2.3556 0.9670
6.4224 -4.8756 -2.3567 0.9670
6.4534 -4.8366 -2.3571 0.9670
6.4842 -4.7974 -2.3574 0.9669
6.5751 -4.6784 -2.3585 0.9669
6.6639 -4.5577 -2.3596 0.9669
6.7789 -4.3943 -2.3611 0.9669
6.8349 -4.3115 -2.3619 0.9669
6.8900 -4.2280 -2.3627 0.9669
6.9440 -4.1439 -2.3634 0.9669
6.9707 -4.1015 -2.3638 0.9669
6.9971 -4.0590 -2.3642 0.9669
7.1000 -3.8873 -2.3658 0.9668
7.1251 -3.8439 -2.3662 0.9668
7.2230 -3.6690 -2.3678 0.9668
7.3393 -3.4469 -2.3698 0.9668
7.3617 -3.4021 -2.3702 0.9668
7.4058 -3.3119 -2.3711 0.9668
7.4274 -3.2666 -2.3715 0.9668
7.4907 -3.1299 -2.3727 0.9667
7.5112 -3.0841 -2.3732 0.9667
7.5515 -2.9920 -2.3740 0.9667
7.5712 -2.9458 -2.3744 0.9667
7.6287 -2.8063 -2.3757 0.9667
7.6473 -2.7596 -2.3761 0.9667
7.7013 -2.6186 -2.3774 0.9667
7.7188 -2.5715 -2.3779 0.9667
7.7359 -2.5241 -2.3783 0.9667
7.7528 -2.4767 -2.3787 0.9667
7.7694 -2.4292 -2.3792 0.9666
7.7857 -2.3815 -2.3796 0.9666
7.8017 -2.3337 -2.3800 0.9666
7.8480 -2.1898 -2.3813 0.9666
7.8917 -2.0450 -2.3827 0.9666
7.9193 -1.9479 -2.3836 0.9666
7.9458 -1.8505 -2.3845 0.9666
7.9586 -1.8017 -2.3849 0.9666
7.9710 -1.7528 -2.3853 0.9666
7.9832 -1.7037 -2.3858 0.9666
8.0180 -1.5562 -2.3871 0.9665
8.0397 -1.4575 -2.3880 0.9665
8.0500 -1.4080 -2.3885 0.9665
8.0601 -1.3585 -2.3890 0.9665
8.0699 -1.3089 -2.3894 0.9665
8.0885 -1.2094 -2.3903 0.9665
8.0974 -1.1596 -2.3908 0.9665
8.1372 -0.9096 -2.3931 0.9665
8.1442 -0.8594 -2.3935 0.9664
8.1509 -0.8092 -2.3940 0.9664
8.1573 -0.7589 -2.3944 0.9664
8.1692 -0.6582 -2.3954 0.9664
8.1747 -0.6078 -2.3958 0.9664
8.1799 -0.5573 -2.3963 0.9664
8.1848 -0.5068 -2.3967 0.9664
8.2044 -0.2538 -2.3990 0.9664
8.2101 -0.1523 -2.4000 0.9664
8.2163 0.0000 -2.4014 0.9663
8.2188 0.1017 -2.4023 0.9663
8.2203 0.2543 -2.4037 0.9663
8.2189 0.4070 -2.4051 0.9663
8.2164 0.5088 -2.4060 0.9663
8.2147 0.5597 -2.4065 0.9663
8.2126 0.6106 -2.4069 0.9663
8.2077 0.7123 -2.4079 0.9663
8.2046 0.7633 -2.4083 0.9662
8.2013 0.8142 -2.4088 0.9662
8.1938 0.9159 -2.4097 0.9662
8.1896 0.9667 -2.4102 0.9662
8.1850 1.0175 -2.4106 0.9662
8.1801 1.0684 -2.4111 0.9662
8.1749 1.1191 -2.4116 0.9662
8.1575 1.2713 -2.4129 0.9662
8.1510 1.3220 -2.4134 0.9662
8.1442 1.3726 -2.4139 0.9662
8.1297 1.4738 -2.4148 0.9662
8.1220 1.5244 -2.4153 0.9661
8.1139 1.5749 -2.4157 0.9661
8.0969 1.6757 -2.4166 0.9661
8.0787 1.7764 -2.4175 0.9661
8.0591 1.8769 -2.4185 0.9661
8.0488 1.9271 -2.4189 0.9661
8.0383 1.9772 -2.4194 0.9661
8.0162 2.0772 -2.4203 0.9661
7.9929 2.1771 -2.4212 0.9661
7.9808 2.2268 -2.4216 0.9661
7.9292 2.4254 -2.4234 0.9660
7.8726 2.6227 -2.4252 0.9660
7.8269 2.7698 -2.4266 0.9660
7.8111 2.8187 -2.4270 0.9660
7.7949 2.8675 -2.4275 0.9660
7.7617 2.9647 -2.4283 0.9660
7.6915 3.1581 -2.4301 0.9659
7.5970 3.3974 -2.4323 0.9659
7.4736 3.6808 -2.4348 0.9659
7.4301 3.7742 -2.4357 0.9659
7.4079 3.8208 -2.4361 0.9659
7.3626 3.9135 -2.4370 0.9658
7.3395 3.9596 -2.4374 0.9658
7.2925 4.0515 -2.4382 0.9658
7.1698 4.2786 -2.4403 0.9658
7.1187 4.3684 -2.4411 0.9658
7.0927 4.4130 -2.4415 0.9658
7.0665 4.4575 -2.4419 0.9658
6.9860 4.5901 -2.4431 0.9658
6.9586 4.6340 -2.4435 0.9658
6.7884 4.8937 -2.4458 0.9657
6.7591 4.9364 -2.4462 0.9657
6.7295 4.9788 -2.4466 0.9657
6.6996 5.0211 -2.4470 0.9657
6.6694 5.0633 -2.4474 0.9657
6.6391 5.1052 -2.4477 0.9657
6.6084 5.1469 -2.4481 0.9657
6.4510 5.3529 -2.4500 0.9657
6.4187 5.3934 -2.4504 0.9657
6.3862 5.4338 -2.4507 0.9657
6.3534 5.4740 -2.4511 0.9657
6.3204 5.5141 -2.4514 0.9656
6.2871 5.5539 -2.4518 0.9656
6.2535 5.5934 -2.4522 0.9656
6.1857 5.6720 -2.4529 0.9656
6.0820 5.7883 -2.4539 0.9656
5.7315 5.8750 -2.3988 0.9664
5.6227 5.8353 -2.3684 0.9668
5.5172 5.7971 -2.3390 0.9672
5.4224 5.7686 -2.3139 0.9675
5.3572 5.7703 -2.3013 0.9677
5.2156 5.9042 -2.3025 0.9677
5.1071 6.0022 -2.3034 0.9677
5.0706 6.0344 -2.3036 0.9677
5.0338 6.0664 -2.3039 0.9677
4.9968 6.0982 -2.3042 0.9677
4.8846 6.1921 -2.3051 0.9677
4.8467 6.2229 -2.3053 0.9677
4.6158 6.4029 -2.3070 0.9676
4.4978 6.4896 -2.3077 0.9676
4.4580 6.5181 -2.3080 0.9676
4.4181 6.5462 -2.3082 0.9676
4.3780 6.5741 -2.3085 0.9676
4.3378 6.6018 -2.3087 0.9676
4.2567 6.6563 -2.3092 0.9676
4.2159 6.6832 -2.3095 0.9676
4.1749 6.7098 -2.3097 0.9676
4.1337 6.7363 -2.3099 0.9676
4.0509 6.7882 -2.3104 0.9676
3.9255 6.8642 -2.3111 0.9676
3.8833 6.8890 -2.3113 0.9676
3.8410 6.9136 -2.3115 0.9676
3.7985 6.9378 -2.3117 0.9676
3.7558 6.9618 -2.3120 0.9676
3.7131 6.9856 -2.3122 0.9676
3.6701 7.0090 -2.3124 0.9676
3.6270 7.0322 -2.3126 0.9676
3.4969 7.1002 -2.3132 0.9676
3.4532 7.1223 -2.3134 0.9676
3.2771 7.2079 -2.3141 0.9675
3.1882 7.2490 -2.3145 0.9675
3.0987 7.2890 -2.3149 0.9675
3.0538 7.3085 -2.3150 0.9675
3.0088 7.3278 -2.3152 0.9675
2.9636 7.3469 -2.3154 0.9675
2.8729 7.3840 -2.3157 0.9675
2.7818 7.4200 -2.3160 0.9675
2.6902 7.4548 -2.3163 0.9675
2.6442 7.4718 -2.3165 0.9675
2.5518 7.5049 -2.3168 0.9675
2.5056 7.5210 -2.3169 0.9675
2.3660 7.5675 -2.3173 0.9675
2.3193 7.5824 -2.3175 0.9675
2.2256 7.6113 -2.3177 0.9675
2.1315 7.6391 -2.3180 0.9675
2.0371 7.6656 -2.3182 0.9675
1.9897 7.6784 -2.3183 0.9675
1.8948 7.7032 -2.3185 0.9675
1.7995 7.7267 -2.3187 0.9675
1.7518 7.7380 -2.3188 0.9675
1.6081 7.7701 -2.3191 0.9675
1.5601 7.7802 -2.3192 0.9675
1.5121 7.7900 -2.3193 0.9675
1.4638 7.7994 -2.3193 0.9675
1.3674 7.8175 -2.3195 0.9675
1.2707 7.8343 -2.3196 0.9675
1.2222 7.8422 -2.3197 0.9675
1.1738 7.8498 -2.3198 0.9675
1.1252 7.8571 -2.3198 0.9675
1.0280 7.8708 -2.3199 0.9675
0.8819 7.8891 -2.3201 0.9675
0.8331 7.8945 -2.3201 0.9675
0.7354 7.9045 -2.3202 0.9675
0.4907 7.9239 -2.3204 0.9675
0.4417 7.9270 -2.3204 0.9675
0.3926 7.9296 -2.3204 0.9675
0.2455 7.9356 -2.3205 0.9675
0.1473 7.9380 -2.3205 0.9675
-0.1473 7.9380 -2.3204 0.9675
-0.1963 7.9369 -2.3204 0.9675
-0.3926 7.9293 -2.3203 0.9675
-0.5886 7.9167 -2.3202 0.9675
-0.6375 7.9128 -2.3202 0.9675
-0.7353 7.9040 -2.3201 0.9675
-0.7842 7.8991 -2.3200 0.9675
-0.8329 7.8940 -2.3200 0.9675
-0.8817 7.8885 -2.3199 0.9675
-0.9305 7.8827 -2.3199 0.9675
-0.9792 7.8766 -2.3198 0.9675
-1.0279 7.8702 -2.3198 0.9675
-1.1251 7.8564 -2.3196 0.9675
-1.2221 7.8414 -2.3195 0.9675
-1.2705 7.8334 -2.3194 0.9675
-1.3672 7.8166 -2.3192 0.9675
-1.4154 7.8077 -2.3192 0.9675
-1.4637 7.7985 -2.3191 0.9675
-1.6558 7.7586 -2.3187 0.9675
-1.7037 7.7479 -2.3186 0.9675
-1.7992 7.7255 -2.3184 0.9675
-1.8945 7.7020 -2.3181 0.9675
-1.9894 7.6771 -2.3179 0.9675
-2.1311 7.6377 -2.3175 0.9675
-2.3188 7.5809 -2.3170 0.9675
-2.3655 7.5659 -2.3169 0.9675
-2.4121 7.5507 -2.3167 0.9675
-2.4586 7.5352 -2.3166 0.9675
-2.5513 7.5032 -2.3163 0.9675
-2.7811 7.4181 -2.3155 0.9675
-2.8267 7.4003 -2.3153 0.9675
-2.8722 7.3821 -2.3151 0.9675
-2.9628 7.3449 -2.3148 0.9675
-3.0079 7.3258 -2.3146 0.9675
-3.0530 7.3065 -2.3144 0.9675
-3.0978 7.2869 -2.3142 0.9675
-3.1872 7.2468 -2.3138 0.9675
-3.4521 7.1199 -2.3126 0.9676
-3.4957 7.0978 -2.3124 0.9676
-3.6688 7.0065 -2.3116 0.9676
-3.7971 6.9353 -2.3109 0.9676
-3.8818 6.8864 -2.3104 0.9676
-4.0076 6.8111 -2.3097 0.9676
-4.0493 6.7855 -2.3095 0.9676
-4.0907 6.7596 -2.3093 0.9676
-4.2141 6.6805 -2.3085 0.9676
-4.2549 6.6536 -2.3083 0.9676
-4.2955 6.6264 -2.3080 0.9676
-4.3359 6.5990 -2.3078 0.9676
-4.4162 6.5434 -2.3072 0.9676
-4.4560 6.5152 -2.3070 0.9676
-4.4958 6.4868 -2.3067 0.9676
-4.5352 6.4581 -2.3065 0.9676
-4.5746 6.4292 -2.3062 0.9677
-4.6914 6.3410 -2.3054 0.9677
-4.8065 6.2506 -2.3045 0.9677
-4.9198 6.1581 -2.3037 0.9677
-4.9571 6.1267 -2.3034 0.9677
-4.9943 6.0952 -2.3031 0.9677
-5.0313 6.0634 -2.3028 0.9677
-5.1770 5.9341 -2.3016 0.9677
-5.2486 5.8680 -2.3010 0.9677
-5.3544 5.7673 -2.3001 0.9677
-5.3892 5.7333 -2.2998 0.9677
-5.4582 5.6646 -2.2991 0.9677
-5.5263 5.5951 -2.2985 0.9678
-5.5600 5.5600 -2.2982 0.9678
-5.6268 5.4893 -2.2975 0.9678
-5.6926 5.4177 -2.2968 0.9678
-5.7252 5.3817 -2.2965 0.9678
-5.8531 5.2353 -2.2952 0.9678
-5.9247 5.2338 -2.3105 0.9676
-6.3613 5.3453 -2.4285 0.9660
-6.5108 5.2679 -2.4478 0.9657
-6.6350 5.1021 -2.4463 0.9657
-6.6654 5.0602 -2.4459 0.9657
-6.7253 4.9758 -2.4451 0.9657
-6.7549 4.9333 -2.4447 0.9657
-6.7842 4.8906 -2.4443 0.9657
-6.8419 4.8048 -2.4435 0.9658
-7.0353 4.4990 -2.4407 0.9658
-7.0881 4.4102 -2.4399 0.9658
-7.1651 4.2758 -2.4387 0.9658
-7.2149 4.1854 -2.4378 0.9658
-7.2395 4.1400 -2.4374 0.9658
-7.2637 4.0945 -2.4370 0.9658
-7.2876 4.0488 -2.4366 0.9659
-7.3112 4.0029 -2.4362 0.9659
-7.3576 3.9108 -2.4353 0.9659
-7.3804 3.8646 -2.4349 0.9659
-7.4029 3.8182 -2.4345 0.9659
-7.4685 3.6783 -2.4332 0.9659
-7.5107 3.5844 -2.4323 0.9659
-7.5719 3.4425 -2.4310 0.9659
