ply
format ascii 1.0
element vertex 1557
property float32 x
property float32 y
property float32 z
property float32 I
end_header
15.4490 -0.9566 -2.4683 0.9392
15.4550 -0.8611 -2.4683 0.9392
15.4652 -0.6699 -2.4684 0.9392
15.4694 -0.5743 -2.4685 0.9392
15.4729 -0.4786 -2.4686 0.9392
15.4782 -0.2872 -2.4686 0.9392
15.4812 -0.0958 -2.4687 0.9392
15.4752 0.4786 -2.4689 0.9392
15.4720 0.5743 -2.4689 0.9392
15.4682 0.6700 -2.4689 0.9392
15.4534 0.9569 -2.4690 0.9392
15.4404 1.1479 -2.4690 0.9392
15.4330 1.2434 -2.4690 0.9392
15.4250 1.3388 -2.4690 0.9392
15.3869 1.7199 -2.4689 0.9392
15.3759 1.8150 -2.4689 0.9392
15.3519 2.0050 -2.4689 0.9392
15.3391 2.0999 -2.4688 0.9392
15.3256 2.1947 -2.4688 0.9392
15.3116 2.2894 -2.4688 0.9392
15.2493 2.6673 -2.4686 0.9392
15.2146 2.8555 -2.4685 0.9392
15.1963 2.9495 -2.4685 0.9392
15.1774 3.0433 -2.4684 0.9392
15.1173 3.3241 -2.4682 0.9392
15.0741 3.5107 -2.4681 0.9392
15.0287 3.6966 -2.4680 0.9392
15.0050 3.7894 -2.4679 0.9392
14.8510 4.3425 -2.4674 0.9393
14.6760 4.8892 -2.4667 0.9393
14.6447 4.9796 -2.4666 0.9393
14.4802 5.4287 -2.4660 0.9393
14.4105 5.6067 -2.4657 0.9393
14.3747 5.6954 -2.4656 0.9393
14.3384 5.7839 -2.4655 0.9393
14.2641 5.9601 -2.4652 0.9393
14.2262 6.0478 -2.4650 0.9393
14.1486 6.2225 -2.4647 0.9393
14.1089 6.3095 -2.4646 0.9393
13.9867 6.5690 -2.4641 0.9393
13.8161 6.9110 -2.4634 0.9393
13.7276 7.0803 -2.4631 0.9394
13.5909 7.3321 -2.4625 0.9394
13.5442 7.4155 -2.4623 0.9394
13.4971 7.4985 -2.4621 0.9394
12.5940 7.0991 -2.3054 0.9431
12.5032 7.2531 -2.3050 0.9431
12.2679 7.6330 -2.3040 0.9432
12.2194 7.7081 -2.3038 0.9432
12.1704 7.7828 -2.3036 0.9432
11.8668 8.2244 -2.3024 0.9432
11.8146 8.2968 -2.3022 0.9432
11.6552 8.5121 -2.3015 0.9432
11.6012 8.5832 -2.3013 0.9432
11.5468 8.6539 -2.3010 0.9432
11.3808 8.8639 -2.3003 0.9432
11.3246 8.9332 -2.3001 0.9432
11.1533 9.1389 -2.2994 0.9433
11.0954 9.2067 -2.2991 0.9433
11.0371 9.2741 -2.2989 0.9433
10.9783 9.3412 -2.2986 0.9433
10.8595 9.4741 -2.2981 0.9433
10.6784 9.6708 -2.2973 0.9433
10.5556 9.8000 -2.2968 0.9433
10.4312 9.9275 -2.2963 0.9433
10.3685 9.9907 -2.2961 0.9433
10.1778 10.1778 -2.2953 0.9434
10.1135 10.2393 -2.2950 0.9434
10.0488 10.3005 -2.2947 0.9434
9.9837 10.3612 -2.2944 0.9434
9.9182 10.4215 -2.2942 0.9434
9.8524 10.4813 -2.2939 0.9434
9.5854 10.7165 -2.2928 0.9434
9.5177 10.7742 -2.2925 0.9434
9.3814 10.8884 -2.2919 0.9434
5.6575 6.9046 -1.4234 0.9645
5.4157 6.6935 -1.3730 0.9657
5.3658 6.7164 -1.3709 0.9658
5.4787 6.9453 -1.4106 0.9648
5.4008 6.9343 -1.4016 0.9650
5.2197 6.8756 -1.3766 0.9656
5.1741 6.9037 -1.3758 0.9657
5.1186 6.9184 -1.3724 0.9657
4.7118 6.7985 -1.3190 0.9671
4.6723 6.8313 -1.3198 0.9670
4.6836 6.9396 -1.3351 0.9667
4.6567 7.0873 -1.3523 0.9662
4.4699 6.9898 -1.3231 0.9670
4.4537 7.0603 -1.3311 0.9668
4.4311 7.1216 -1.3375 0.9666
4.3178 7.0363 -1.3165 0.9671
4.2135 7.1609 -1.3249 0.9669
4.1712 7.1906 -1.3256 0.9669
4.1290 7.2202 -1.3263 0.9669
3.9980 7.0926 -1.2983 0.9676
3.7206 6.8966 -1.2496 0.9688
3.6724 6.9091 -1.2477 0.9688
3.7431 7.2574 -1.3021 0.9675
3.5803 7.2697 -1.2922 0.9677
3.5362 7.2935 -1.2925 0.9677
3.4818 7.2959 -1.2891 0.9678
3.4277 7.2983 -1.2858 0.9679
3.3738 7.3005 -1.2825 0.9679
5.9091 12.9970 -2.2767 0.9438
4.6477 10.5676 -1.8409 0.9543
3.0987 7.1656 -1.2449 0.9689
3.0231 7.3627 -1.2692 0.9683
2.9136 7.3534 -1.2613 0.9685
2.9261 7.5206 -1.2868 0.9678
4.5729 11.9717 -2.0436 0.9494
2.5456 7.4863 -1.2609 0.9685
3.9809 11.9496 -2.0085 0.9503
3.6855 11.5367 -1.9313 0.9521
4.1621 13.6068 -2.2690 0.9440
4.0771 13.6301 -2.2687 0.9440
3.1939 10.9228 -1.8147 0.9550
3.2677 11.9970 -1.9828 0.9509
3.3273 12.5208 -2.0659 0.9489
3.3936 13.7966 -2.2656 0.9441
3.3077 13.8150 -2.2653 0.9441
3.0492 13.8670 -2.2641 0.9441
2.9629 13.8833 -2.2637 0.9441
2.4434 13.9693 -2.2614 0.9442
2.2696 13.9937 -2.2606 0.9442
2.1827 14.0051 -2.2603 0.9442
2.0957 14.0159 -2.2599 0.9442
2.0086 14.0262 -2.2595 0.9442
1.9215 14.0359 -2.2591 0.9442
1.6599 14.0618 -2.2579 0.9443
1.4854 14.0765 -2.2571 0.9443
1.3980 14.0829 -2.2568 0.9443
1.1359 14.0991 -2.2556 0.9443
1.0486 14.1034 -2.2552 0.9443
0.9612 14.1071 -2.2548 0.9443
0.8737 14.1104 -2.2544 0.9443
0.7863 14.1131 -2.2540 0.9444
0.4367 14.1183 -2.2524 0.9444
0.3493 14.1183 -2.2520 0.9444
0.0873 14.1149 -2.2509 0.9444
0.0000 14.1127 -2.2505 0.9444
-0.0873 14.1100 -2.2501 0.9444
-0.1366 11.0395 -1.7606 0.9563
-0.2036 10.9729 -1.7501 0.9565
-0.4030 10.8570 -1.7325 0.9569
-0.5342 10.7881 -1.7224 0.9572
-0.5992 10.7540 -1.7175 0.9573
-0.6638 10.7201 -1.7127 0.9574
-0.7317 10.7387 -1.7164 0.9573
-1.0442 14.0443 -2.2457 0.9446
-1.1308 14.0351 -2.2453 0.9446
-0.9703 11.1783 -1.7892 0.9556
-1.4766 13.9930 -2.2438 0.9446
-1.4209 12.7117 -2.0397 0.9495
-1.8209 13.9425 -2.2422 0.9446
-1.9068 13.9285 -2.2418 0.9446
-1.7590 11.7639 -1.8968 0.9530
-1.6791 10.7739 -1.7388 0.9568
-1.7496 10.7871 -1.7426 0.9567
-2.1335 12.1972 -1.9746 0.9511
-2.5897 13.7979 -2.2387 0.9447
-2.8437 13.7404 -2.2375 0.9447
-3.0124 13.6994 -2.2367 0.9448
-3.2643 13.6341 -2.2356 0.9448
-3.3480 13.6113 -2.2352 0.9448
-3.5149 13.5642 -2.2344 0.9448
-3.7640 13.4897 -2.2333 0.9449
-3.8467 13.4638 -2.2329 0.9449
-3.5802 12.2439 -2.0342 0.9496
-2.2254 7.4393 -1.2382 0.9690
-4.0937 13.3833 -2.2318 0.9449
-3.5664 11.1638 -1.8689 0.9536
-3.8000 11.6461 -1.9535 0.9516
-4.5017 13.2391 -2.2299 0.9449
-4.6635 13.1780 -2.2291 0.9450
-4.1484 10.8604 -1.8539 0.9540
-2.8843 7.2796 -1.2486 0.9688
-2.8650 7.1023 -1.2212 0.9695
-3.0633 7.2057 -1.2486 0.9688
-3.1532 7.0510 -1.2317 0.9692
-3.3845 7.4442 -1.3040 0.9674
-5.4243 11.7376 -2.0619 0.9490
-3.4693 7.3869 -1.3014 0.9675
-3.4867 7.1914 -1.2745 0.9681
-3.5295 7.1664 -1.2739 0.9682
-3.4633 6.8180 -1.2195 0.9695
-3.6591 6.9881 -1.2579 0.9686
-3.5882 6.7507 -1.2191 0.9695
-3.6975 6.8536 -1.2418 0.9689
-3.8254 6.9871 -1.2703 0.9682
-3.9027 7.0248 -1.2815 0.9680
-3.9408 6.8911 -1.2659 0.9684
-4.0187 6.9277 -1.2771 0.9681
-4.0835 6.9400 -1.2840 0.9679
-4.3267 7.0507 -1.3192 0.9670
-4.2875 6.8909 -1.2942 0.9677
-4.3504 6.8029 -1.2877 0.9678
-4.5623 6.6705 -1.2887 0.9678
-4.6153 6.6593 -1.2920 0.9677
-4.7666 6.6121 -1.2998 0.9675
-4.8021 6.5752 -1.2984 0.9676
-4.9101 6.5514 -1.3056 0.9674
-4.9703 6.5471 -1.3108 0.9673
-5.1837 6.7412 -1.3561 0.9661
-5.2164 6.6975 -1.3537 0.9662
-5.3669 6.7176 -1.3711 0.9658
-5.3215 6.5770 -1.3491 0.9663
-5.4095 6.6020 -1.3610 0.9660
-5.5479 6.6025 -1.3752 0.9657
-5.7805 6.5437 -1.3923 0.9653
-5.8415 6.5308 -1.3972 0.9651
-6.3204 6.5593 -1.4525 0.9638
-6.3750 6.5347 -1.4558 0.9637
-6.6465 6.5648 -1.4897 0.9629
-6.8282 6.5794 -1.5121 0.9623
-6.9879 6.4877 -1.5205 0.9621
-7.0378 6.4534 -1.5227 0.9621
-7.2273 6.4645 -1.5463 0.9615
-7.4057 6.5420 -1.5757 0.9608
-7.5335 6.5725 -1.5943 0.9603
-7.5067 6.4677 -1.5801 0.9607
-7.8477 6.5118 -1.6261 0.9595
-8.0100 6.4809 -1.6430 0.9591
-7.9547 6.2749 -1.6156 0.9598
-8.3846 6.4474 -1.6866 0.9581
-8.4493 6.4145 -1.6917 0.9579
-8.7673 6.4865 -1.7391 0.9568
-8.7799 6.4122 -1.7337 0.9569
-8.9011 6.4167 -1.7498 0.9565
-9.1862 6.4511 -1.7900 0.9556
-9.2318 6.3982 -1.7911 0.9555
-9.2737 6.3427 -1.7916 0.9555
-9.5321 6.4333 -1.8338 0.9545
-9.4371 6.2846 -1.8080 0.9551
-9.8243 6.4551 -1.8745 0.9535
-9.6741 6.2711 -1.8384 0.9544
-10.0818 6.4472 -1.9083 0.9527
-10.1655 6.4125 -1.9166 0.9525
-10.0535 6.2552 -1.8882 0.9532
-11.1776 6.4842 -2.0606 0.9490
-11.2817 6.4516 -2.0724 0.9487
-11.4911 6.4774 -2.1035 0.9480
-11.2193 6.2331 -2.0466 0.9493
-11.4178 6.2512 -2.0758 0.9486
-11.9046 6.4224 -2.1570 0.9467
-12.1238 6.4442 -2.1894 0.9459
-12.2749 6.1400 -2.1886 0.9459
-12.3477 5.9867 -2.1882 0.9459
-12.3834 5.9097 -2.1880 0.9459
-12.4186 5.8325 -2.1879 0.9459
-12.4876 5.6775 -2.1875 0.9460
-12.6200 5.3650 -2.1867 0.9460
-12.6520 5.2865 -2.1866 0.9460
-12.6834 5.2077 -2.1864 0.9460
-12.7143 5.1288 -2.1862 0.9460
-12.7748 4.9704 -2.1859 0.9460
-12.8900 4.6515 -2.1852 0.9460
-12.9740 4.5913 -2.1946 0.9458
-13.1982 4.5790 -2.2277 0.9450
-13.7001 4.5641 -2.3027 0.9432
-13.9344 4.4515 -2.3327 0.9425
-13.9608 4.3649 -2.3325 0.9425
-14.0366 4.1044 -2.3321 0.9425
-14.1078 3.8426 -2.3316 0.9425
-14.1305 3.7550 -2.3315 0.9425
-14.1526 3.6674 -2.3314 0.9425
-14.2358 3.3155 -2.3308 0.9425
-14.2927 3.0503 -2.3305 0.9425
-14.3279 2.8730 -2.3303 0.9425
-14.3447 2.7842 -2.3302 0.9425
-14.4343 2.2496 -2.3295 0.9425
-14.4474 2.1602 -2.3294 0.9425
-14.4599 2.0707 -2.3294 0.9425
-14.4719 1.9812 -2.3293 0.9426
-14.5046 1.7122 -2.3290 0.9426
-14.5144 1.6224 -2.3289 0.9426
-14.5325 1.4427 -2.3288 0.9426
-14.5407 1.3527 -2.3287 0.9426
-14.5555 1.1727 -2.3286 0.9426
-14.5681 0.9925 -2.3285 0.9426
-14.5736 0.9024 -2.3284 0.9426
-14.5785 0.8122 -2.3284 0.9426
-14.5902 0.5416 -2.3282 0.9426
-14.5929 0.4513 -2.3282 0.9426
-14.5969 0.2708 -2.3281 0.9426
-14.5980 0.1805 -2.3280 0.9426
-14.5987 0.0903 -2.3280 0.9426
-13.9504 -0.0863 -2.3310 0.9450
-13.9495 -0.1726 -2.3309 0.9450
-13.9480 -0.2588 -2.3309 0.9450
-13.9405 -0.5175 -2.3309 0.9450
-13.9328 -0.6899 -2.3308 0.9450
-13.9283 -0.7761 -2.3308 0.9450
-13.9175 -0.9482 -2.3308 0.9450
-13.9113 -1.0342 -2.3308 0.9450
-13.8976 -1.2063 -2.3308 0.9450
-13.8817 -1.3781 -2.3308 0.9450
-13.8729 -1.4639 -2.3308 0.9450
-13.8437 -1.7211 -2.3309 0.9450
-13.8098 -1.9776 -2.3310 0.9450
-13.7846 -2.1484 -2.3310 0.9450
-13.7712 -2.2336 -2.3310 0.9450
-13.7573 -2.3187 -2.3311 0.9450
-13.7430 -2.4038 -2.3311 0.9450
-13.6459 -2.9123 -2.3314 0.9450
-13.6095 -3.0810 -2.3315 0.9450
-13.5905 -3.1652 -2.3316 0.9450
-13.5710 -3.2493 -2.3316 0.9450
-13.5306 -3.4170 -2.3318 0.9450
-13.4880 -3.5844 -2.3319 0.9450
-13.4436 -3.7511 -2.3320 0.9450
-13.3971 -3.9174 -2.3322 0.9450
-13.3730 -4.0003 -2.3323 0.9450
-13.3486 -4.0831 -2.3324 0.9450
-13.3235 -4.1657 -2.3325 0.9450
-13.2980 -4.2482 -2.3325 0.9450
-13.2721 -4.3305 -2.3326 0.9450
-13.1911 -4.5766 -2.3329 0.9449
-13.1631 -4.6583 -2.3330 0.9449
-13.0762 -4.9023 -2.3333 0.9449
-13.0158 -5.0642 -2.3336 0.9449
-12.8564 -5.4655 -2.3342 0.9449
-12.8230 -5.5453 -2.3343 0.9449
-12.7892 -5.6248 -2.3344 0.9449
-12.7201 -5.7832 -2.3347 0.9449
-12.6491 -5.9407 -2.3350 0.9449
-12.6129 -6.0192 -2.3351 0.9449
-12.5390 -6.1755 -2.3354 0.9449
-12.4247 -6.4083 -2.3359 0.9449
-12.3462 -6.5624 -2.3362 0.9449
-12.3062 -6.6391 -2.3363 0.9449
-12.1834 -6.8677 -2.3368 0.9449
-12.0993 -7.0189 -2.3372 0.9449
-12.0566 -7.0941 -2.3373 0.9448
-12.0134 -7.1691 -2.3375 0.9448
-11.9698 -7.2438 -2.3377 0.9448
-11.8811 -7.3924 -2.3381 0.9448
-11.8360 -7.4663 -2.3382 0.9448
-11.7447 -7.6134 -2.3386 0.9448
-11.6983 -7.6865 -2.3388 0.9448
-11.6516 -7.7593 -2.3390 0.9448
-11.6043 -7.8319 -2.3392 0.9448
-11.5566 -7.9042 -2.3394 0.9448
-11.5085 -7.9762 -2.3396 0.9448
-11.4599 -8.0479 -2.3398 0.9448
-11.4110 -8.1193 -2.3400 0.9448
-11.3616 -8.1904 -2.3402 0.9448
-11.3117 -8.2613 -2.3404 0.9448
-11.2107 -8.4021 -2.3408 0.9448
-11.1595 -8.4720 -2.3410 0.9448
-11.1079 -8.5416 -2.3413 0.9448
-11.0035 -8.6800 -2.3417 0.9447
-10.9506 -8.7487 -2.3419 0.9447
-10.8974 -8.8171 -2.3422 0.9447
-10.7896 -8.9530 -2.3426 0.9447
-10.6802 -9.0875 -2.3431 0.9447
-10.6248 -9.1543 -2.3433 0.9447
-10.5691 -9.2208 -2.3435 0.9447
-10.3994 -9.4181 -2.3443 0.9447
-10.2261 -9.6125 -2.3450 0.9447
-10.1676 -9.6766 -2.3453 0.9447
-10.1086 -9.7404 -2.3455 0.9447
-10.0493 -9.8037 -2.3458 0.9447
-9.8690 -9.9918 -2.3465 0.9446
-9.6852 -10.1766 -2.3473 0.9446
-9.6231 -10.2375 -2.3476 0.9446
-9.4349 -10.4179 -2.3484 0.9446
-9.2433 -10.5949 -2.3493 0.9446
-9.1787 -10.6531 -2.3495 0.9446
-9.1137 -10.7109 -2.3498 0.9446
-9.0484 -10.7684 -2.3501 0.9446
-8.9827 -10.8255 -2.3504 0.9445
-8.6491 -11.1049 -2.3519 0.9445
-8.5814 -11.1596 -2.3522 0.9445
-8.5133 -11.2139 -2.3525 0.9445
-8.4448 -11.2678 -2.3528 0.9445
-8.0977 -11.5310 -2.3543 0.9445
-7.9566 -11.6333 -2.3549 0.9444
-7.8855 -11.6839 -2.3552 0.9444
-7.8142 -11.7340 -2.3555 0.9444
-7.7425 -11.7837 -2.3559 0.9444
-7.6705 -11.8329 -2.3562 0.9444
-7.5257 -11.9302 -2.3568 0.9444
-7.4527 -11.9781 -2.3571 0.9444
-7.3061 -12.0727 -2.3578 0.9444
-7.2323 -12.1194 -2.3581 0.9444
-6.8590 -12.3459 -2.3598 0.9443
-6.7835 -12.3898 -2.3601 0.9443
-6.7077 -12.4333 -2.3605 0.9443
-6.4786 -12.5611 -2.3615 0.9443
-6.4018 -12.6028 -2.3618 0.9443
-6.3246 -12.6440 -2.3622 0.9443
-5.8565 -12.8814 -2.3643 0.9442
-5.4596 -13.0662 -2.3661 0.9442
-5.2992 -13.1367 -2.3668 0.9442
-5.1379 -13.2053 -2.3675 0.9442
-5.0569 -13.2389 -2.3679 0.9441
-4.8127 -13.3366 -2.3690 0.9441
-4.7309 -13.3683 -2.3694 0.9441
-4.6488 -13.3994 -2.3698 0.9441
-4.5666 -13.4300 -2.3701 0.9441
-4.3187 -13.5188 -2.3713 0.9441
-4.1525 -13.5755 -2.3720 0.9441
-3.9856 -13.6302 -2.3728 0.9440
-3.9018 -13.6568 -2.3732 0.9440
-3.7338 -13.7085 -2.3739 0.9440
-3.6496 -13.7335 -2.3743 0.9440
-3.4806 -13.7821 -2.3751 0.9440
-3.0553 -13.8945 -2.3770 0.9439
-2.7125 -13.9751 -2.3786 0.9439
-2.2810 -14.0641 -2.3806 0.9439
-2.1076 -14.0959 -2.3814 0.9438
-2.0207 -14.1111 -2.3818 0.9438
-1.9338 -14.1256 -2.3822 0.9438
-1.4974 -14.1907 -2.3842 0.9438
-1.3223 -14.2130 -2.3850 0.9438
-1.2345 -14.2233 -2.3855 0.9437
-1.1468 -14.2331 -2.3859 0.9437
-0.7949 -14.2669 -2.3875 0.9437
-0.7068 -14.2740 -2.3879 0.9437
-0.6186 -14.2805 -2.3883 0.9437
-0.5304 -14.2866 -2.3887 0.9437
-0.2654 -14.3013 -2.3900 0.9436
-0.0885 -14.3084 -2.3908 0.9436
0.0000 -14.3112 -2.3912 0.9436
0.2656 -14.3162 -2.3924 0.9436
0.3542 -14.3167 -2.3929 0.9436
0.5315 -14.3162 -2.3937 0.9436
0.6201 -14.3151 -2.3941 0.9435
0.7088 -14.3135 -2.3945 0.9435
0.8860 -14.3086 -2.3953 0.9435
1.0633 -14.3015 -2.3962 0.9435
1.1519 -14.2971 -2.3966 0.9435
1.4177 -14.2808 -2.3978 0.9435
1.5062 -14.2742 -2.3983 0.9435
1.6832 -14.2594 -2.3991 0.9434
1.7717 -14.2512 -2.3995 0.9434
2.2134 -14.2020 -2.4016 0.9434
2.3016 -14.1905 -2.4020 0.9434
2.3897 -14.1784 -2.4024 0.9434
2.5658 -14.1527 -2.4033 0.9433
3.0047 -14.0788 -2.4053 0.9433
3.0922 -14.0624 -2.4058 0.9433
3.1797 -14.0454 -2.4062 0.9433
3.2670 -14.0279 -2.4066 0.9433
3.3543 -14.0099 -2.4070 0.9433
3.4415 -13.9912 -2.4074 0.9432
3.7891 -13.9114 -2.4091 0.9432
3.8757 -13.8901 -2.4095 0.9432
3.9622 -13.8682 -2.4099 0.9432
4.1349 -13.8229 -2.4107 0.9432
4.2210 -13.7994 -2.4111 0.9432
4.3070 -13.7754 -2.4116 0.9431
4.3928 -13.7508 -2.4120 0.9431
4.4785 -13.7257 -2.4124 0.9431
4.6495 -13.6739 -2.4132 0.9431
4.8199 -13.6200 -2.4140 0.9431
5.1588 -13.5057 -2.4156 0.9431
5.2431 -13.4758 -2.4160 0.9430
5.3272 -13.4454 -2.4164 0.9430
5.4950 -13.3829 -2.4173 0.9430
5.7451 -13.2853 -2.4185 0.9430
5.9110 -13.2176 -2.4193 0.9430
5.9936 -13.1829 -2.4197 0.9430
6.0760 -13.1478 -2.4201 0.9430
6.1582 -13.1121 -2.4205 0.9429
6.2402 -13.0759 -2.4208 0.9429
6.3220 -13.0393 -2.4212 0.9429
6.6469 -12.8872 -2.4228 0.9429
6.7276 -12.8480 -2.4232 0.9429
6.8080 -12.8082 -2.4236 0.9429
7.0478 -12.6858 -2.4248 0.9428
7.1272 -12.6440 -2.4252 0.9428
7.2065 -12.6017 -2.4255 0.9428
7.3641 -12.5155 -2.4263 0.9428
7.5207 -12.4274 -2.4271 0.9428
7.6762 -12.3373 -2.4278 0.9428
7.8307 -12.2452 -2.4286 0.9428
7.9075 -12.1985 -2.4290 0.9427
7.9840 -12.1512 -2.4293 0.9427
8.0602 -12.1034 -2.4297 0.9427
8.1362 -12.0552 -2.4301 0.9427
8.2872 -11.9573 -2.4308 0.9427
8.3622 -11.9076 -2.4312 0.9427
8.5856 -11.7558 -2.4323 0.9427
8.6594 -11.7042 -2.4327 0.9427
8.8061 -11.5997 -2.4334 0.9426
8.9515 -11.4932 -2.4341 0.9426
9.0238 -11.4393 -2.4345 0.9426
9.0957 -11.3850 -2.4348 0.9426
9.1673 -11.3302 -2.4352 0.9426
9.2385 -11.2749 -2.4355 0.9426
9.4502 -11.1063 -2.4366 0.9426
9.5895 -10.9917 -2.4373 0.9426
9.7959 -10.8165 -2.4383 0.9425
9.8640 -10.7573 -2.4386 0.9425
9.9317 -10.6975 -2.4390 0.9425
9.9991 -10.6374 -2.4393 0.9425
10.1326 -10.5158 -2.4400 0.9425
10.1988 -10.4543 -2.4403 0.9425
10.2647 -10.3925 -2.4406 0.9425
10.3301 -10.3302 -2.4410 0.9425
10.4599 -10.2044 -2.4416 0.9425
10.5242 -10.1408 -2.4419 0.9425
10.5881 -10.0769 -2.4423 0.9424
10.7147 -9.9477 -2.4429 0.9424
10.8398 -9.8170 -2.4435 0.9424
10.9017 -9.7510 -2.4439 0.9424
10.9632 -9.6846 -2.4442 0.9424
11.0243 -9.6179 -2.4445 0.9424
11.1451 -9.4832 -2.4451 0.9424
11.3819 -9.2092 -2.4463 0.9424
11.4977 -9.0699 -2.4469 0.9423
11.7241 -8.7869 -2.4480 0.9423
11.7796 -8.7152 -2.4483 0.9423
11.8892 -8.5708 -2.4489 0.9423
11.9433 -8.4981 -2.4492 0.9423
12.0503 -8.3516 -2.4497 0.9423
12.2586 -8.0546 -2.4508 0.9422
12.3599 -7.9040 -2.4513 0.9422
12.4098 -7.8283 -2.4516 0.9422
12.5084 -7.6758 -2.4521 0.9422
12.5569 -7.5991 -2.4524 0.9422
12.6049 -7.5221 -2.4526 0.9422
12.7462 -7.2891 -2.4534 0.9422
12.7923 -7.2109 -2.4536 0.9422
12.8379 -7.1323 -2.4538 0.9422
12.8830 -7.0535 -2.4541 0.9422
13.0154 -6.8152 -2.4548 0.9422
13.0585 -6.7352 -2.4550 0.9422
13.1433 -6.5744 -2.4555 0.9421
13.2259 -6.4125 -2.4559 0.9421
13.2666 -6.3312 -2.4561 0.9421
13.3066 -6.2496 -2.4564 0.9421
13.3462 -6.1677 -2.4566 0.9421
13.3852 -6.0856 -2.4568 0.9421
13.4237 -6.0032 -2.4570 0.9421
13.4617 -5.9205 -2.4572 0.9421
13.5362 -5.7546 -2.4576 0.9421
13.5726 -5.6712 -2.4578 0.9421
13.6086 -5.5876 -2.4580 0.9421
13.6439 -5.5038 -2.4582 0.9421
13.7131 -5.3355 -2.4586 0.9421
13.7801 -5.1662 -2.4590 0.9421
13.8450 -4.9961 -2.4593 0.9421
13.9077 -4.8252 -2.4597 0.9420
13.9383 -4.7394 -2.4598 0.9420
13.9683 -4.6535 -2.4600 0.9420
13.9978 -4.5673 -2.4602 0.9420
14.0267 -4.4810 -2.4604 0.9420
14.1102 -4.2208 -2.4608 0.9420
14.1887 -3.9590 -2.4613 0.9420
14.2138 -3.8714 -2.4614 0.9420
14.2857 -3.6077 -2.4619 0.9420
14.3308 -3.4311 -2.4622 0.9420
14.4143 -3.0763 -2.4627 0.9420
14.4338 -2.9872 -2.4628 0.9420
14.4527 -2.8981 -2.4629 0.9420
14.4710 -2.8088 -2.4630 0.9420
14.5226 -2.5402 -2.4634 0.9420
14.5542 -2.3606 -2.4636 0.9420
14.5835 -2.1806 -2.4638 0.9420
14.6231 -1.9099 -2.4641 0.9419
14.6575 -1.6384 -2.4643 0.9419
14.6678 -1.5478 -2.4644 0.9419
14.6776 -1.4571 -2.4645 0.9419
14.7034 -1.1846 -2.4647 0.9419
14.7177 -1.0028 -2.4648 0.9419
14.7297 -0.8207 -2.4650 0.9419
14.7496 -0.3650 -2.4652 0.9419
14.7535 -0.1825 -2.4653 0.9419
14.7545 -0.0912 -2.4653 0.9419
14.7549 0.0912 -2.4654 0.9419
14.7543 0.1825 -2.4654 0.9419
14.7530 0.2737 -2.4654 0.9419
14.7512 0.3650 -2.4655 0.9419
14.7422 0.6386 -2.4655 0.9419
14.7333 0.8208 -2.4656 0.9419
14.7280 0.9120 -2.4656 0.9419
14.7156 1.0941 -2.4656 0.9419
14.7010 1.2760 -2.4656 0.9419
14.6928 1.3668 -2.4656 0.9419
14.6746 1.5484 -2.4655 0.9419
14.6646 1.6392 -2.4655 0.9419
14.6541 1.7298 -2.4655 0.9419
14.6431 1.8204 -2.4655 0.9419
14.6314 1.9109 -2.4655 0.9419
14.6191 2.0013 -2.4654 0.9419
14.6063 2.0917 -2.4654 0.9419
14.5644 2.3622 -2.4653 0.9419
14.5493 2.4522 -2.4653 0.9419
14.5336 2.5421 -2.4652 0.9419
14.4831 2.8111 -2.4651 0.9419
14.4467 2.9898 -2.4650 0.9419
14.4275 3.0792 -2.4649 0.9419
14.4079 3.1682 -2.4649 0.9419
14.3668 3.3460 -2.4647 0.9419
14.3454 3.4346 -2.4647 0.9419
14.2302 3.8759 -2.4643 0.9419
14.2054 3.9637 -2.4642 0.9419
14.1544 4.1388 -2.4640 0.9419
14.0735 4.4001 -2.4637 0.9420
13.9580 4.7461 -2.4633 0.9420
13.8969 4.9179 -2.4631 0.9420
13.8013 5.1741 -2.4627 0.9420
13.7684 5.2591 -2.4626 0.9420
13.7348 5.3439 -2.4625 0.9420
13.7009 5.4284 -2.4624 0.9420
13.6663 5.5128 -2.4622 0.9420
13.6312 5.5969 -2.4621 0.9420
13.5955 5.6808 -2.4620 0.9420
13.4855 5.9310 -2.4615 0.9420
13.4477 6.0139 -2.4614 0.9420
13.4095 6.0966 -2.4612 0.9420
13.2512 6.4248 -2.4606 0.9420
13.2104 6.5062 -2.4604 0.9420
13.1271 6.6681 -2.4601 0.9420
13.0847 6.7487 -2.4599 0.9420
12.9984 6.9091 -2.4596 0.9420
12.9545 6.9888 -2.4594 0.9421
11.9180 6.9136 -2.3021 0.9457
11.8297 7.0594 -2.3018 0.9457
11.7849 7.1319 -2.3016 0.9457
11.6939 7.2759 -2.3012 0.9457
11.6477 7.3475 -2.3010 0.9457
11.6011 7.4187 -2.3008 0.9457
11.5540 7.4897 -2.3006 0.9457
11.4101 7.7008 -2.3000 0.9457
11.3613 7.7705 -2.2998 0.9457
11.3120 7.8399 -2.2996 0.9457
11.1615 8.0462 -2.2990 0.9457
11.0591 8.1821 -2.2986 0.9457
11.0072 8.2495 -2.2984 0.9457
10.7956 8.5159 -2.2975 0.9458
10.6325 8.7121 -2.2968 0.9458
10.5774 8.7768 -2.2965 0.9458
10.5218 8.8411 -2.2963 0.9458
10.4095 8.9688 -2.2958 0.9458
10.2957 9.0950 -2.2954 0.9458
10.2381 9.1575 -2.2951 0.9458
10.1803 9.2197 -2.2949 0.9458
10.1220 9.2815 -2.2946 0.9458
10.0633 9.3429 -2.2944 0.9458
10.0043 9.4039 -2.2941 0.9458
9.9448 9.4646 -2.2939 0.9458
9.8249 9.5848 -2.2934 0.9459
9.7035 9.7034 -2.2929 0.9459
9.6421 9.7621 -2.2926 0.9459
9.5805 9.8204 -2.2924 0.9459
5.7696 6.4504 -1.4460 0.9655
5.6973 6.4495 -1.4379 0.9657
5.6259 6.4486 -1.4299 0.9659
5.5553 6.4476 -1.4220 0.9661
5.4911 6.4535 -1.4158 0.9662
8.8135 10.4888 -2.2891 0.9460
5.5700 6.7127 -1.4574 0.9652
5.5156 6.7314 -1.4541 0.9653
5.2491 6.7395 -1.4273 0.9659
5.1820 6.7389 -1.4204 0.9661
5.1518 6.7861 -1.4236 0.9660
5.1181 6.8290 -1.4259 0.9660
4.9032 6.7137 -1.3891 0.9668
4.4596 6.8797 -1.3699 0.9673
4.3868 6.9542 -1.3738 0.9672
4.3079 7.0201 -1.3762 0.9671
4.0061 6.9059 -1.3340 0.9681
3.9059 6.9292 -1.3291 0.9683
3.5187 6.7198 -1.2674 0.9697
3.5229 6.8305 -1.2841 0.9693
3.5289 7.0549 -1.3180 0.9685
3.4568 7.1297 -1.3239 0.9684
3.3049 7.0367 -1.2990 0.9690
3.1270 7.1100 -1.2978 0.9690
3.0647 7.0869 -1.2901 0.9692
3.0008 7.1817 -1.3005 0.9689
2.9601 7.2093 -1.3022 0.9689
2.9077 7.2083 -1.2987 0.9690
2.8104 7.0932 -1.2748 0.9695
2.7718 7.1241 -1.2773 0.9695
2.7590 7.2229 -1.2919 0.9691
2.7694 7.3871 -1.3182 0.9685
2.5336 6.8873 -1.2262 0.9707
2.5633 7.2432 -1.2838 0.9693
2.5447 7.3346 -1.2972 0.9690
2.5257 7.4280 -1.3109 0.9687
2.3679 7.2572 -1.2755 0.9695
2.3281 7.2876 -1.2783 0.9695
2.2789 7.2888 -1.2760 0.9695
3.1960 10.9301 -1.9027 0.9549
2.1406 7.4923 -1.3020 0.9689
1.9022 7.1582 -1.2376 0.9704
1.8618 7.1848 -1.2401 0.9703
1.8551 7.3456 -1.2659 0.9697
1.8070 7.3462 -1.2640 0.9698
1.7027 7.3109 -1.2542 0.9700
2.8267 13.2449 -2.2629 0.9466
2.6618 13.2746 -2.2622 0.9466
2.5793 13.2886 -2.2618 0.9466
1.3801 7.3531 -1.2501 0.9701
1.3527 7.4614 -1.2670 0.9697
1.3098 7.4885 -1.2702 0.9696
2.2483 13.3397 -2.2603 0.9466
1.9995 13.3725 -2.2592 0.9466
1.9164 13.3825 -2.2588 0.9467
1.8333 13.3918 -2.2585 0.9467
1.7502 13.4007 -2.2581 0.9467
1.6670 13.4091 -2.2577 0.9467
1.3339 13.4373 -2.2562 0.9467
1.1672 13.4484 -2.2555 0.9467
0.5929 7.3587 -1.2335 0.9705
0.5470 7.3580 -1.2328 0.9705
0.8337 13.4642 -2.2540 0.9468
0.7503 13.4668 -2.2536 0.9468
0.6669 13.4689 -2.2532 0.9468
0.4167 13.4723 -2.2521 0.9468
0.1838 7.4299 -1.2418 0.9703
0.2500 13.4719 -2.2514 0.9468
0.1666 13.4710 -2.2510 0.9468
0.0833 13.4695 -2.2506 0.9468
0.0000 13.4675 -2.2502 0.9468
-0.0833 13.4650 -2.2499 0.9469
-0.1364 11.0262 -1.8425 0.9563
-0.2497 13.4584 -2.2491 0.9469
-0.3557 11.4997 -1.9224 0.9544
-0.5074 11.7146 -1.9592 0.9536
-0.6652 13.4330 -2.2472 0.9469
-0.7480 13.4264 -2.2469 0.9469
-0.7313 10.7337 -1.7976 0.9573
-0.5914 7.3407 -1.2305 0.9706
-1.1027 11.1079 -1.8651 0.9557
-1.4092 13.3551 -2.2438 0.9470
-1.4351 12.1572 -2.0454 0.9516
-1.0683 7.4595 -1.2591 0.9699
-1.9518 11.5805 -1.9622 0.9535
-2.1306 12.1810 -2.0662 0.9511
-2.7144 13.1156 -2.2379 0.9471
-2.8755 13.0767 -2.2371 0.9471
-1.6557 7.1093 -1.2197 0.9708
-1.7097 7.1410 -1.2269 0.9707
-1.9764 7.0832 -1.2287 0.9706
-3.8296 12.8023 -2.2327 0.9472
-2.4026 7.0659 -1.2470 0.9702
-2.4996 7.2046 -1.2742 0.9695
-2.5293 7.0092 -1.2451 0.9702
-2.6045 7.0801 -1.2605 0.9699
-2.6352 7.0290 -1.2543 0.9700
-2.7435 7.0514 -1.2642 0.9698
-2.8366 7.0320 -1.2669 0.9697
-2.9726 7.1143 -1.2883 0.9692
-3.1228 6.9828 -1.2781 0.9695
-3.4516 7.0082 -1.3053 0.9688
-3.3595 6.7161 -1.2547 0.9700
-3.4885 6.6621 -1.2565 0.9700
-3.5358 6.6521 -1.2587 0.9699
-3.6791 6.7197 -1.2800 0.9694
-3.7780 6.8002 -1.2998 0.9689
-3.8431 6.8179 -1.3077 0.9688
-3.8699 6.7672 -1.3025 0.9689
-3.9814 6.8633 -1.3257 0.9683
-4.0145 6.8228 -1.3227 0.9684
-4.0469 6.7816 -1.3195 0.9685
-4.2860 6.7944 -1.3423 0.9679
-4.3305 6.7718 -1.3430 0.9679
-4.3678 6.7379 -1.3417 0.9680
-4.5166 6.7822 -1.3615 0.9675
-4.4974 6.6637 -1.3433 0.9679
-4.6147 6.6584 -1.3536 0.9677
-4.7549 6.5959 -1.3586 0.9676
-5.0199 6.6124 -1.3872 0.9669
-5.1272 6.5830 -1.3942 0.9667
-5.2075 6.6015 -1.4049 0.9665
-5.2667 6.5094 -1.3990 0.9666
-5.2357 6.3098 -1.3700 0.9673
-5.3012 6.3089 -1.3769 0.9671
-5.4343 6.3072 -1.3911 0.9668
-5.5701 6.3055 -1.4058 0.9665
-5.9958 6.3000 -1.4532 0.9653
-6.5127 6.5127 -1.5389 0.9633
-6.5859 6.5050 -1.5467 0.9632
-6.5385 6.3003 -1.5171 0.9638
-7.0746 6.4871 -1.6038 0.9618
-7.2355 6.4717 -1.6220 0.9614
-7.3937 6.5315 -1.6484 0.9608
-7.5433 6.4993 -1.6637 0.9604
-7.6134 6.4781 -1.6703 0.9603
-7.6658 6.4414 -1.6730 0.9602
-7.8220 6.4905 -1.6983 0.9596
-7.6938 6.3042 -1.6620 0.9605
-7.9546 6.2749 -1.6929 0.9597
-8.2953 6.4608 -1.7568 0.9583
-8.7005 6.5207 -1.8167 0.9569
-8.7971 6.5085 -1.8284 0.9566
-9.3410 6.4739 -1.8990 0.9550
-9.4959 6.4947 -1.9222 0.9544
-9.4375 6.2849 -1.8945 0.9551
-9.6745 6.2714 -1.9264 0.9543
-10.1103 6.4654 -2.0052 0.9525
-10.4566 6.4167 -2.0499 0.9515
-10.7428 6.4108 -2.0903 0.9505
-10.7664 6.2456 -2.0797 0.9508
-11.2824 6.4520 -2.1716 0.9487
-11.2193 6.2330 -2.1444 0.9493
-11.4183 6.2515 -2.1751 0.9486
-11.5463 6.2291 -2.1921 0.9482
-11.6204 6.0847 -2.1917 0.9482
-11.6926 5.9395 -2.1913 0.9482
-11.7632 5.7934 -2.1909 0.9482
-11.8319 5.6465 -2.1905 0.9482
-11.8656 5.5727 -2.1903 0.9482
-11.9316 5.4246 -2.1900 0.9482
-12.0273 5.2011 -2.1895 0.9482
-12.0583 5.1262 -2.1893 0.9482
-12.0888 5.0512 -2.1891 0.9483
-12.1189 4.9759 -2.1889 0.9483
-12.1777 4.8250 -2.1886 0.9483
-12.2347 4.6733 -2.1883 0.9483
-12.6872 4.5783 -2.2537 0.9468
-12.9135 4.5699 -2.2888 0.9460
-13.1470 4.5612 -2.3251 0.9451
-13.2629 4.4185 -2.3358 0.9449
-13.2892 4.3361 -2.3356 0.9449
-13.3149 4.2535 -2.3355 0.9449
-13.4127 3.9219 -2.3349 0.9449
-13.4586 3.7553 -2.3346 0.9449
-13.5025 3.5881 -2.3344 0.9449
-13.5237 3.5044 -2.3343 0.9449
-13.5443 3.4205 -2.3341 0.9449
-13.5645 3.3365 -2.3340 0.9449
-13.6033 3.1681 -2.3338 0.9449
-13.6915 2.7454 -2.3332 0.9449
-13.7076 2.6606 -2.3331 0.9449
-13.7382 2.4906 -2.3329 0.9450
-13.7528 2.4055 -2.3328 0.9450
-13.7668 2.3203 -2.3327 0.9450
-13.7934 2.1497 -2.3325 0.9450
-13.8059 2.0643 -2.3324 0.9450
-13.8179 1.9787 -2.3323 0.9450
-13.8403 1.8076 -2.3322 0.9450
-13.8607 1.6362 -2.3320 0.9450
-13.8790 1.4645 -2.3319 0.9450
-13.8873 1.3786 -2.3318 0.9450
-13.8952 1.2926 -2.3317 0.9450
-13.9094 1.1206 -2.3316 0.9450
-13.9157 1.0346 -2.3315 0.9450
-13.9215 0.9485 -2.3315 0.9450
-13.9267 0.8623 -2.3314 0.9450
-13.9315 0.7762 -2.3314 0.9450
-13.9357 0.6900 -2.3313 0.9450
-13.9453 0.4313 -2.3312 0.9450
-13.3567 -0.0000 -2.3338 0.9472
-13.3554 -0.1652 -2.3337 0.9472
-13.3496 -0.4129 -2.3337 0.9472
-13.3434 -0.5780 -2.3336 0.9472
-13.3395 -0.6605 -2.3336 0.9472
-13.3351 -0.7429 -2.3336 0.9472
-13.3248 -0.9079 -2.3336 0.9472
-13.3189 -0.9903 -2.3336 0.9472
-13.2983 -1.2372 -2.3336 0.9472
-13.2904 -1.3194 -2.3336 0.9472
-13.2821 -1.4016 -2.3336 0.9472
-13.2639 -1.5657 -2.3337 0.9472
-13.2541 -1.6478 -2.3337 0.9472
-13.1975 -2.0569 -2.3338 0.9472
-13.1285 -2.4641 -2.3340 0.9472
-13.1133 -2.5452 -2.3340 0.9472
-13.0976 -2.6264 -2.3341 0.9472
-13.0646 -2.7883 -2.3342 0.9472
-13.0297 -2.9498 -2.3343 0.9472
-12.9737 -3.1912 -2.3344 0.9472
-12.9541 -3.2715 -2.3345 0.9472
-12.8923 -3.5115 -2.3347 0.9472
-12.8262 -3.7505 -2.3349 0.9472
-12.8032 -3.8298 -2.3350 0.9472
-12.7797 -3.9091 -2.3351 0.9472
-12.6288 -4.3815 -2.3356 0.9472
-12.6020 -4.4597 -2.3357 0.9472
-12.5469 -4.6156 -2.3359 0.9472
-12.5187 -4.6933 -2.3360 0.9472
-12.4312 -4.9254 -2.3364 0.9472
-12.2761 -5.3087 -2.3369 0.9471
-12.1094 -5.6873 -2.3376 0.9471
-12.0747 -5.7624 -2.3377 0.9471
-12.0396 -5.8373 -2.3379 0.9471
-12.0040 -5.9120 -2.3380 0.9471
-11.9314 -6.0608 -2.3383 0.9471
-11.8944 -6.1349 -2.3384 0.9471
-11.8192 -6.2823 -2.3387 0.9471
-11.7809 -6.3557 -2.3389 0.9471
-11.7421 -6.4289 -2.3390 0.9471
-11.7029 -6.5018 -2.3392 0.9471
-11.6633 -6.5745 -2.3394 0.9471
-11.5417 -6.7912 -2.3399 0.9471
-11.4162 -7.0056 -2.3404 0.9471
-11.3304 -7.1474 -2.3407 0.9471
-11.2869 -7.2179 -2.3409 0.9471
-11.2429 -7.2881 -2.3411 0.9470
-11.1537 -7.4277 -2.3414 0.9470
-11.0627 -7.5663 -2.3418 0.9470
-11.0166 -7.6352 -2.3420 0.9470
-10.9701 -7.7038 -2.3422 0.9470
-10.8758 -7.8402 -2.3426 0.9470
-10.8280 -7.9080 -2.3428 0.9470
-10.7799 -7.9755 -2.3430 0.9470
-10.7312 -8.0427 -2.3432 0.9470
-10.6328 -8.1763 -2.3436 0.9470
-10.5830 -8.2426 -2.3438 0.9470
-10.4821 -8.3744 -2.3443 0.9470
-10.2756 -8.6343 -2.3451 0.9470
-10.1166 -8.8260 -2.3458 0.9469
-10.0628 -8.8893 -2.3460 0.9469
-9.8991 -9.0771 -2.3467 0.9469
-9.7320 -9.2621 -2.3474 0.9469
-9.6187 -9.3837 -2.3479 0.9469
-9.3876 -9.6228 -2.3489 0.9469
-9.3290 -9.6817 -2.3492 0.9469
-9.2699 -9.7403 -2.3494 0.9469
-9.2105 -9.7985 -2.3497 0.9469
-9.1507 -9.8563 -2.3500 0.9469
-9.0906 -9.9138 -2.3502 0.9468
-8.9693 -10.0278 -2.3507 0.9468
-8.7847 -10.1959 -2.3515 0.9468
-8.6600 -10.3062 -2.3521 0.9468
-8.5971 -10.3608 -2.3524 0.9468
-8.4064 -10.5222 -2.3532 0.9468
-8.3421 -10.5752 -2.3535 0.9468
-8.2127 -10.6802 -2.3541 0.9468
-8.0819 -10.7836 -2.3546 0.9467
-8.0161 -10.8347 -2.3549 0.9467
-7.9499 -10.8854 -2.3552 0.9467
-7.8834 -10.9357 -2.3555 0.9467
-7.8166 -10.9856 -2.3558 0.9467
-7.6821 -11.0843 -2.3564 0.9467
-7.4780 -11.2292 -2.3573 0.9467
-7.3404 -11.3237 -2.3579 0.9467
-7.2712 -11.3704 -2.3582 0.9467
-7.2017 -11.4166 -2.3585 0.9467
-7.1319 -11.4625 -2.3588 0.9467
-7.0618 -11.5079 -2.3591 0.9467
-6.9914 -11.5529 -2.3595 0.9466
-6.9208 -11.5974 -2.3598 0.9466
-6.8499 -11.6415 -2.3601 0.9466
-6.7071 -11.7286 -2.3607 0.9466
-6.3457 -11.9385 -2.3623 0.9466
-6.1993 -12.0194 -2.3630 0.9466
-6.1257 -12.0592 -2.3633 0.9466
-6.0519 -12.0985 -2.3637 0.9466
-5.9777 -12.1374 -2.3640 0.9465
-5.8288 -12.2139 -2.3647 0.9465
-5.6789 -12.2885 -2.3653 0.9465
-5.5281 -12.3614 -2.3660 0.9465
-5.4523 -12.3971 -2.3664 0.9465
-5.3763 -12.4324 -2.3667 0.9465
-5.3001 -12.4673 -2.3670 0.9465
-5.2237 -12.5016 -2.3674 0.9465
-4.9931 -12.6019 -2.3684 0.9464
-4.8382 -12.6665 -2.3691 0.9464
-4.3690 -12.8488 -2.3713 0.9464
-4.2901 -12.8775 -2.3716 0.9464
-4.2110 -12.9058 -2.3720 0.9464
-4.1317 -12.9335 -2.3724 0.9464
-4.0523 -12.9608 -2.3727 0.9464
-3.8129 -13.0398 -2.3738 0.9463
-3.6524 -13.0900 -2.3745 0.9463
-3.5720 -13.1143 -2.3749 0.9463
-3.4914 -13.1382 -2.3753 0.9463
-3.3296 -13.1845 -2.3760 0.9463
-3.1673 -13.2288 -2.3768 0.9463
-2.9227 -13.2916 -2.3779 0.9462
-2.6769 -13.3498 -2.3790 0.9462
-2.1819 -13.4528 -2.3813 0.9462
-2.0160 -13.4831 -2.3821 0.9461
-1.8497 -13.5114 -2.3828 0.9461
-1.7664 -13.5248 -2.3832 0.9461
-1.5995 -13.5500 -2.3840 0.9461
-1.4322 -13.5731 -2.3848 0.9461
-1.3485 -13.5839 -2.3851 0.9461
-1.1808 -13.6040 -2.3859 0.9461
-1.0968 -13.6133 -2.3863 0.9461
-1.0128 -13.6220 -2.3867 0.9460
-0.9286 -13.6302 -2.3871 0.9460
-0.8445 -13.6380 -2.3875 0.9460
-0.7603 -13.6451 -2.3879 0.9460
-0.6759 -13.6518 -2.3883 0.9460
-0.5072 -13.6636 -2.3891 0.9460
-0.4228 -13.6687 -2.3895 0.9460
-0.3383 -13.6734 -2.3898 0.9460
-0.2538 -13.6775 -2.3902 0.9460
-0.1692 -13.6810 -2.3906 0.9460
-0.0846 -13.6841 -2.3910 0.9459
0.0000 -13.6866 -2.3914 0.9459
0.1693 -13.6901 -2.3922 0.9459
0.2540 -13.6910 -2.3926 0.9459
0.3388 -13.6915 -2.3930 0.9459
0.4235 -13.6914 -2.3934 0.9459
0.5082 -13.6908 -2.3938 0.9459
0.6777 -13.6880 -2.3946 0.9459
0.7625 -13.6858 -2.3950 0.9459
0.9320 -13.6799 -2.3958 0.9458
1.1015 -13.6718 -2.3966 0.9458
1.3557 -13.6558 -2.3978 0.9458
1.4403 -13.6495 -2.3982 0.9458
1.5250 -13.6426 -2.3986 0.9458
1.6096 -13.6351 -2.3990 0.9458
1.6941 -13.6272 -2.3994 0.9458
1.7787 -13.6187 -2.3998 0.9458
1.8632 -13.6097 -2.4002 0.9457
1.9476 -13.6002 -2.4006 0.9457
2.2007 -13.5685 -2.4018 0.9457
2.3691 -13.5447 -2.4026 0.9457
2.4532 -13.5320 -2.4030 0.9457
2.6213 -13.5051 -2.4038 0.9457
2.7052 -13.4909 -2.4042 0.9457
2.8728 -13.4608 -2.4049 0.9456
2.9565 -13.4451 -2.4053 0.9456
3.1236 -13.4119 -2.4061 0.9456
3.2903 -13.3766 -2.4069 0.9456
3.5396 -13.3199 -2.4081 0.9456
3.6225 -13.2999 -2.4085 0.9456
3.7053 -13.2794 -2.4089 0.9456
3.7880 -13.2584 -2.4093 0.9455
3.8705 -13.2369 -2.4097 0.9455
4.0352 -13.1923 -2.4105 0.9455
4.1175 -13.1693 -2.4109 0.9455
4.2814 -13.1216 -2.4117 0.9455
4.6076 -13.0201 -2.4132 0.9455
4.6888 -12.9935 -2.4136 0.9455
4.9314 -12.9105 -2.4148 0.9454
5.3325 -12.7621 -2.4167 0.9454
5.4122 -12.7308 -2.4171 0.9454
5.4917 -12.6991 -2.4175 0.9454
5.7290 -12.6011 -2.4186 0.9453
5.8078 -12.5674 -2.4190 0.9453
5.8863 -12.5332 -2.4194 0.9453
5.9646 -12.4985 -2.4198 0.9453
6.0427 -12.4633 -2.4201 0.9453
6.1207 -12.4276 -2.4205 0.9453
6.2759 -12.3548 -2.4213 0.9453
6.3531 -12.3175 -2.4216 0.9453
6.4302 -12.2801 -2.4220 0.9453
6.5070 -12.2419 -2.4224 0.9453
6.5836 -12.2033 -2.4228 0.9453
6.8120 -12.0846 -2.4239 0.9452
6.8876 -12.0441 -2.4242 0.9452
7.0382 -11.9616 -2.4250 0.9452
7.2622 -11.8343 -2.4261 0.9452
7.3363 -11.7909 -2.4264 0.9452
7.4102 -11.7471 -2.4268 0.9452
7.4838 -11.7028 -2.4272 0.9452
7.6302 -11.6128 -2.4279 0.9451
7.8478 -11.4743 -2.4289 0.9451
7.9198 -11.4272 -2.4293 0.9451
7.9914 -11.3797 -2.4296 0.9451
8.0628 -11.3316 -2.4300 0.9451
8.3454 -11.1351 -2.4314 0.9451
8.4849 -11.0342 -2.4321 0.9450
8.5542 -10.9830 -2.4324 0.9450
8.6231 -10.9315 -2.4328 0.9450
8.6918 -10.8794 -2.4331 0.9450
8.8281 -10.7741 -2.4338 0.9450
8.8958 -10.7208 -2.4341 0.9450
8.9632 -10.6670 -2.4345 0.9450
9.0302 -10.6128 -2.4348 0.9450
9.0969 -10.5583 -2.4351 0.9450
9.1633 -10.5032 -2.4354 0.9450
9.2293 -10.4477 -2.4358 0.9450
9.2950 -10.3919 -2.4361 0.9450
9.3603 -10.3356 -2.4364 0.9450
9.4253 -10.2789 -2.4368 0.9449
9.4900 -10.2217 -2.4371 0.9449
9.7450 -9.9891 -2.4384 0.9449
9.8703 -9.8703 -2.4390 0.9449
9.9942 -9.7500 -2.4396 0.9449
10.0556 -9.6892 -2.4399 0.9449
10.1166 -9.6281 -2.4402 0.9449
10.2374 -9.5046 -2.4408 0.9449
10.2973 -9.4423 -2.4411 0.9448
10.3568 -9.3796 -2.4414 0.9448
10.5329 -9.1892 -2.4423 0.9448
10.7054 -8.9954 -2.4432 0.9448
10.8184 -8.8644 -2.4438 0.9448
11.0394 -8.5981 -2.4449 0.9448
11.1474 -8.4628 -2.4455 0.9448
11.2008 -8.3947 -2.4457 0.9447
11.2537 -8.3261 -2.4460 0.9447
11.4100 -8.1186 -2.4468 0.9447
11.5121 -7.9786 -2.4473 0.9447
11.7108 -7.6947 -2.4484 0.9447
11.7594 -7.6229 -2.4486 0.9447
11.8075 -7.5508 -2.4489 0.9447
11.8552 -7.4784 -2.4491 0.9447
11.9024 -7.4057 -2.4494 0.9447
11.9954 -7.2593 -2.4499 0.9447
12.0413 -7.1857 -2.4501 0.9447
12.0867 -7.1118 -2.4503 0.9446
12.1761 -6.9631 -2.4508 0.9446
12.2636 -6.8132 -2.4513 0.9446
12.3066 -6.7379 -2.4515 0.9446
12.3492 -6.6623 -2.4517 0.9446
12.4329 -6.5102 -2.4522 0.9446
12.4740 -6.4338 -2.4524 0.9446
12.5549 -6.2801 -2.4528 0.9446
12.6338 -6.1254 -2.4532 0.9446
12.6725 -6.0477 -2.4535 0.9446
12.7857 -5.8130 -2.4541 0.9446
12.8224 -5.7343 -2.4543 0.9446
12.9297 -5.4968 -2.4549 0.9445
13.0657 -5.1768 -2.4556 0.9445
13.2243 -4.7722 -2.4565 0.9445
13.2545 -4.6906 -2.4567 0.9445
13.3419 -4.4448 -2.4572 0.9445
13.3700 -4.3625 -2.4573 0.9445
13.3976 -4.2800 -2.4575 0.9445
13.5277 -3.8649 -2.4582 0.9445
13.5521 -3.7814 -2.4584 0.9445
13.6223 -3.5300 -2.4588 0.9445
13.7083 -3.1926 -2.4593 0.9444
13.7481 -3.0231 -2.4596 0.9444
13.7858 -2.8531 -2.4598 0.9444
13.8213 -2.6827 -2.4600 0.9444
13.8383 -2.5973 -2.4601 0.9444
13.8547 -2.5117 -2.4603 0.9444
13.8858 -2.3404 -2.4605 0.9444
13.9006 -2.2546 -2.4606 0.9444
13.9148 -2.1686 -2.4607 0.9444
13.9285 -2.0826 -2.4608 0.9444
13.9416 -1.9965 -2.4608 0.9444
13.9542 -1.9103 -2.4609 0.9444
13.9778 -1.7377 -2.4611 0.9444
14.0183 -1.3917 -2.4614 0.9444
14.0270 -1.3050 -2.4615 0.9444
14.0499 -1.0446 -2.4617 0.9444
14.0565 -0.9577 -2.4618 0.9444
14.0679 -0.7838 -2.4619 0.9444
14.0771 -0.6098 -2.4620 0.9444
14.0868 -0.3485 -2.4621 0.9444
14.0889 -0.2614 -2.4622 0.9444
14.0905 -0.1743 -2.4622 0.9444
14.0860 0.4357 -2.4624 0.9444
14.0796 0.6099 -2.4624 0.9444
14.0757 0.6970 -2.4624 0.9444
14.0605 0.9579 -2.4625 0.9444
14.0476 1.1318 -2.4625 0.9444
14.0403 1.2186 -2.4625 0.9444
14.0241 1.3922 -2.4624 0.9444
14.0151 1.4789 -2.4624 0.9444
14.0056 1.5655 -2.4624 0.9444
13.9956 1.6521 -2.4624 0.9444
13.9850 1.7386 -2.4624 0.9444
13.9738 1.8250 -2.4624 0.9444
13.9622 1.9114 -2.4623 0.9444
13.9500 1.9977 -2.4623 0.9444
13.9371 2.0839 -2.4623 0.9444
13.9238 2.1700 -2.4622 0.9444
13.9100 2.2560 -2.4622 0.9444
13.8955 2.3420 -2.4622 0.9444
13.8805 2.4278 -2.4621 0.9444
13.8489 2.5992 -2.4620 0.9444
13.8152 2.7702 -2.4619 0.9444
13.7213 3.1956 -2.4617 0.9444
13.7009 3.2805 -2.4616 0.9444
13.6800 3.3649 -2.4615 0.9444
13.6586 3.4493 -2.4615 0.9444
13.6141 3.6178 -2.4613 0.9444
13.5674 3.7856 -2.4612 0.9444
13.5433 3.8693 -2.4611 0.9444
13.4934 4.0363 -2.4609 0.9444
13.4414 4.2026 -2.4607 0.9444
13.3874 4.3681 -2.4605 0.9444
13.3024 4.6151 -2.4602 0.9444
13.2127 4.8605 -2.4599 0.9444
13.1503 5.0231 -2.4596 0.9444
13.0859 5.1848 -2.4594 0.9444
12.8804 5.6648 -2.4586 0.9445
12.8078 5.8230 -2.4583 0.9445
12.7708 5.9018 -2.4582 0.9445
12.7334 5.9803 -2.4580 0.9445
12.6568 6.1366 -2.4577 0.9445
12.6179 6.2143 -2.4576 0.9445
12.5384 6.3691 -2.4573 0.9445
12.3737 6.6755 -2.4566 0.9445
11.6710 6.5788 -2.3409 0.9471
11.4253 6.5338 -2.2997 0.9480
11.3420 6.6736 -2.2994 0.9480
11.2996 6.7431 -2.2992 0.9480
11.2568 6.8123 -2.2990 0.9480
11.2137 6.8813 -2.2988 0.9480
11.0365 7.1542 -2.2981 0.9480
10.8992 7.3559 -2.2975 0.9480
10.8526 7.4225 -2.2973 0.9480
10.8055 7.4889 -2.2971 0.9480
10.7581 7.5549 -2.2969 0.9480
10.5642 7.8159 -2.2961 0.9480
10.4648 7.9445 -2.2957 0.9480
10.3127 8.1350 -2.2951 0.9481
10.1570 8.3225 -2.2944 0.9481
10.1044 8.3844 -2.2942 0.9481
9.9980 8.5071 -2.2937 0.9481
9.9443 8.5679 -2.2935 0.9481
9.8356 8.6885 -2.2931 0.9481
9.7255 8.8078 -2.2926 0.9481
9.5575 8.9839 -2.2919 0.9481
9.5008 9.0419 -2.2917 0.9481
9.4437 9.0995 -2.2914 0.9481
9.3862 9.1568 -2.2912 0.9481
9.0342 9.4925 -2.2897 0.9482
8.9743 9.5472 -2.2894 0.9482
8.8536 9.6553 -2.2889 0.9482
8.4834 9.9702 -2.2873 0.9482
5.5570 6.6969 -1.5205 0.9653
5.0814 6.4416 -1.4336 0.9672
4.9521 6.4399 -1.4195 0.9676
4.8898 6.4410 -1.4130 0.9677
5.0225 6.7015 -1.4633 0.9666
4.9546 6.6967 -1.4555 0.9667
4.8691 6.6671 -1.4425 0.9670
4.7682 6.7013 -1.4371 0.9672
4.2171 6.6852 -1.3811 0.9684
4.1641 6.8808 -1.4053 0.9679
4.0614 6.8058 -1.3848 0.9683
3.7902 6.7239 -1.3486 0.9691
3.7584 6.7650 -1.3522 0.9691
3.6404 6.7479 -1.3397 0.9693
3.5479 6.7757 -1.3364 0.9694
3.4956 6.7774 -1.3324 0.9695
3.4488 7.0026 -1.3639 0.9688
3.3714 6.9537 -1.3503 0.9691
3.2550 6.9305 -1.3379 0.9694
3.1732 6.9795 -1.3396 0.9693
3.1182 6.9727 -1.3346 0.9695
3.1069 7.0642 -1.3484 0.9691
3.0304 7.0075 -1.3340 0.9695
3.0110 7.0827 -1.3447 0.9692
2.7841 7.0267 -1.3206 0.9698
2.7578 7.0881 -1.3289 0.9696
2.5601 6.8286 -1.2742 0.9708
2.5273 6.8701 -1.2790 0.9707
2.4834 6.8818 -1.2783 0.9707
2.3664 6.8208 -1.2615 0.9711
2.3184 6.8181 -1.2583 0.9712
2.3560 7.0720 -1.3024 0.9702
2.3011 7.0523 -1.2962 0.9703
2.2782 7.1314 -1.3081 0.9701
2.2236 7.1118 -1.3020 0.9702
2.1694 7.0924 -1.2959 0.9703
2.1157 7.0730 -1.2900 0.9705
2.0816 7.1187 -1.2959 0.9703
2.0320 7.1121 -1.2924 0.9704
1.9826 7.1054 -1.2889 0.9705
1.9335 7.0987 -1.2855 0.9706
1.8808 7.0777 -1.2796 0.9707
1.7703 7.1970 -1.2950 0.9704
1.6808 7.2172 -1.2948 0.9704
1.5630 7.1082 -1.2717 0.9709
1.5448 7.2385 -1.2933 0.9704
1.5421 7.4512 -1.3295 0.9696
1.3342 6.8739 -1.2235 0.9720
1.3379 7.3797 -1.3105 0.9700
1.2641 7.2269 -1.2819 0.9706
1.1314 7.2598 -1.2838 0.9706
1.0396 7.2600 -1.2815 0.9707
0.9939 7.2600 -1.2804 0.9707
1.5142 12.8272 -2.2568 0.9489
1.4346 12.8343 -2.2565 0.9489
1.3550 12.8408 -2.2561 0.9489
0.7076 7.1276 -1.2515 0.9713
0.6656 7.1549 -1.2556 0.9712
0.6233 7.1814 -1.2595 0.9712
0.5807 7.2081 -1.2635 0.9711
0.4931 7.2374 -1.2675 0.9710
0.4452 7.1891 -1.2585 0.9712
0.3961 7.1102 -1.2443 0.9715
0.3686 7.4449 -1.3024 0.9702
0.3984 12.8814 -2.2518 0.9490
0.1697 6.8594 -1.1989 0.9725
0.0921 7.4523 -1.3022 0.9702
0.0449 7.2584 -1.2683 0.9710
0.0000 7.2328 -1.2638 0.9711
-0.0449 7.2564 -1.2679 0.9710
-0.0897 7.2554 -1.2678 0.9710
-0.1795 7.2531 -1.2677 0.9710
-0.2242 7.2486 -1.2671 0.9710
-0.4354 11.7289 -2.0508 0.9535
-0.7154 12.8389 -2.2468 0.9491
-0.4516 7.2925 -1.2766 0.9708
-0.4848 7.1163 -1.2463 0.9715
-0.5312 7.1442 -1.2517 0.9713
-0.7547 7.1525 -1.2567 0.9712
-0.7925 7.0896 -1.2465 0.9714
-1.3928 11.2033 -1.9726 0.9552
-1.7405 12.7135 -2.2421 0.9492
-1.0598 7.4004 -1.3062 0.9701
-1.0228 6.8402 -1.2085 0.9723
-1.2034 7.1398 -1.2651 0.9710
-1.2629 7.2199 -1.2807 0.9707
-1.2794 7.0569 -1.2531 0.9713
-1.3558 6.9853 -1.2433 0.9715
-1.4668 7.0870 -1.2645 0.9710
-1.5547 7.0703 -1.2649 0.9710
-1.6823 7.0263 -1.2624 0.9711
-1.7508 7.1180 -1.2808 0.9707
-1.8963 7.1357 -1.2901 0.9705
-1.9327 7.0960 -1.2850 0.9706
-1.9611 7.0286 -1.2750 0.9708
-2.0548 7.0272 -1.2793 0.9707
-2.2043 7.2064 -1.3168 0.9699
-2.2113 7.0728 -1.2948 0.9704
-2.2563 7.0629 -1.2955 0.9703
-2.3233 6.8326 -1.2610 0.9711
-2.3344 6.7283 -1.2444 0.9715
-2.3916 6.7582 -1.2526 0.9713
-2.4020 6.6562 -1.2364 0.9717
-2.6151 6.9753 -1.3016 0.9702
-2.6331 6.8934 -1.2894 0.9705
-2.7279 7.0114 -1.3145 0.9699
-2.7901 6.9167 -1.3032 0.9702
-2.8309 6.8946 -1.3023 0.9702
-2.9763 7.0011 -1.3292 0.9696
-3.0537 7.0614 -1.3443 0.9692
-3.1017 7.0524 -1.3462 0.9692
-3.1502 7.0441 -1.3483 0.9692
-3.3638 6.9379 -1.3472 0.9692
-3.3004 6.7012 -1.3052 0.9701
-3.3470 6.6913 -1.3073 0.9701
-3.3939 6.6813 -1.3094 0.9700
-3.4409 6.6714 -1.3116 0.9700
-3.4812 6.6482 -1.3112 0.9700
-3.5748 6.6263 -1.3155 0.9699
-3.6088 6.5914 -1.3130 0.9699
-3.7071 6.5765 -1.3191 0.9698
-3.7584 6.5721 -1.3228 0.9697
-3.8100 6.5678 -1.3267 0.9696
-3.8619 6.5635 -1.3306 0.9696
-4.0423 6.6796 -1.3642 0.9688
-4.1273 6.7259 -1.3788 0.9685
-4.1771 6.7135 -1.3816 0.9684
-4.1648 6.6024 -1.3640 0.9688
-4.2318 6.6174 -1.3725 0.9686
-4.2898 6.6176 -1.3780 0.9685
-4.3483 6.6179 -1.3836 0.9684
-4.4279 6.6491 -1.3958 0.9681
-4.5000 6.5795 -1.3928 0.9682
-4.6573 6.5454 -1.4036 0.9679
-4.6967 6.5152 -1.4034 0.9679
-4.6191 6.3247 -1.3684 0.9687
-4.7338 6.3162 -1.3792 0.9685
-4.9175 6.3138 -1.3983 0.9680
-4.9799 6.3130 -1.4049 0.9679
-5.2052 6.5152 -1.4571 0.9667
-5.2929 6.5418 -1.4703 0.9664
-5.4039 6.5951 -1.4898 0.9660
-5.5106 6.5581 -1.4967 0.9658
-5.6115 6.5129 -1.5021 0.9657
-5.6796 6.5101 -1.5095 0.9655
-5.7484 6.5073 -1.5171 0.9654
-5.8128 6.4987 -1.5235 0.9652
-5.7196 6.3155 -1.4888 0.9660
-6.3491 6.5892 -1.5988 0.9635
-6.3301 6.4887 -1.5839 0.9639
-6.2197 6.2971 -1.5465 0.9647
-6.6256 6.5441 -1.6272 0.9629
-6.7468 6.5010 -1.6371 0.9627
-6.8236 6.4941 -1.6459 0.9625
-6.9652 6.4665 -1.6606 0.9621
-7.5054 6.5480 -1.7403 0.9604
-7.5588 6.5126 -1.7433 0.9603
-7.5443 6.4193 -1.7308 0.9606
-7.6942 6.3045 -1.7381 0.9604
-7.9546 6.2749 -1.7703 0.9597
-8.4339 6.4854 -1.8590 0.9577
-8.5013 6.4539 -1.8650 0.9576
-8.6374 6.4735 -1.8860 0.9571
-8.7798 6.4957 -1.9083 0.9566
-8.8587 6.4698 -1.9167 0.9564
-8.9568 6.4568 -1.9292 0.9562
-8.9976 6.4021 -1.9295 0.9561
-9.2980 6.5296 -1.9852 0.9549
-9.3862 6.5053 -1.9954 0.9547
-9.4379 6.2851 -1.9813 0.9550
-9.8716 6.4862 -2.0638 0.9532
-9.6749 6.2716 -2.0146 0.9543
-10.4580 6.4175 -2.1439 0.9514
-10.7609 6.4216 -2.1896 0.9504
-10.8296 6.3721 -2.1955 0.9503
-10.9055 6.2365 -2.1951 0.9503
-10.9429 6.1684 -2.1949 0.9503
-11.0164 6.0315 -2.1945 0.9503
-11.0882 5.8937 -2.1941 0.9503
-11.1235 5.8246 -2.1939 0.9503
-11.1928 5.6855 -2.1935 0.9503
-11.2268 5.6157 -2.1934 0.9503
-11.2935 5.4755 -2.1930 0.9503
-11.3262 5.4052 -2.1928 0.9503
-11.3585 5.3346 -2.1926 0.9503
-11.3904 5.2638 -2.1925 0.9503
-11.4528 5.1217 -2.1921 0.9503
-11.4834 5.0504 -2.1919 0.9503
-11.5135 4.9789 -2.1918 0.9503
-11.5432 4.9073 -2.1916 0.9503
-11.5725 4.8354 -2.1915 0.9503
-11.6297 4.6913 -2.1911 0.9504
-11.6577 4.6189 -2.1910 0.9504
-12.0046 4.5854 -2.2454 0.9492
-12.5917 4.5438 -2.3390 0.9471
-12.6187 4.4656 -2.3388 0.9471
-12.6452 4.3872 -2.3387 0.9471
-12.7221 4.1510 -2.3382 0.9471
-12.7467 4.0721 -2.3381 0.9471
-12.7946 3.9136 -2.3378 0.9471
-12.9058 3.5152 -2.3371 0.9471
-12.9667 3.2746 -2.3368 0.9471
-12.9861 3.1942 -2.3367 0.9471
-13.0049 3.1137 -2.3365 0.9471
-13.0412 2.9523 -2.3363 0.9472
-13.0585 2.8715 -2.3362 0.9472
-13.1078 2.6284 -2.3359 0.9472
-13.1232 2.5471 -2.3358 0.9472
-13.1526 2.3844 -2.3356 0.9472
-13.1931 2.1398 -2.3353 0.9472
-13.2055 2.0580 -2.3352 0.9472
-13.2400 1.8125 -2.3350 0.9472
-13.2505 1.7305 -2.3349 0.9472
-13.2701 1.5664 -2.3347 0.9472
-13.2791 1.4843 -2.3347 0.9472
-13.2876 1.4021 -2.3346 0.9472
-13.2957 1.3199 -2.3345 0.9472
-13.3032 1.2376 -2.3345 0.9472
-13.3103 1.1553 -2.3344 0.9472
-13.3334 0.8256 -2.3342 0.9472
-13.3380 0.7431 -2.3341 0.9472
-13.3457 0.5781 -2.3340 0.9472
-13.3560 0.1652 -2.3338 0.9472
-12.8097 -0.0000 -2.3363 0.9492
-12.8084 -0.1585 -2.3363 0.9493
-12.8071 -0.2377 -2.3363 0.9493
-12.8053 -0.3169 -2.3363 0.9493
-12.8029 -0.3960 -2.3362 0.9493
-12.7969 -0.5543 -2.3362 0.9493
-12.7932 -0.6335 -2.3362 0.9493
-12.7890 -0.7126 -2.3362 0.9493
-12.7792 -0.8707 -2.3362 0.9493
-12.7674 -1.0287 -2.3362 0.9493
-12.7207 -1.5017 -2.3362 0.9493
-12.7013 -1.6589 -2.3363 0.9493
-12.6801 -1.8159 -2.3363 0.9493
-12.6687 -1.8942 -2.3363 0.9492
-12.6319 -2.1291 -2.3364 0.9492
-12.6050 -2.2852 -2.3365 0.9492
-12.5908 -2.3631 -2.3365 0.9492
-12.5762 -2.4410 -2.3366 0.9492
-12.5611 -2.5188 -2.3366 0.9492
-12.4960 -2.8289 -2.3368 0.9492
-12.4041 -3.2143 -2.3371 0.9492
-12.3641 -3.3677 -2.3372 0.9492
-12.3434 -3.4442 -2.3373 0.9492
-12.3222 -3.5205 -2.3374 0.9492
-12.2786 -3.6729 -2.3375 0.9492
-12.2560 -3.7489 -2.3376 0.9492
-12.1856 -3.9760 -2.3378 0.9492
-12.1613 -4.0515 -2.3379 0.9492
-12.1112 -4.2019 -2.3381 0.9492
-12.0854 -4.2769 -2.3382 0.9492
-11.9780 -4.5753 -2.3386 0.9492
-11.9500 -4.6495 -2.3387 0.9492
-11.8336 -4.9446 -2.3391 0.9492
-11.6780 -5.3094 -2.3397 0.9492
-11.6128 -5.4540 -2.3400 0.9492
-11.5794 -5.5261 -2.3401 0.9492
-11.5457 -5.5979 -2.3403 0.9492
-11.3705 -5.9539 -2.3410 0.9492
-11.3341 -6.0245 -2.3411 0.9491
-11.2974 -6.0949 -2.3412 0.9491
-11.2602 -6.1650 -2.3414 0.9491
-11.2225 -6.2349 -2.3416 0.9491
-11.0281 -6.5811 -2.3423 0.9491
-10.9880 -6.6496 -2.3425 0.9491
-10.9474 -6.7179 -2.3427 0.9491
-10.9064 -6.7860 -2.3428 0.9491
-10.8233 -6.9214 -2.3432 0.9491
-10.7811 -6.9887 -2.3433 0.9491
-10.6954 -7.1226 -2.3437 0.9491
-10.6520 -7.1891 -2.3439 0.9491
-10.6081 -7.2554 -2.3441 0.9491
-10.5193 -7.3872 -2.3444 0.9491
-10.4742 -7.4528 -2.3446 0.9491
-10.4288 -7.5180 -2.3448 0.9491
-10.3829 -7.5829 -2.3450 0.9491
-10.2901 -7.7121 -2.3454 0.9491
-10.0996 -7.9669 -2.3462 0.9490
-10.0510 -8.0300 -2.3464 0.9490
-10.0020 -8.0927 -2.3466 0.9490
-9.9527 -8.1551 -2.3468 0.9490
-9.7515 -8.4018 -2.3477 0.9490
-9.7003 -8.4628 -2.3479 0.9490
-9.5966 -8.5837 -2.3483 0.9490
-9.5443 -8.6437 -2.3485 0.9490
-9.4384 -8.7628 -2.3490 0.9490
-9.3312 -8.8806 -2.3495 0.9490
-9.2770 -8.9390 -2.3497 0.9490
-9.1676 -9.0549 -2.3502 0.9490
-9.1123 -9.1123 -2.3504 0.9490
-9.0567 -9.1694 -2.3506 0.9489
-8.9445 -9.2827 -2.3511 0.9489
-8.8878 -9.3388 -2.3514 0.9489
-8.8308 -9.3945 -2.3516 0.9489
-8.6578 -9.5598 -2.3524 0.9489
-8.5994 -9.6142 -2.3526 0.9489
-8.4817 -9.7220 -2.3531 0.9489
-8.4223 -9.7753 -2.3534 0.9489
-8.3026 -9.8809 -2.3539 0.9489
-8.2423 -9.9332 -2.3542 0.9489
-8.1206 -10.0366 -2.3547 0.9489
-8.0593 -10.0878 -2.3550 0.9489
-7.8736 -10.2391 -2.3558 0.9488
-7.8110 -10.2888 -2.3561 0.9488
-7.6849 -10.3871 -2.3566 0.9488
-7.6215 -10.4357 -2.3569 0.9488
-7.5577 -10.4838 -2.3572 0.9488
-7.4936 -10.5316 -2.3575 0.9488
-7.4292 -10.5791 -2.3578 0.9488
-7.3645 -10.6261 -2.3580 0.9488
-7.2996 -10.6727 -2.3583 0.9488
-7.1688 -10.7648 -2.3589 0.9488
-7.1030 -10.8103 -2.3592 0.9488
-7.0369 -10.8554 -2.3595 0.9488
-6.9704 -10.9000 -2.3598 0.9488
-6.8368 -10.9882 -2.3604 0.9487
-6.7696 -11.0317 -2.3607 0.9487
-6.6343 -11.1174 -2.3613 0.9487
-6.5663 -11.1596 -2.3616 0.9487
-6.4980 -11.2015 -2.3619 0.9487
-6.3606 -11.2839 -2.3625 0.9487
-6.2915 -11.3245 -2.3628 0.9487
-6.2222 -11.3647 -2.3631 0.9487
-6.0827 -11.4438 -2.3638 0.9487
-5.5153 -11.7433 -2.3663 0.9486
-5.0801 -11.9497 -2.3683 0.9486
-5.0068 -11.9825 -2.3686 0.9486
-4.9333 -12.0150 -2.3689 0.9486
-4.8596 -12.0470 -2.3693 0.9486
-4.7857 -12.0785 -2.3696 0.9485
-4.7115 -12.1096 -2.3699 0.9485
-4.6372 -12.1402 -2.3703 0.9485
-4.4880 -12.2001 -2.3709 0.9485
-4.2627 -12.2866 -2.3720 0.9485
-4.0358 -12.3689 -2.3730 0.9485
-3.9598 -12.3954 -2.3733 0.9485
-3.7308 -12.4723 -2.3744 0.9484
-3.5004 -12.5449 -2.3754 0.9484
-3.4232 -12.5682 -2.3758 0.9484
-3.3459 -12.5910 -2.3762 0.9484
-3.1909 -12.6351 -2.3769 0.9484
-3.1132 -12.6566 -2.3772 0.9484
-3.0353 -12.6775 -2.3776 0.9484
-2.9573 -12.6979 -2.3779 0.9484
-2.8791 -12.7178 -2.3783 0.9484
-2.7225 -12.7564 -2.3790 0.9483
-2.6439 -12.7749 -2.3794 0.9483
-2.5652 -12.7929 -2.3797 0.9483
