ply
format ascii 1.0
element vertex 1595
property float32 x
property float32 y
property float32 z
property float32 I
end_header
7.1141 1.3808 -2.4134 0.9699
7.1067 1.4250 -2.4138 0.9699
7.0742 1.6015 -2.4155 0.9699
7.0470 1.7334 -2.4168 0.9699
7.0174 1.8648 -2.4181 0.9699
6.9962 1.9521 -2.4189 0.9698
6.9852 1.9956 -2.4193 0.9698
6.9740 2.0392 -2.4197 0.9698
6.9506 2.1260 -2.4206 0.9698
6.9385 2.1694 -2.4210 0.9698
6.9007 2.2989 -2.4223 0.9698
6.8875 2.3419 -2.4227 0.9698
6.8464 2.4705 -2.4239 0.9698
6.8321 2.5133 -2.4243 0.9698
6.8029 2.5985 -2.4252 0.9698
6.7569 2.7256 -2.4264 0.9697
6.7086 2.8520 -2.4276 0.9697
6.6919 2.8939 -2.4280 0.9697
6.6750 2.9357 -2.4284 0.9697
6.6579 2.9774 -2.4288 0.9697
6.6404 3.0190 -2.4292 0.9697
6.6048 3.1019 -2.4301 0.9697
6.5493 3.2255 -2.4313 0.9697
6.4915 3.3481 -2.4324 0.9697
6.4517 3.4293 -2.4332 0.9697
6.4314 3.4697 -2.4336 0.9697
6.4108 3.5099 -2.4340 0.9697
6.3900 3.5501 -2.4344 0.9697
6.3690 3.5901 -2.4348 0.9696
6.3261 3.6697 -2.4356 0.9696
6.3043 3.7094 -2.4359 0.9696
6.2599 3.7883 -2.4367 0.9696
6.2373 3.8275 -2.4371 0.9696
6.2145 3.8666 -2.4375 0.9696
6.1914 3.9056 -2.4379 0.9696
6.1681 3.9444 -2.4382 0.9696
6.0967 4.0600 -2.4394 0.9696
6.0724 4.0982 -2.4397 0.9696
6.0478 4.1364 -2.4401 0.9696
6.0230 4.1743 -2.4405 0.9696
5.9472 4.2873 -2.4416 0.9696
5.8693 4.3988 -2.4426 0.9696
5.8161 4.4724 -2.4434 0.9695
5.7892 4.5089 -2.4437 0.9695
5.7621 4.5453 -2.4441 0.9695
5.7346 4.5815 -2.4444 0.9695
5.6792 4.6534 -2.4451 0.9695
5.6511 4.6891 -2.4455 0.9695
5.5942 4.7600 -2.4462 0.9695
5.5655 4.7951 -2.4465 0.9695
5.5073 4.8650 -2.4472 0.9695
5.4778 4.8996 -2.4475 0.9695
5.4482 4.9341 -2.4479 0.9695
5.3882 5.0024 -2.4485 0.9695
5.3579 5.0363 -2.4488 0.9695
5.2345 5.1701 -2.4501 0.9695
5.1076 5.3007 -2.4514 0.9694
5.0754 5.3329 -2.4517 0.9694
5.0103 5.3966 -2.4524 0.9694
4.9775 5.4282 -2.4527 0.9694
4.8685 5.5111 -2.4489 0.9695
4.7869 5.4868 -2.4249 0.9698
4.4834 5.4032 -2.3382 0.9708
4.4109 5.3831 -2.3177 0.9711
4.3494 5.3756 -2.3028 0.9713
4.3108 5.3958 -2.3000 0.9713
4.2114 5.4767 -2.3008 0.9713
4.1779 5.5032 -2.3010 0.9713
4.0423 5.6074 -2.3020 0.9713
4.0080 5.6329 -2.3023 0.9713
3.9389 5.6832 -2.3028 0.9713
3.9040 5.7081 -2.3030 0.9713
3.7632 5.8053 -2.3040 0.9713
3.7276 5.8290 -2.3042 0.9713
3.6919 5.8526 -2.3044 0.9712
3.5837 5.9218 -2.3051 0.9712
3.5109 5.9668 -2.3056 0.9712
3.4005 6.0326 -2.3062 0.9712
3.3635 6.0540 -2.3064 0.9712
3.3262 6.0753 -2.3066 0.9712
3.2514 6.1170 -2.3070 0.9712
3.2138 6.1376 -2.3072 0.9712
3.1761 6.1579 -2.3074 0.9712
3.1382 6.1779 -2.3076 0.9712
3.1002 6.1977 -2.3078 0.9712
3.0621 6.2173 -2.3080 0.9712
3.0238 6.2366 -2.3082 0.9712
2.9469 6.2746 -2.3086 0.9712
2.9083 6.2931 -2.3088 0.9712
2.8695 6.3115 -2.3089 0.9712
2.7917 6.3475 -2.3093 0.9712
2.7134 6.3825 -2.3096 0.9712
2.5950 6.4331 -2.3101 0.9712
2.5554 6.4495 -2.3103 0.9712
2.5156 6.4656 -2.3104 0.9712
2.4758 6.4815 -2.3106 0.9712
2.2749 6.5570 -2.3113 0.9712
2.2345 6.5714 -2.3115 0.9712
2.1939 6.5855 -2.3116 0.9712
2.1125 6.6129 -2.3119 0.9712
1.9488 6.6646 -2.3124 0.9712
1.9076 6.6768 -2.3125 0.9711
1.8664 6.6888 -2.3126 0.9711
1.7422 6.7233 -2.3130 0.9711
1.7007 6.7343 -2.3131 0.9711
1.5757 6.7656 -2.3134 0.9711
1.4081 6.8036 -2.3138 0.9711
1.3661 6.8124 -2.3139 0.9711
1.3239 6.8210 -2.3140 0.9711
1.2396 6.8373 -2.3141 0.9711
1.1973 6.8451 -2.3142 0.9711
0.9852 6.8799 -2.3146 0.9711
0.9427 6.8860 -2.3146 0.9711
0.9001 6.8919 -2.3147 0.9711
0.7261 6.8815 -2.3044 0.9712
0.5970 6.8781 -2.2992 0.9713
0.4684 6.8748 -2.2948 0.9714
0.4256 6.8737 -2.2935 0.9714
0.2976 6.8703 -2.2901 0.9714
0.2550 6.8692 -2.2892 0.9714
0.1715 6.9327 -2.3095 0.9712
-0.3008 6.9457 -2.3153 0.9711
-0.3438 6.9437 -2.3153 0.9711
-0.3867 6.9413 -2.3152 0.9711
-0.4296 6.9387 -2.3152 0.9711
-0.4725 6.9359 -2.3152 0.9711
-0.6439 6.9217 -2.3151 0.9711
-0.6867 6.9175 -2.3150 0.9711
-1.0278 6.8738 -2.3146 0.9711
-1.1126 6.8602 -2.3145 0.9711
-1.1973 6.8455 -2.3144 0.9711
-1.3240 6.8215 -2.3141 0.9711
-1.3661 6.8129 -2.3141 0.9711
-1.4082 6.8041 -2.3140 0.9711
-1.5758 6.7662 -2.3136 0.9711
-1.6175 6.7560 -2.3135 0.9711
-1.6592 6.7456 -2.3134 0.9711
-1.7008 6.7349 -2.3133 0.9711
-1.7839 6.7128 -2.3131 0.9711
-1.8666 6.6896 -2.3129 0.9711
-1.9078 6.6775 -2.3128 0.9711
-2.0310 6.6400 -2.3124 0.9712
-2.0719 6.6269 -2.3123 0.9712
-2.1128 6.6136 -2.3122 0.9712
-2.1535 6.6001 -2.3120 0.9712
-2.1942 6.5862 -2.3119 0.9712
-2.2347 6.5722 -2.3118 0.9712
-2.2752 6.5579 -2.3116 0.9712
-2.3156 6.5433 -2.3115 0.9712
-2.4361 6.4980 -2.3111 0.9712
-2.5160 6.4665 -2.3108 0.9712
-2.5954 6.4340 -2.3105 0.9712
-2.6744 6.4005 -2.3101 0.9712
-2.7921 6.3485 -2.3096 0.9712
-2.8311 6.3306 -2.3095 0.9712
-2.9087 6.2942 -2.3091 0.9712
-3.0243 6.2377 -2.3086 0.9712
-3.0625 6.2183 -2.3084 0.9712
-3.1007 6.1988 -2.3082 0.9712
-3.1766 6.1589 -2.3078 0.9712
-3.2520 6.1181 -2.3075 0.9712
-3.2895 6.0974 -2.3073 0.9712
-3.3641 6.0552 -2.3068 0.9712
-3.4381 6.0120 -2.3064 0.9712
-3.5115 5.9680 -2.3060 0.9712
-3.5481 5.9456 -2.3058 0.9712
-3.5844 5.9230 -2.3056 0.9712
-3.6206 5.9001 -2.3054 0.9712
-3.6567 5.8771 -2.3051 0.9712
-3.6926 5.8538 -2.3049 0.9712
-3.7640 5.8065 -2.3045 0.9712
-3.8347 5.7584 -2.3040 0.9713
-3.9049 5.7093 -2.3035 0.9713
-3.9397 5.6845 -2.3033 0.9713
-4.0089 5.6342 -2.3028 0.9713
-4.0432 5.6087 -2.3026 0.9713
-4.0774 5.5829 -2.3023 0.9713
-4.1114 5.5570 -2.3021 0.9713
-4.2124 5.4780 -2.3013 0.9713
-4.2457 5.4512 -2.3011 0.9713
-4.3446 5.3697 -2.3003 0.9713
-4.4097 5.3143 -2.2997 0.9713
-4.4420 5.2863 -2.2995 0.9713
-4.4740 5.2581 -2.2992 0.9713
-4.5060 5.2298 -2.2989 0.9713
-4.5376 5.2012 -2.2987 0.9713
-4.5692 5.1724 -2.2984 0.9713
-4.6934 5.0553 -2.2973 0.9713
-4.7544 4.9956 -2.2967 0.9713
-4.8015 4.9830 -2.3045 0.9712
-4.8678 4.9897 -2.3215 0.9710
-5.0940 5.0314 -2.3844 0.9703
-5.1722 5.0458 -2.4064 0.9700
-5.3288 5.0715 -2.4499 0.9695
-5.3897 5.0039 -2.4492 0.9695
-5.4497 4.9355 -2.4486 0.9695
-5.4794 4.9010 -2.4482 0.9695
-5.5381 4.8316 -2.4476 0.9695
-5.5959 4.7614 -2.4469 0.9695
-5.6245 4.7260 -2.4465 0.9695
-5.7087 4.6189 -2.4455 0.9695
-5.7364 4.5829 -2.4452 0.9695
-5.7638 4.5467 -2.4448 0.9695
-5.8446 4.4370 -2.4438 0.9695
-5.8973 4.3631 -2.4430 0.9695
-6.0498 4.1377 -2.4409 0.9696
-6.0743 4.0996 -2.4405 0.9696
-6.0986 4.0613 -2.4401 0.9696
-6.1227 4.0229 -2.4398 0.9696
-6.1465 3.9844 -2.4394 0.9696
-6.1934 3.9068 -2.4387 0.9696
-6.2394 3.8288 -2.4379 0.9696
-6.3498 3.6312 -2.4360 0.9696
-6.3711 3.5913 -2.4356 0.9696
-6.4336 3.4708 -2.4344 0.9697
-6.4539 3.4304 -2.4341 0.9697
-6.4937 3.3493 -2.4333 0.9697
-6.5325 3.2676 -2.4325 0.9697
-6.5703 3.1855 -2.4317 0.9697
-6.6602 2.9785 -2.4297 0.9697
-6.6943 2.8949 -2.4289 0.9697
-6.7110 2.8530 -2.4285 0.9697
-6.7435 2.7688 -2.4277 0.9697
-6.7902 2.6419 -2.4265 0.9697
-6.8346 2.5142 -2.4252 0.9698
-6.8489 2.4715 -2.4248 0.9698
-6.8628 2.4287 -2.4244 0.9698
-6.8900 2.3428 -2.4236 0.9698
-6.9032 2.2997 -2.4231 0.9698
-6.9532 2.1268 -2.4215 0.9698
-6.9650 2.0834 -2.4211 0.9698
-6.9878 1.9964 -2.4202 0.9698
-7.0095 1.9091 -2.4194 0.9698
-7.0301 1.8217 -2.4185 0.9698
-7.0590 1.6901 -2.4173 0.9699
-7.0854 1.5580 -2.4160 0.9699
-7.0936 1.5139 -2.4156 0.9699
-7.1093 1.4255 -2.4147 0.9699
-7.1167 1.3813 -2.4143 0.9699
-7.1307 1.2927 -2.4134 0.9699
-7.1373 1.2484 -2.4130 0.9699
-7.1497 1.1596 -2.4121 0.9699
-7.1554 1.1152 -2.4117 0.9699
-7.1711 0.9817 -2.4104 0.9699
-7.1757 0.9372 -2.4100 0.9700
-7.1801 0.8926 -2.4096 0.9700
-7.1842 0.8480 -2.4091 0.9700
-7.1948 0.7142 -2.4078 0.9700
-7.1978 0.6696 -2.4074 0.9700
-7.2005 0.6250 -2.4070 0.9700
-7.2051 0.5357 -2.4061 0.9700
-7.2070 0.4910 -2.4057 0.9700
-7.2086 0.4463 -2.4052 0.9700
-7.2110 0.3570 -2.4044 0.9700
-7.2117 0.3124 -2.4039 0.9700
-7.2122 0.2677 -2.4035 0.9700
-7.2125 0.2231 -2.4031 0.9700
-7.2121 0.1338 -2.4022 0.9700
-7.2115 0.0892 -2.4018 0.9701
-7.2106 0.0446 -2.4013 0.9701
-7.0333 -0.0435 -2.4005 0.9707
-7.0317 -0.0870 -2.4001 0.9707
-7.0276 -0.1739 -2.3992 0.9707
-7.0252 -0.2173 -2.3988 0.9707
-7.0225 -0.2607 -2.3984 0.9707
-7.0195 -0.3041 -2.3980 0.9707
-7.0090 -0.4340 -2.3967 0.9708
-7.0006 -0.5205 -2.3959 0.9708
-6.9808 -0.6930 -2.3942 0.9708
-6.9751 -0.7360 -2.3938 0.9708
-6.9499 -0.9077 -2.3921 0.9708
-6.9358 -0.9933 -2.3913 0.9708
-6.9283 -1.0360 -2.3909 0.9708
-6.9206 -1.0786 -2.3905 0.9708
-6.9043 -1.1637 -2.3896 0.9708
-6.8870 -1.2486 -2.3888 0.9709
-6.8592 -1.3754 -2.3876 0.9709
-6.8494 -1.4176 -2.3872 0.9709
-6.8393 -1.4597 -2.3868 0.9709
-6.8184 -1.5436 -2.3860 0.9709
-6.8076 -1.5855 -2.3856 0.9709
-6.7735 -1.7106 -2.3843 0.9709
-6.7617 -1.7522 -2.3839 0.9709
-6.7496 -1.7937 -2.3835 0.9709
-6.7246 -1.8764 -2.3827 0.9709
-6.7117 -1.9176 -2.3823 0.9709
-6.6717 -2.0408 -2.3811 0.9709
-6.5999 -2.2442 -2.3792 0.9710
-6.5848 -2.2846 -2.3788 0.9710
-6.5695 -2.3249 -2.3784 0.9710
-6.5539 -2.3651 -2.3780 0.9710
-6.5381 -2.4052 -2.3776 0.9710
-6.4724 -2.5645 -2.3761 0.9710
-6.3667 -2.8001 -2.3738 0.9710
-6.3295 -2.8778 -2.3730 0.9710
-6.3106 -2.9164 -2.3726 0.9710
-6.2915 -2.9549 -2.3723 0.9710
-6.2721 -2.9933 -2.3719 0.9711
-6.2327 -3.0696 -2.3712 0.9711
-6.2126 -3.1076 -2.3708 0.9711
-6.0874 -3.3329 -2.3686 0.9711
-6.0439 -3.4069 -2.3679 0.9711
-6.0218 -3.4437 -2.3675 0.9711
-5.9769 -3.5169 -2.3668 0.9711
-5.9312 -3.5894 -2.3661 0.9711
-5.8846 -3.6614 -2.3654 0.9711
-5.8610 -3.6972 -2.3651 0.9711
-5.8372 -3.7329 -2.3647 0.9711
-5.8132 -3.7683 -2.3644 0.9711
-5.7889 -3.8037 -2.3640 0.9711
-5.7644 -3.8388 -2.3637 0.9712
-5.6645 -3.9779 -2.3623 0.9712
-5.6390 -4.0123 -2.3620 0.9712
-5.6133 -4.0466 -2.3617 0.9712
-5.5084 -4.1818 -2.3604 0.9712
-5.4547 -4.2485 -2.3597 0.9712
-5.4276 -4.2816 -2.3594 0.9712
-5.3451 -4.3797 -2.3584 0.9712
-5.1748 -4.5714 -2.3566 0.9712
-5.1166 -4.6338 -2.3560 0.9712
-5.0576 -4.6956 -2.3554 0.9713
-4.8763 -4.8763 -2.3536 0.9713
-4.8454 -4.9058 -2.3533 0.9713
-4.8144 -4.9350 -2.3530 0.9713
-4.7519 -4.9930 -2.3525 0.9713
-4.6887 -5.0502 -2.3519 0.9713
-4.6568 -5.0785 -2.3516 0.9713
-4.5925 -5.1346 -2.3511 0.9713
-4.5276 -5.1897 -2.3505 0.9713
-4.4949 -5.2171 -2.3503 0.9713
-4.4621 -5.2442 -2.3500 0.9713
-4.4291 -5.2711 -2.3497 0.9713
-4.3959 -5.2978 -2.3495 0.9713
-4.3291 -5.3506 -2.3490 0.9713
-4.2955 -5.3767 -2.3487 0.9713
-4.1594 -5.4789 -2.3477 0.9713
-4.0558 -5.5534 -2.3470 0.9714
-3.9156 -5.6498 -2.3461 0.9714
-3.8447 -5.6967 -2.3456 0.9714
-3.8090 -5.7198 -2.3454 0.9714
-3.7732 -5.7427 -2.3451 0.9714
-3.7373 -5.7654 -2.3449 0.9714
-3.7012 -5.7878 -2.3447 0.9714
-3.6287 -5.8321 -2.3443 0.9714
-3.5189 -5.8968 -2.3436 0.9714
-3.4821 -5.9179 -2.3434 0.9714
-3.4080 -5.9595 -2.3430 0.9714
-3.2585 -6.0399 -2.3422 0.9714
-3.1830 -6.0788 -2.3419 0.9714
-3.1451 -6.0979 -2.3417 0.9714
-3.1071 -6.1167 -2.3415 0.9714
-2.9924 -6.1719 -2.3409 0.9714
-2.9539 -6.1898 -2.3408 0.9714
-2.7602 -6.2759 -2.3399 0.9714
-2.6034 -6.3405 -2.3393 0.9714
-2.5639 -6.3561 -2.3391 0.9714
-2.4848 -6.3865 -2.3388 0.9715
-2.3655 -6.4304 -2.3384 0.9715
-2.3255 -6.4444 -2.3383 0.9715
-2.2855 -6.4583 -2.3381 0.9715
-2.0842 -6.5241 -2.3375 0.9715
-1.8810 -6.5837 -2.3369 0.9715
-1.8401 -6.5949 -2.3368 0.9715
-1.7993 -6.6059 -2.3367 0.9715
-1.7583 -6.6166 -2.3366 0.9715
-1.6350 -6.6472 -2.3363 0.9715
-1.5938 -6.6569 -2.3362 0.9715
-1.5525 -6.6664 -2.3361 0.9715
-1.5112 -6.6756 -2.3360 0.9715
-1.4699 -6.6845 -2.3359 0.9715
-1.4284 -6.6932 -2.3358 0.9715
-1.3870 -6.7017 -2.3357 0.9715
-1.3454 -6.7100 -2.3356 0.9715
-1.2623 -6.7256 -2.3355 0.9715
-1.2206 -6.7331 -2.3354 0.9715
-1.1789 -6.7403 -2.3353 0.9715
-1.0954 -6.7539 -2.3352 0.9715
-1.0536 -6.7604 -2.3351 0.9715
-1.0118 -6.7666 -2.3351 0.9715
-0.9279 -6.7782 -2.3349 0.9715
-0.8440 -6.7889 -2.3348 0.9715
-0.7599 -6.7985 -2.3347 0.9715
-0.5493 -6.8182 -2.3345 0.9715
-0.5071 -6.8213 -2.3345 0.9715
-0.4649 -6.8243 -2.3345 0.9715
-0.4227 -6.8270 -2.3344 0.9715
-0.2114 -6.8364 -2.3343 0.9715
-0.1692 -6.8376 -2.3343 0.9715
-0.1269 -6.8385 -2.3343 0.9715
-0.0846 -6.8391 -2.3343 0.9715
-0.0423 -6.8395 -2.3343 0.9715
0.0423 -6.8394 -2.3343 0.9715
0.1692 -6.8375 -2.3343 0.9715
0.3383 -6.8314 -2.3343 0.9715
0.5071 -6.8212 -2.3344 0.9715
0.5915 -6.8146 -2.3345 0.9715
0.7178 -6.8027 -2.3346 0.9715
0.8440 -6.7886 -2.3347 0.9715
0.8859 -6.7834 -2.3348 0.9715
0.9279 -6.7779 -2.3348 0.9715
1.0117 -6.7662 -2.3349 0.9715
1.0954 -6.7536 -2.3351 0.9715
1.1789 -6.7399 -2.3352 0.9715
1.3454 -6.7095 -2.3355 0.9715
1.4284 -6.6928 -2.3356 0.9715
1.5111 -6.6750 -2.3358 0.9715
1.5525 -6.6658 -2.3359 0.9715
1.6761 -6.6367 -2.3361 0.9715
1.7171 -6.6264 -2.3362 0.9715
1.7582 -6.6160 -2.3363 0.9715
1.8808 -6.5831 -2.3367 0.9715
2.0435 -6.5358 -2.3371 0.9715
2.2050 -6.4846 -2.3376 0.9715
2.2451 -6.4712 -2.3377 0.9715
2.3652 -6.4295 -2.3381 0.9715
2.4051 -6.4152 -2.3382 0.9715
2.4448 -6.4005 -2.3384 0.9715
2.4845 -6.3857 -2.3385 0.9715
2.6030 -6.3396 -2.3390 0.9714
2.6424 -6.3239 -2.3391 0.9714
2.6816 -6.3078 -2.3393 0.9714
2.7598 -6.2750 -2.3396 0.9714
2.8376 -6.2412 -2.3399 0.9714
2.8763 -6.2240 -2.3401 0.9714
2.9535 -6.1888 -2.3404 0.9714
3.1446 -6.0969 -2.3413 0.9714
3.1825 -6.0778 -2.3415 0.9714
3.2203 -6.0585 -2.3416 0.9714
3.2579 -6.0389 -2.3418 0.9714
3.2955 -6.0191 -2.3420 0.9714
3.5183 -5.8957 -2.3432 0.9714
3.5915 -5.8528 -2.3436 0.9714
3.7366 -5.7642 -2.3445 0.9714
3.7725 -5.7415 -2.3447 0.9714
3.8083 -5.7186 -2.3449 0.9714
3.8795 -5.6722 -2.3453 0.9714
4.0201 -5.5766 -2.3463 0.9714
4.0549 -5.5522 -2.3465 0.9714
4.0896 -5.5276 -2.3467 0.9714
4.1928 -5.4525 -2.3474 0.9713
4.2945 -5.3754 -2.3482 0.9713
4.3281 -5.3493 -2.3484 0.9713
4.3616 -5.3230 -2.3487 0.9713
4.3949 -5.2965 -2.3489 0.9713
4.4281 -5.2698 -2.3492 0.9713
4.4611 -5.2429 -2.3495 0.9713
4.4939 -5.2158 -2.3497 0.9713
4.5915 -5.1333 -2.3505 0.9713
4.6236 -5.1054 -2.3508 0.9713
4.6875 -5.0490 -2.3513 0.9713
4.7192 -5.0204 -2.3516 0.9713
4.7507 -4.9918 -2.3519 0.9713
4.8132 -4.9338 -2.3524 0.9713
4.8442 -4.9045 -2.3527 0.9713
4.9057 -4.8454 -2.3533 0.9713
4.9362 -4.8155 -2.3536 0.9713
4.9664 -4.7855 -2.3538 0.9713
5.0265 -4.7249 -2.3544 0.9713
5.1152 -4.6326 -2.3553 0.9713
5.2023 -4.5386 -2.3562 0.9712
5.2876 -4.4431 -2.3571 0.9712
5.3436 -4.3785 -2.3578 0.9712
5.3713 -4.3459 -2.3581 0.9712
5.4801 -4.2140 -2.3593 0.9712
5.5068 -4.1806 -2.3597 0.9712
5.5333 -4.1471 -2.3600 0.9712
5.5857 -4.0794 -2.3606 0.9712
5.6116 -4.0454 -2.3610 0.9712
5.7132 -3.9075 -2.3623 0.9712
5.7380 -3.8727 -2.3626 0.9712
5.7627 -3.8377 -2.3630 0.9712
5.7871 -3.8025 -2.3633 0.9712
5.8354 -3.7317 -2.3640 0.9711
5.8592 -3.6961 -2.3643 0.9711
5.8828 -3.6603 -2.3647 0.9711
5.9751 -3.5157 -2.3661 0.9711
5.9976 -3.4792 -2.3664 0.9711
6.0855 -3.3318 -2.3678 0.9711
6.1281 -3.2573 -2.3686 0.9711
6.1491 -3.2198 -2.3689 0.9711
6.2106 -3.1066 -2.3700 0.9711
6.2700 -2.9922 -2.3711 0.9711
6.3085 -2.9154 -2.3719 0.9711
6.3275 -2.8768 -2.3722 0.9710
6.3461 -2.8380 -2.3726 0.9710
6.3646 -2.7992 -2.3730 0.9710
6.4184 -2.6819 -2.3741 0.9710
6.4702 -2.5636 -2.3752 0.9710
6.4870 -2.5240 -2.3756 0.9710
6.5035 -2.4842 -2.3760 0.9710
6.5198 -2.4443 -2.3764 0.9710
6.5359 -2.4044 -2.3768 0.9710
6.5517 -2.3643 -2.3772 0.9710
6.5672 -2.3241 -2.3776 0.9710
6.5977 -2.2434 -2.3783 0.9710
6.6271 -2.1623 -2.3791 0.9710
6.6555 -2.0809 -2.3799 0.9710
6.6693 -2.0400 -2.3803 0.9710
6.6963 -1.9581 -2.3811 0.9709
6.7094 -1.9169 -2.3815 0.9709
6.7348 -1.8344 -2.3823 0.9709
6.7472 -1.7930 -2.3827 0.9709
6.7593 -1.7516 -2.3831 0.9709
6.7711 -1.7100 -2.3835 0.9709
6.7827 -1.6684 -2.3839 0.9709
6.7940 -1.6267 -2.3843 0.9709
6.8160 -1.5431 -2.3851 0.9709
6.8368 -1.4591 -2.3859 0.9709
6.8755 -1.2904 -2.3875 0.9709
6.8933 -1.2057 -2.3884 0.9709
6.9018 -1.1633 -2.3888 0.9709
6.9181 -1.0782 -2.3896 0.9708
6.9258 -1.0356 -2.3900 0.9708
6.9474 -0.9074 -2.3912 0.9708
6.9605 -0.8217 -2.3921 0.9708
6.9887 -0.6066 -2.3941 0.9708
6.9935 -0.5635 -2.3946 0.9708
6.9981 -0.5204 -2.3950 0.9708
7.0064 -0.4339 -2.3958 0.9708
7.0102 -0.3906 -2.3962 0.9708
7.0137 -0.3473 -2.3967 0.9708
7.0170 -0.3040 -2.3971 0.9708
7.0226 -0.2172 -2.3979 0.9707
7.0250 -0.1738 -2.3983 0.9707
7.0272 -0.1304 -2.3988 0.9707
7.0291 -0.0870 -2.3992 0.9707
7.0308 -0.0435 -2.3996 0.9707
7.0332 0.0435 -2.4004 0.9707
7.0349 0.1740 -2.4017 0.9707
7.0342 0.3047 -2.4030 0.9707
7.0334 0.3483 -2.4034 0.9707
7.0310 0.4353 -2.4042 0.9707
7.0142 0.7402 -2.4072 0.9706
7.0107 0.7836 -2.4076 0.9706
7.0029 0.8706 -2.4084 0.9706
6.9986 0.9140 -2.4089 0.9706
6.9940 0.9575 -2.4093 0.9706
6.9787 1.0876 -2.4105 0.9706
6.9671 1.1743 -2.4114 0.9706
6.9610 1.2175 -2.4118 0.9706
6.9545 1.2608 -2.4122 0.9706
6.9478 1.3040 -2.4126 0.9706
6.9408 1.3471 -2.4131 0.9706
6.9260 1.4334 -2.4139 0.9705
6.9182 1.4764 -2.4143 0.9705
6.8843 1.6483 -2.4160 0.9705
6.8658 1.7338 -2.4168 0.9705
6.8254 1.9044 -2.4185 0.9705
6.8037 1.9894 -2.4193 0.9705
6.7924 2.0318 -2.4197 0.9705
6.7808 2.0741 -2.4201 0.9705
6.7320 2.2427 -2.4217 0.9705
6.7191 2.2847 -2.4221 0.9704
6.7060 2.3266 -2.4225 0.9704
6.6508 2.4934 -2.4242 0.9704
6.6067 2.6177 -2.4254 0.9704
6.5915 2.6589 -2.4258 0.9704
6.5280 2.8230 -2.4274 0.9704
6.5115 2.8638 -2.4278 0.9704
6.4428 3.0259 -2.4293 0.9704
6.4250 3.0662 -2.4297 0.9704
6.4069 3.1064 -2.4301 0.9704
6.3887 3.1464 -2.4305 0.9703
6.3701 3.1864 -2.4309 0.9703
6.3513 3.2262 -2.4313 0.9703
6.3322 3.2660 -2.4317 0.9703
6.3129 3.3056 -2.4320 0.9703
6.2331 3.4629 -2.4336 0.9703
6.1917 3.5408 -2.4343 0.9703
6.1707 3.5796 -2.4347 0.9703
6.1493 3.6182 -2.4351 0.9703
6.0840 3.7334 -2.4362 0.9703
6.0164 3.8473 -2.4373 0.9703
5.9934 3.8851 -2.4377 0.9703
5.9229 3.9974 -2.4388 0.9703
5.8990 4.0345 -2.4391 0.9702
5.8747 4.0716 -2.4395 0.9702
5.8503 4.1084 -2.4398 0.9702
5.8256 4.1451 -2.4402 0.9702
5.7756 4.2181 -2.4409 0.9702
5.7246 4.2904 -2.4416 0.9702
5.6200 4.4332 -2.4430 0.9702
5.5663 4.5036 -2.4437 0.9702
5.5117 4.5734 -2.4444 0.9702
5.4841 4.6080 -2.4447 0.9702
5.4281 4.6768 -2.4454 0.9702
5.3998 4.7109 -2.4457 0.9702
5.3426 4.7786 -2.4464 0.9702
5.3136 4.8122 -2.4467 0.9702
5.2845 4.8457 -2.4470 0.9702
5.2255 4.9120 -2.4477 0.9701
5.1657 4.9775 -2.4483 0.9701
5.0436 5.1063 -2.4495 0.9701
5.0126 5.1381 -2.4499 0.9701
4.9813 5.1696 -2.4502 0.9701
4.9499 5.2010 -2.4505 0.9701
4.8864 5.2631 -2.4511 0.9701
4.8543 5.2939 -2.4514 0.9701
4.8221 5.3244 -2.4517 0.9701
4.7896 5.3548 -2.4520 0.9701
4.6911 5.4447 -2.4528 0.9701
4.6177 5.4270 -2.4320 0.9703
4.5431 5.4067 -2.4102 0.9706
4.4698 5.3867 -2.3889 0.9708
4.1951 5.3179 -2.3117 0.9718
4.1396 5.3149 -2.2992 0.9719
4.1071 5.3409 -2.2995 0.9719
4.0744 5.3669 -2.2997 0.9719
4.0416 5.3925 -2.3000 0.9719
4.0086 5.4180 -2.3002 0.9719
3.9754 5.4433 -2.3005 0.9719
3.9086 5.4932 -2.3010 0.9719
3.8750 5.5179 -2.3012 0.9719
3.8412 5.5422 -2.3014 0.9719
3.8072 5.5665 -2.3017 0.9719
3.7731 5.5905 -2.3019 0.9719
3.7388 5.6143 -2.3021 0.9719
3.6351 5.6844 -2.3028 0.9719
3.6002 5.7073 -2.3030 0.9719
3.5652 5.7300 -2.3033 0.9719
3.5301 5.7525 -2.3035 0.9719
3.3880 5.8402 -2.3043 0.9719
3.3160 5.8828 -2.3048 0.9719
3.2072 5.9448 -2.3054 0.9719
3.1707 5.9651 -2.3056 0.9719
3.1339 5.9851 -2.3058 0.9718
3.0971 6.0048 -2.3060 0.9718
2.9112 6.1002 -2.3069 0.9718
2.8360 6.1366 -2.3072 0.9718
2.7603 6.1722 -2.3076 0.9718
2.6841 6.2068 -2.3079 0.9718
2.6459 6.2237 -2.3081 0.9718
2.6075 6.2404 -2.3083 0.9718
2.4918 6.2890 -2.3087 0.9718
2.4530 6.3047 -2.3089 0.9718
2.4142 6.3202 -2.3090 0.9718
2.3752 6.3354 -2.3092 0.9718
2.3361 6.3504 -2.3093 0.9718
2.2969 6.3651 -2.3095 0.9718
2.1788 6.4078 -2.3099 0.9718
2.1393 6.4215 -2.3100 0.9718
2.0997 6.4350 -2.3102 0.9718
1.9803 6.4739 -2.3106 0.9718
1.9403 6.4864 -2.3107 0.9718
1.8199 6.5222 -2.3110 0.9718
1.7393 6.5449 -2.3113 0.9718
1.6988 6.5558 -2.3114 0.9718
1.6178 6.5769 -2.3116 0.9718
1.5772 6.5871 -2.3117 0.9718
1.5364 6.5970 -2.3118 0.9718
1.4957 6.6067 -2.3119 0.9718
1.4140 6.6252 -2.3121 0.9718
1.3730 6.6340 -2.3121 0.9718
1.3320 6.6427 -2.3122 0.9718
1.2909 6.6510 -2.3123 0.9718
1.1675 6.6745 -2.3126 0.9718
1.0849 6.6889 -2.3127 0.9718
1.0435 6.6956 -2.3128 0.9718
0.8777 6.7201 -2.3130 0.9718
0.8361 6.7255 -2.3131 0.9718
0.7113 6.7404 -2.3132 0.9718
0.6279 6.7489 -2.3133 0.9718
0.5026 6.7597 -2.3134 0.9718
0.4189 6.7656 -2.3135 0.9718
0.3771 6.7681 -2.3135 0.9718
0.2934 6.7724 -2.3136 0.9718
0.2096 6.7756 -2.3136 0.9718
0.1258 6.7778 -2.3136 0.9718
0.0839 6.7784 -2.3136 0.9718
-0.0838 6.7785 -2.3136 0.9718
-0.2515 6.7742 -2.3136 0.9718
-0.2933 6.7725 -2.3136 0.9718
-0.5026 6.7599 -2.3135 0.9718
-0.5861 6.7530 -2.3134 0.9718
-0.6279 6.7491 -2.3134 0.9718
-0.7113 6.7406 -2.3133 0.9718
-0.7946 6.7311 -2.3132 0.9718
-0.9192 6.7147 -2.3131 0.9718
-0.9607 6.7088 -2.3130 0.9718
-1.0022 6.7025 -2.3130 0.9718
-1.0435 6.6960 -2.3129 0.9718
-1.0849 6.6893 -2.3128 0.9718
-1.1262 6.6822 -2.3128 0.9718
-1.1675 6.6749 -2.3127 0.9718
-1.2087 6.6674 -2.3126 0.9718
-1.3321 6.6432 -2.3124 0.9718
-1.3731 6.6346 -2.3123 0.9718
-1.4958 6.6072 -2.3121 0.9718
-1.6179 6.5776 -2.3118 0.9718
-1.6990 6.5564 -2.3116 0.9718
-1.7394 6.5455 -2.3115 0.9718
-1.7798 6.5344 -2.3114 0.9718
-1.9004 6.4993 -2.3111 0.9718
-1.9405 6.4871 -2.3109 0.9718
-1.9804 6.4746 -2.3108 0.9718
-2.0204 6.4619 -2.3107 0.9718
-2.0602 6.4489 -2.3106 0.9718
-2.0999 6.4358 -2.3105 0.9718
-2.1395 6.4223 -2.3103 0.9718
-2.1791 6.4086 -2.3102 0.9718
-2.2579 6.3804 -2.3099 0.9718
-2.2972 6.3659 -2.3098 0.9718
-2.4145 6.3210 -2.3094 0.9718
-2.4921 6.2899 -2.3091 0.9718
-2.5694 6.2577 -2.3088 0.9718
-2.6079 6.2413 -2.3086 0.9718
-2.6463 6.2246 -2.3084 0.9718
-2.6845 6.2077 -2.3083 0.9718
-2.7227 6.1906 -2.3081 0.9718
-2.7607 6.1732 -2.3080 0.9718
-2.7986 6.1555 -2.3078 0.9718
-2.8741 6.1195 -2.3074 0.9718
-2.9491 6.0826 -2.3071 0.9718
-3.1712 5.9661 -2.3060 0.9718
-3.2078 5.9459 -2.3058 0.9718
-3.2805 5.9048 -2.3054 0.9719
-3.3527 5.8627 -2.3050 0.9719
-3.4244 5.8198 -2.3046 0.9719
-3.4954 5.7759 -2.3042 0.9719
-3.6009 5.7085 -2.3035 0.9719
-3.6358 5.6855 -2.3033 0.9719
-3.7052 5.6390 -2.3028 0.9719
-3.8420 5.5435 -2.3019 0.9719
-3.8758 5.5190 -2.3017 0.9719
-3.9094 5.4944 -2.3015 0.9719
-3.9763 5.4445 -2.3010 0.9719
-4.0095 5.4193 -2.3007 0.9719
-4.0424 5.3937 -2.3005 0.9719
-4.1728 5.2898 -2.2995 0.9719
-4.2050 5.2633 -2.2992 0.9719
-4.2370 5.2366 -2.2990 0.9719
-4.2688 5.2097 -2.2987 0.9719
-4.3319 5.1554 -2.2982 0.9719
-4.3632 5.1279 -2.2979 0.9719
-4.3944 5.1003 -2.2977 0.9719
-4.5171 4.9877 -2.2966 0.9720
-4.5473 4.9590 -2.2963 0.9720
-4.6427 4.9390 -2.3135 0.9718
-4.7807 4.9614 -2.3515 0.9713
-5.0014 5.0014 -2.4140 0.9705
-5.1369 5.0114 -2.4493 0.9701
-5.1671 4.9788 -2.4490 0.9701
-5.1971 4.9461 -2.4486 0.9701
-5.2270 4.9133 -2.4483 0.9701
-5.2859 4.8470 -2.4477 0.9701
-5.3151 4.8136 -2.4474 0.9701
-5.3728 4.7462 -2.4467 0.9702
-5.4014 4.7123 -2.4464 0.9702
-5.4297 4.6782 -2.4461 0.9702
-5.4577 4.6439 -2.4457 0.9702
-5.4856 4.6094 -2.4454 0.9702
-5.5407 4.5399 -2.4447 0.9702
-5.5679 4.5050 -2.4444 0.9702
-5.5949 4.4698 -2.4441 0.9702
-5.6216 4.4345 -2.4437 0.9702
-5.6481 4.3991 -2.4434 0.9702
-5.6745 4.3634 -2.4430 0.9702
-5.7264 4.2917 -2.4423 0.9702
-5.7520 4.2556 -2.4420 0.9702
-5.7774 4.2194 -2.4416 0.9702
-5.8025 4.1829 -2.4413 0.9702
-5.8274 4.1464 -2.4409 0.9702
-5.8521 4.1096 -2.4406 0.9702
-5.9008 4.0358 -2.4399 0.9702
-5.9720 3.9239 -2.4388 0.9702
-6.0636 3.7727 -2.4373 0.9703
-6.0859 3.7346 -2.4370 0.9703
-6.1297 3.6579 -2.4362 0.9703
-6.1726 3.5807 -2.4355 0.9703
-6.2146 3.5030 -2.4347 0.9703
-6.2351 3.4640 -2.4344 0.9703
-6.2555 3.4248 -2.4340 0.9703
-6.3150 3.3067 -2.4329 0.9703
-6.3534 3.2273 -2.4321 0.9703
-6.4091 3.1074 -2.4309 0.9703
-6.4272 3.0672 -2.4305 0.9703
-6.4450 3.0269 -2.4302 0.9704
-6.4626 2.9865 -2.4298 0.9704
-6.4798 2.9460 -2.4294 0.9704
-6.5137 2.8647 -2.4286 0.9704
-6.5938 2.6598 -2.4266 0.9704
-6.6387 2.5358 -2.4254 0.9704
-6.6532 2.4943 -2.4250 0.9704
-6.6674 2.4527 -2.4246 0.9704
-6.6813 2.4110 -2.4242 0.9704
-6.7215 2.2855 -2.4230 0.9704
-6.7344 2.2435 -2.4226 0.9704
-6.7714 2.1171 -2.4214 0.9705
-6.7833 2.0748 -2.4210 0.9705
-6.8585 1.7772 -2.4181 0.9705
-6.8776 1.6917 -2.4173 0.9705
-6.9433 1.3476 -2.4139 0.9705
-6.9571 1.2612 -2.4131 0.9706
-6.9635 1.2180 -2.4127 0.9706
-6.9756 1.1313 -2.4118 0.9706
-6.9918 1.0012 -2.4106 0.9706
-7.0012 0.9144 -2.4098 0.9706
-7.0055 0.8709 -2.4093 0.9706
-7.0095 0.8274 -2.4089 0.9706
-7.0167 0.7404 -2.4081 0.9706
-7.0200 0.6969 -2.4076 0.9706
-7.0256 0.6098 -2.4068 0.9706
-7.0280 0.5662 -2.4064 0.9706
-7.0336 0.4355 -2.4051 0.9707
-7.0349 0.3919 -2.4047 0.9707
-7.0368 0.3048 -2.4039 0.9707
-7.0375 0.2177 -2.4030 0.9707
-7.0375 0.1741 -2.4026 0.9707
-7.0358 0.0435 -2.4013 0.9707
-6.8662 -0.0425 -2.4005 0.9713
-6.8646 -0.0849 -2.4001 0.9713
-6.8628 -0.1273 -2.3997 0.9713
-6.8607 -0.1698 -2.3993 0.9713
-6.8497 -0.3392 -2.3976 0.9714
-6.8463 -0.3815 -2.3972 0.9714
-6.8426 -0.4238 -2.3968 0.9714
-6.8346 -0.5082 -2.3960 0.9714
-6.8254 -0.5925 -2.3952 0.9714
-6.8204 -0.6345 -2.3948 0.9714
-6.8152 -0.6766 -2.3943 0.9714
-6.7853 -0.8862 -2.3923 0.9714
-6.7785 -0.9280 -2.3919 0.9714
-6.7715 -0.9697 -2.3915 0.9714
-6.7643 -1.0114 -2.3911 0.9714
-6.7567 -1.0531 -2.3907 0.9714
-6.7489 -1.0946 -2.3903 0.9714
-6.7409 -1.1362 -2.3899 0.9714
-6.7153 -1.2603 -2.3887 0.9715
-6.7062 -1.3017 -2.3883 0.9715
-6.6970 -1.3429 -2.3879 0.9715
-6.6874 -1.3841 -2.3875 0.9715
-6.6676 -1.4662 -2.3867 0.9715
-6.6359 -1.5888 -2.3855 0.9715
-6.6249 -1.6296 -2.3851 0.9715
-6.5902 -1.7513 -2.3839 0.9715
-6.5406 -1.9125 -2.3824 0.9715
-6.5276 -1.9526 -2.3820 0.9715
-6.5008 -2.0326 -2.3812 0.9716
-6.4731 -2.1121 -2.3804 0.9716
-6.4588 -2.1518 -2.3801 0.9716
-6.4297 -2.2307 -2.3793 0.9716
-6.3995 -2.3094 -2.3785 0.9716
-6.3841 -2.3486 -2.3781 0.9716
-6.3526 -2.4266 -2.3774 0.9716
-6.3201 -2.5041 -2.3766 0.9716
-6.2866 -2.5813 -2.3759 0.9716
-6.2522 -2.6580 -2.3751 0.9716
-6.2347 -2.6962 -2.3748 0.9716
-6.2170 -2.7343 -2.3744 0.9716
-6.1623 -2.8478 -2.3733 0.9716
-6.1437 -2.8854 -2.3729 0.9716
-6.1247 -2.9229 -2.3726 0.9717
-6.0469 -3.0717 -2.3711 0.9717
-6.0269 -3.1085 -2.3708 0.9717
-5.9655 -3.2184 -2.3697 0.9717
-5.9446 -3.2547 -2.3694 0.9717
-5.9021 -3.3270 -2.3686 0.9717
-5.8588 -3.3987 -2.3680 0.9717
-5.8368 -3.4344 -2.3676 0.9717
-5.8146 -3.4699 -2.3673 0.9717
-5.7922 -3.5053 -2.3669 0.9717
-5.7237 -3.6106 -2.3659 0.9717
-5.7004 -3.6454 -2.3656 0.9717
-5.6770 -3.6801 -2.3652 0.9717
-5.6533 -3.7146 -2.3649 0.9717
-5.6054 -3.7831 -2.3642 0.9718
-5.5566 -3.8511 -2.3636 0.9718
-5.4819 -3.9519 -2.3626 0.9718
-5.4566 -3.9852 -2.3623 0.9718
-5.4311 -4.0183 -2.3619 0.9718
-5.4055 -4.0512 -2.3616 0.9718
-5.3535 -4.1167 -2.3610 0.9718
-5.3272 -4.1492 -2.3607 0.9718
-5.3008 -4.1814 -2.3603 0.9718
-5.2741 -4.2136 -2.3600 0.9718
-5.1656 -4.3405 -2.3588 0.9718
-5.0257 -4.4953 -2.3573 0.9718
-4.9685 -4.5559 -2.3567 0.9718
-4.9396 -4.5860 -2.3564 0.9718
-4.7925 -4.7336 -2.3550 0.9719
-4.7626 -4.7626 -2.3547 0.9719
-4.7324 -4.7914 -2.3544 0.9719
-4.7022 -4.8200 -2.3541 0.9719
-4.6411 -4.8766 -2.3536 0.9719
-4.6103 -4.9047 -2.3533 0.9719
-4.5483 -4.9602 -2.3528 0.9719
-4.5170 -4.9876 -2.3525 0.9719
-4.4856 -5.0149 -2.3522 0.9719
-4.4540 -5.0420 -2.3520 0.9719
-4.4222 -5.0689 -2.3517 0.9719
-4.3903 -5.0956 -2.3514 0.9719
-4.3260 -5.1484 -2.3509 0.9719
-4.2610 -5.2004 -2.3504 0.9719
-4.1294 -5.3019 -2.3494 0.9719
-3.8933 -5.4718 -2.3478 0.9719
-3.8590 -5.4952 -2.3475 0.9719
-3.7900 -5.5415 -2.3471 0.9720
-3.6855 -5.6093 -2.3464 0.9720
-3.6505 -5.6314 -2.3462 0.9720
-3.5088 -5.7179 -2.3454 0.9720
-3.4731 -5.7390 -2.3452 0.9720
-3.4372 -5.7598 -2.3450 0.9720
-3.2926 -5.8411 -2.3442 0.9720
-3.2561 -5.8609 -2.3440 0.9720
-3.2195 -5.8805 -2.3438 0.9720
-3.1829 -5.8998 -2.3436 0.9720
-3.0721 -5.9564 -2.3430 0.9720
-3.0350 -5.9748 -2.3429 0.9720
-2.9977 -5.9930 -2.3427 0.9720
-2.7721 -6.0974 -2.3416 0.9720
-2.6962 -6.1304 -2.3413 0.9720
-2.6580 -6.1465 -2.3412 0.9720
-2.5430 -6.1936 -2.3407 0.9720
-2.5045 -6.2088 -2.3406 0.9720
-2.4659 -6.2238 -2.3404 0.9720
-2.3884 -6.2530 -2.3401 0.9720
-2.3107 -6.2813 -2.3398 0.9720
-2.2716 -6.2951 -2.3397 0.9720
-2.2325 -6.3087 -2.3396 0.9720
-2.1933 -6.3220 -2.3394 0.9720
-2.1148 -6.3480 -2.3392 0.9720
-2.0754 -6.3606 -2.3391 0.9720
-1.9170 -6.4087 -2.3386 0.9721
-1.8773 -6.4201 -2.3385 0.9721
-1.8374 -6.4313 -2.3384 0.9721
-1.7975 -6.4423 -2.3382 0.9721
-1.7576 -6.4529 -2.3381 0.9721
-1.7176 -6.4634 -2.3380 0.9721
-1.6775 -6.4736 -2.3379 0.9721
-1.6374 -6.4836 -2.3378 0.9721
-1.5971 -6.4933 -2.3377 0.9721
-1.5569 -6.5028 -2.3376 0.9721
-1.5166 -6.5121 -2.3376 0.9721
-1.4358 -6.5298 -2.3374 0.9721
-1.3143 -6.5546 -2.3371 0.9721
-1.2737 -6.5624 -2.3371 0.9721
-1.1924 -6.5772 -2.3369 0.9721
-1.1516 -6.5843 -2.3368 0.9721
-1.0701 -6.5977 -2.3367 0.9721
-0.9474 -6.6159 -2.3365 0.9721
-0.8654 -6.6268 -2.3364 0.9721
-0.8244 -6.6318 -2.3364 0.9721
-0.5366 -6.6605 -2.3361 0.9721
-0.2891 -6.6753 -2.3359 0.9721
-0.2478 -6.6769 -2.3359 0.9721
-0.2066 -6.6783 -2.3359 0.9721
-0.1652 -6.6794 -2.3359 0.9721
-0.1239 -6.6803 -2.3358 0.9721
0.0000 -6.6814 -2.3358 0.9721
0.0826 -6.6808 -2.3358 0.9721
0.1653 -6.6794 -2.3358 0.9721
0.2892 -6.6752 -2.3359 0.9721
0.3717 -6.6712 -2.3359 0.9721
0.4130 -6.6689 -2.3359 0.9721
0.4542 -6.6662 -2.3359 0.9721
0.4954 -6.6634 -2.3360 0.9721
0.5366 -6.6603 -2.3360 0.9721
0.5778 -6.6569 -2.3360 0.9721
0.9064 -6.6211 -2.3363 0.9721
0.9474 -6.6155 -2.3364 0.9721
1.0700 -6.5973 -2.3366 0.9721
1.1516 -6.5839 -2.3367 0.9721
1.2330 -6.5696 -2.3368 0.9721
1.3142 -6.5542 -2.3370 0.9721
1.5165 -6.5115 -2.3374 0.9721
1.5568 -6.5023 -2.3375 0.9721
1.5971 -6.4928 -2.3375 0.9721
1.6774 -6.4730 -2.3377 0.9721
1.7974 -6.4416 -2.3380 0.9721
1.8373 -6.4306 -2.3381 0.9721
1.9169 -6.4080 -2.3383 0.9721
1.9565 -6.3964 -2.3385 0.9721
2.0751 -6.3599 -2.3388 0.9721
2.1539 -6.3344 -2.3390 0.9720
2.3882 -6.2522 -2.3398 0.9720
2.4270 -6.2377 -2.3400 0.9720
2.5042 -6.2079 -2.3402 0.9720
2.5427 -6.1927 -2.3404 0.9720
2.6577 -6.1457 -2.3408 0.9720
2.7338 -6.1131 -2.3411 0.9720
2.8473 -6.0626 -2.3416 0.9720
2.9225 -6.0278 -2.3420 0.9720
2.9973 -5.9921 -2.3423 0.9720
3.0345 -5.9739 -2.3425 0.9720
3.0717 -5.9554 -2.3427 0.9720
3.1823 -5.8988 -2.3432 0.9720
3.2556 -5.8599 -2.3436 0.9720
3.3645 -5.7999 -2.3441 0.9720
3.4366 -5.7588 -2.3445 0.9720
3.4724 -5.7379 -2.3447 0.9720
3.5792 -5.6740 -2.3453 0.9720
3.7546 -5.5631 -2.3464 0.9720
3.8583 -5.4941 -2.3471 0.9720
3.9267 -5.4470 -2.3475 0.9719
4.0282 -5.3748 -2.3482 0.9719
4.0618 -5.3503 -2.3484 0.9719
4.1285 -5.3007 -2.3489 0.9719
4.1616 -5.2757 -2.3492 0.9719
4.1946 -5.2504 -2.3494 0.9719
4.2274 -5.2249 -2.3496 0.9719
4.2926 -5.1733 -2.3501 0.9719
4.3250 -5.1471 -2.3504 0.9719
4.3572 -5.1209 -2.3506 0.9719
4.3893 -5.0944 -2.3509 0.9719
4.4212 -5.0677 -2.3512 0.9719
4.4529 -5.0408 -2.3514 0.9719
4.5783 -4.9314 -2.3525 0.9719
4.6092 -4.9035 -2.3527 0.9719
4.6400 -4.8754 -2.3530 0.9719
4.7010 -4.8188 -2.3535 0.9719
4.7313 -4.7902 -2.3538 0.9719
4.7913 -4.7324 -2.3544 0.9719
4.9383 -4.5848 -2.3558 0.9719
4.9959 -4.5245 -2.3564 0.9718
5.0244 -4.4940 -2.3567 0.9718
5.2458 -4.2444 -2.3591 0.9718
5.2727 -4.2125 -2.3594 0.9718
5.2993 -4.1803 -2.3597 0.9718
5.3257 -4.1480 -2.3600 0.9718
5.4039 -4.0501 -2.3609 0.9718
5.4551 -3.9840 -2.3616 0.9718
5.4803 -3.9507 -2.3619 0.9718
5.5054 -3.9173 -2.3622 0.9718
5.5550 -3.8500 -2.3629 0.9718
5.6516 -3.7135 -2.3642 0.9718
5.7450 -3.5745 -2.3655 0.9717
5.7904 -3.5042 -2.3662 0.9717
5.8350 -3.4334 -2.3669 0.9717
5.8788 -3.3619 -2.3676 0.9717
5.9216 -3.2899 -2.3683 0.9717
5.9636 -3.2173 -2.3690 0.9717
5.9843 -3.1808 -2.3693 0.9717
6.0048 -3.1443 -2.3697 0.9717
6.0250 -3.1075 -2.3700 0.9717
6.0450 -3.0707 -2.3704 0.9717
6.1228 -2.9220 -2.3718 0.9717
6.1417 -2.8845 -2.3722 0.9717
6.2149 -2.7334 -2.3736 0.9716
6.2327 -2.6953 -2.3740 0.9716
6.2675 -2.6188 -2.3747 0.9716
6.3180 -2.5033 -2.3758 0.9716
6.3343 -2.4645 -2.3762 0.9716
6.3664 -2.3868 -2.3770 0.9716
6.4126 -2.2694 -2.3781 0.9716
6.4709 -2.1114 -2.3796 0.9716
6.4849 -2.0717 -2.3800 0.9716
6.5384 -1.9119 -2.3816 0.9715
6.5511 -1.8717 -2.3819 0.9715
6.5997 -1.7102 -2.3835 0.9715
6.6113 -1.6696 -2.3839 0.9715
6.6226 -1.6290 -2.3843 0.9715
6.6336 -1.5883 -2.3847 0.9715
6.6652 -1.4657 -2.3859 0.9715
6.6753 -1.4246 -2.3863 0.9715
6.6946 -1.3424 -2.3870 0.9715
6.7039 -1.3012 -2.3874 0.9715
6.7129 -1.2599 -2.3878 0.9715
6.7217 -1.2186 -2.3882 0.9715
6.7385 -1.1357 -2.3890 0.9715
6.7829 -0.8859 -2.3915 0.9714
6.7956 -0.8022 -2.3923 0.9714
6.8016 -0.7603 -2.3927 0.9714
6.8128 -0.6763 -2.3935 0.9714
6.8180 -0.6343 -2.3939 0.9714
6.8230 -0.5922 -2.3943 0.9714
6.8276 -0.5501 -2.3947 0.9714
6.8321 -0.5080 -2.3951 0.9714
6.8363 -0.4658 -2.3955 0.9714
6.8438 -0.3813 -2.3963 0.9714
6.8472 -0.3390 -2.3967 0.9714
6.8532 -0.2545 -2.3976 0.9714
6.8559 -0.2121 -2.3980 0.9714
6.8582 -0.1697 -2.3984 0.9713
6.8603 -0.1273 -2.3988 0.9713
6.8621 -0.0849 -2.3992 0.9713
6.8650 0.0000 -2.4000 0.9713
6.8668 0.0849 -2.4008 0.9713
6.8673 0.1274 -2.4013 0.9713
6.8673 0.2549 -2.4025 0.9713
6.8649 0.3825 -2.4037 0.9713
6.8620 0.4675 -2.4045 0.9713
6.8581 0.5525 -2.4054 0.9713
6.8530 0.6375 -2.4062 0.9713
6.8502 0.6800 -2.4066 0.9713
6.8470 0.7225 -2.4070 0.9712
6.8435 0.7649 -2.4074 0.9712
6.8399 0.8074 -2.4078 0.9712
6.8359 0.8498 -2.4082 0.9712
6.8317 0.8922 -2.4087 0.9712
6.8272 0.9346 -2.4091 0.9712
6.8225 0.9770 -2.4095 0.9712
6.8174 1.0193 -2.4099 0.9712
6.8066 1.1040 -2.4107 0.9712
6.8008 1.1462 -2.4111 0.9712
6.7947 1.1884 -2.4115 0.9712
6.7884 1.2307 -2.4119 0.9712
6.7750 1.3150 -2.4128 0.9712
6.7678 1.3571 -2.4132 0.9712
6.7605 1.3991 -2.4136 0.9712
6.7528 1.4412 -2.4140 0.9712
6.7283 1.5670 -2.4152 0.9712
6.7196 1.6088 -2.4156 0.9711
6.7015 1.6924 -2.4164 0.9711
6.6822 1.7758 -2.4172 0.9711
6.6723 1.8173 -2.4176 0.9711
6.6297 1.9831 -2.4192 0.9711
6.6068 2.0656 -2.4200 0.9711
6.5950 2.1068 -2.4204 0.9711
6.5706 2.1889 -2.4212 0.9711
6.5452 2.2708 -2.4220 0.9711
6.5187 2.3523 -2.4228 0.9711
6.5051 2.3930 -2.4232 0.9711
6.4912 2.4336 -2.4236 0.9711
6.4771 2.4740 -2.4240 0.9710
6.4627 2.5145 -2.4244 0.9710
6.4481 2.5548 -2.4248 0.9710
6.4180 2.6352 -2.4255 0.9710
6.3550 2.7949 -2.4271 0.9710
6.2879 2.9531 -2.4286 0.9710
6.2705 2.9924 -2.4290 0.9710
6.2528 3.0316 -2.4294 0.9710
6.2168 3.1097 -2.4302 0.9710
6.1798 3.1873 -2.4309 0.9710
6.1609 3.2260 -2.4313 0.9710
6.1028 3.3413 -2.4324 0.9709
6.0829 3.3795 -2.4328 0.9709
6.0628 3.4175 -2.4331 0.9709
5.9588 3.6060 -2.4350 0.9709
5.8934 3.7176 -2.4361 0.9709
5.8712 3.7545 -2.4364 0.9709
5.8260 3.8280 -2.4371 0.9709
5.8031 3.8645 -2.4375 0.9709
5.7799 3.9009 -2.4378 0.9709
5.7090 4.0092 -2.4389 0.9709
5.6849 4.0450 -2.4392 0.9709
5.6361 4.1162 -2.4399 0.9709
5.5611 4.2218 -2.4410 0.9708
5.5356 4.2567 -2.4413 0.9708
5.4841 4.3260 -2.4420 0.9708
5.4580 4.3604 -2.4423 0.9708
5.4316 4.3947 -2.4426 0.9708
5.3241 4.5302 -2.4440 0.9708
5.2691 4.5969 -2.4446 0.9708
5.2413 4.6300 -2.4449 0.9708
5.1565 4.7283 -2.4459 0.9708
5.0698 4.8250 -2.4468 0.9708
5.0110 4.8885 -2.4474 0.9708
4.9213 4.9826 -2.4484 0.9708
4.8910 5.0135 -2.4487 0.9708
4.7989 5.1052 -2.4495 0.9707
4.7678 5.1354 -2.4498 0.9707
4.7051 5.1952 -2.4504 0.9707
4.6734 5.2248 -2.4507 0.9707
4.6415 5.2543 -2.4510 0.9707
4.6095 5.2835 -2.4513 0.9707
4.5122 5.3699 -2.4521 0.9707
4.4577 5.3721 -2.4405 0.9709
4.3859 5.3527 -2.4193 0.9711
4.1809 5.3000 -2.3600 0.9718
4.1166 5.2855 -2.3422 0.9720
4.0534 5.2712 -2.3247 0.9722
3.9943 5.2613 -2.3094 0.9724
3.9111 5.2863 -2.2989 0.9725
3.8462 5.3354 -2.2994 0.9725
3.6813 5.4545 -2.3006 0.9725
3.6479 5.4777 -2.3008 0.9725
3.5466 5.5461 -2.3015 0.9725
3.5126 5.5684 -2.3017 0.9725
3.4784 5.5905 -2.3019 0.9725
3.4441 5.6125 -2.3021 0.9725
3.3751 5.6556 -2.3026 0.9725
3.3054 5.6980 -2.3030 0.9725
3.2000 5.7599 -2.3036 0.9725
3.1646 5.7800 -2.3038 0.9725
3.0934 5.8197 -2.3042 0.9725
3.0576 5.8392 -2.3044 0.9725
3.0217 5.8585 -2.3045 0.9725
2.9856 5.8776 -2.3047 0.9725
2.9495 5.8963 -2.3049 0.9724
2.8402 5.9515 -2.3055 0.9724
2.8036 5.9694 -2.3056 0.9724
2.7299 6.0045 -2.3060 0.9724
2.6559 6.0387 -2.3063 0.9724
2.4688 6.1200 -2.3071 0.9724
2.4310 6.1356 -2.3073 0.9724
2.3172 6.1808 -2.3077 0.9724
2.2409 6.2097 -2.3080 0.9724
2.2026 6.2239 -2.3081 0.9724
2.1257 6.2513 -2.3084 0.9724
2.0871 6.2647 -2.3085 0.9724
2.0097 6.2908 -2.3088 0.9724
1.9319 6.3158 -2.3090 0.9724
1.8538 6.3399 -2.3093 0.9724
1.7362 6.3741 -2.3096 0.9724
1.6968 6.3850 -2.3097 0.9724
1.6573 6.3957 -2.3098 0.9724
1.6178 6.4061 -2.3099 0.9724
1.5783 6.4163 -2.3100 0.9724
1.4989 6.4359 -2.3102 0.9724
1.4591 6.4453 -2.3103 0.9724
1.3794 6.4633 -2.3105 0.9724
1.3395 6.4720 -2.3106 0.9724
1.2995 6.4804 -2.3107 0.9724
1.2594 6.4885 -2.3107 0.9724
1.2193 6.4964 -2.3108 0.9724
1.0584 6.5254 -2.3111 0.9724
1.0180 6.5320 -2.3112 0.9724
0.9776 6.5383 -2.3112 0.9724
0.9372 6.5444 -2.3113 0.9724
0.8967 6.5503 -2.3114 0.9724
0.8562 6.5559 -2.3114 0.9724
0.8157 6.5612 -2.3115 0.9724
0.6939 6.5756 -2.3116 0.9724
0.6125 6.5839 -2.3117 0.9724
0.5718 6.5877 -2.3118 0.9724
0.5311 6.5912 -2.3118 0.9724
0.4495 6.5974 -2.3119 0.9724
0.4087 6.6002 -2.3119 0.9724
0.3679 6.6027 -2.3119 0.9724
0.2453 6.6086 -2.3120 0.9724
0.2045 6.6100 -2.3120 0.9724
0.1636 6.6112 -2.3120 0.9724
0.1227 6.6121 -2.3120 0.9724
0.0818 6.6127 -2.3120 0.9724
0.0000 6.6133 -2.3120 0.9724
-0.0409 6.6132 -2.3120 0.9724
-0.1227 6.6121 -2.3120 0.9724
-0.1636 6.6112 -2.3120 0.9724
-0.2045 6.6100 -2.3120 0.9724
-0.2453 6.6086 -2.3120 0.9724
-0.2862 6.6069 -2.3120 0.9724
-0.3270 6.6050 -2.3120 0.9724
-0.4087 6.6004 -2.3119 0.9724
-0.4903 6.5946 -2.3119 0.9724
-0.5311 6.5914 -2.3119 0.9724
-0.5718 6.5879 -2.3118 0.9724
-0.6532 6.5801 -2.3118 0.9724
-0.6939 6.5759 -2.3117 0.9724
-0.7345 6.5713 -2.3117 0.9724
-0.7751 6.5665 -2.3116 0.9724
-0.8968 6.5506 -2.3115 0.9724
-0.9372 6.5448 -2.3114 0.9724
-0.9777 6.5387 -2.3114 0.9724
-1.2595 6.4889 -2.3109 0.9724
-1.3395 6.4725 -2.3108 0.9724
-1.3795 6.4638 -2.3107 0.9724
-1.4194 6.4549 -2.3106 0.9724
-1.4592 6.4458 -2.3105 0.9724
-1.4990 6.4364 -2.3104 0.9724
-1.5784 6.4169 -2.3102 0.9724
-1.6180 6.4067 -2.3101 0.9724
-1.7756 6.3636 -2.3097 0.9724
-1.8540 6.3406 -2.3095 0.9724
-1.8931 6.3287 -2.3094 0.9724
-1.9321 6.3165 -2.3093 0.9724
-1.9710 6.3041 -2.3092 0.9724
-2.0099 6.2915 -2.3090 0.9724
-2.2028 6.2246 -2.3084 0.9724
-2.2411 6.2105 -2.3083 0.9724
-2.3555 6.1668 -2.3079 0.9724
-2.3935 6.1517 -2.3077 0.9724
-2.4313 6.1364 -2.3076 0.9724
-2.5067 6.1051 -2.3073 0.9724
-2.5443 6.0890 -2.3071 0.9724
-2.6190 6.0563 -2.3068 0.9724
-2.6562 6.0396 -2.3067 0.9724
-2.7303 6.0054 -2.3063 0.9724
-2.7672 5.9880 -2.3062 0.9724
-2.8406 5.9524 -2.3058 0.9724
-2.9136 5.9159 -2.3055 0.9724
-2.9499 5.8974 -2.3053 0.9724
-3.0581 5.8402 -2.3047 0.9725
-3.0939 5.8207 -2.3046 0.9725
-3.3757 5.6567 -2.3030 0.9725
-3.4103 5.6353 -2.3028 0.9725
-3.4448 5.6136 -2.3026 0.9725
-3.5133 5.5695 -2.3022 0.9725
-3.6150 5.5018 -2.3015 0.9725
-3.6486 5.4788 -2.3013 0.9725
-3.6821 5.4556 -2.3011 0.9725
-3.7485 5.4086 -2.3006 0.9725
-3.7815 5.3848 -2.3004 0.9725
-3.8471 5.3366 -2.2999 0.9725
-3.8796 5.3121 -2.2997 0.9725
-3.9120 5.2875 -2.2995 0.9725
-3.9442 5.2626 -2.2992 0.9725
-4.0081 5.2123 -2.2987 0.9725
-4.0398 5.1869 -2.2985 0.9725
-4.0714 5.1613 -2.2982 0.9725
-4.2267 5.0302 -2.2970 0.9725
-4.2573 5.0034 -2.2967 0.9725
-4.3179 4.9492 -2.2962 0.9726
-4.3479 4.9219 -2.2959 0.9726
-4.3832 4.9005 -2.2986 0.9725
-4.4362 4.8984 -2.3104 0.9724
-4.5639 4.9158 -2.3451 0.9720
-4.6300 4.9255 -2.3633 0.9718
-4.6978 4.9362 -2.3823 0.9715
-4.8400 4.9612 -2.4231 0.9711
-4.9527 4.9527 -2.4487 0.9708
-5.0712 4.8263 -2.4475 0.9708
-5.1003 4.7942 -2.4472 0.9708
-5.1579 4.7296 -2.4465 0.9708
-5.2146 4.6642 -2.4459 0.9708
-5.2427 4.6313 -2.4456 0.9708
-5.3528 4.4978 -2.4443 0.9708
-5.4595 4.3617 -2.4430 0.9708
-5.5115 4.2927 -2.4423 0.9708
-5.5372 4.2579 -2.4420 0.9708
-5.6129 4.1528 -2.4410 0.9708
-5.6623 4.0819 -2.4403 0.9709
-5.6866 4.0462 -2.4400 0.9709
-5.7107 4.0104 -2.4396 0.9709
-5.7346 3.9744 -2.4393 0.9709
-5.7817 3.9021 -2.4386 0.9709
-5.8278 3.8292 -2.4379 0.9709
-5.8505 3.7925 -2.4375 0.9709
-5.9391 3.6445 -2.4361 0.9709
-5.9606 3.6072 -2.4357 0.9709
-5.9819 3.5697 -2.4354 0.9709
-6.0238 3.4944 -2.4346 0.9709
-6.0849 3.3805 -2.4336 0.9709
-6.1629 3.2270 -2.4321 0.9710
-6.1818 3.1884 -2.4317 0.9710
-6.2188 3.1107 -2.4310 0.9710
-6.2548 3.0326 -2.4302 0.9710
-6.2725 2.9934 -2.4298 0.9710
-6.2899 2.9541 -2.4294 0.9710
-6.3240 2.8752 -2.4287 0.9710
-6.3571 2.7959 -2.4279 0.9710
-6.4202 2.6361 -2.4264 0.9710
-6.4354 2.5959 -2.4260 0.9710
-6.4649 2.5153 -2.4252 0.9710
-6.4934 2.4344 -2.4244 0.9710
-6.5209 2.3531 -2.4236 0.9711
-6.5343 2.3124 -2.4232 0.9711
-6.5474 2.2716 -2.4229 0.9711
-6.5602 2.2306 -2.4225 0.9711
-6.5852 2.1486 -2.4217 0.9711
-6.5973 2.1075 -2.4213 0.9711
-6.6319 1.9838 -2.4201 0.9711
-6.6538 1.9010 -2.4193 0.9711
-6.6846 1.7763 -2.4181 0.9711
-6.7038 1.6929 -2.4173 0.9711
-6.7130 1.6512 -2.4169 0.9711
-6.7220 1.6094 -2.4165 0.9711
-6.7307 1.5675 -2.4161 0.9711
-6.7391 1.5256 -2.4156 0.9711
-6.7473 1.4836 -2.4152 0.9712
-6.7702 1.3575 -2.4140 0.9712
-6.7774 1.3154 -2.4136 0.9712
-6.7972 1.1889 -2.4124 0.9712
-6.8032 1.1466 -2.4120 0.9712
-6.8249 0.9773 -2.4103 0.9712
-6.8296 0.9349 -2.4099 0.9712
-6.8341 0.8925 -2.4095 0.9712
-6.8383 0.8501 -2.4091 0.9712
-6.8423 0.8077 -2.4087 0.9712
-6.8460 0.7652 -2.4083 0.9712
-6.8526 0.6802 -2.4075 0.9712
-6.8555 0.6378 -2.4071 0.9712
-6.8626 0.5102 -2.4058 0.9713
-6.8661 0.4252 -2.4050 0.9713
-6.8685 0.3401 -2.4042 0.9713
-6.8693 0.2975 -2.4038 0.9713
-6.8701 0.2125 -2.4030 0.9713
-6.8698 0.1274 -2.4021 0.9713
-6.8693 0.0850 -2.4017 0.9713
-6.8685 0.0425 -2.4013 0.9713
-6.7027 -0.1244 -2.3997 0.9719
-6.7006 -0.1658 -2.3993 0.9719
-6.6984 -0.2072 -2.3989 0.9719
-6.6867 -0.3726 -2.3973 0.9719
-6.6832 -0.4139 -2.3969 0.9720
-6.6753 -0.4963 -2.3961 0.9720
-6.6513 -0.7019 -2.3941 0.9720
-6.6457 -0.7429 -2.3937 0.9720
-6.6398 -0.7837 -2.3933 0.9720
-6.6338 -0.8247 -2.3929 0.9720
-6.6275 -0.8656 -2.3925 0.9720
-6.6209 -0.9064 -2.3921 0.9720
-6.6070 -0.9879 -2.3913 0.9720
-6.5921 -1.0692 -2.3905 0.9720
-6.5762 -1.1503 -2.3897 0.9720
-6.5505 -1.2715 -2.3886 0.9720
-6.4925 -1.5121 -2.3862 0.9721
-6.4820 -1.5520 -2.3859 0.9721
-6.4602 -1.6315 -2.3851 0.9721
-6.4375 -1.7107 -2.3843 0.9721
-6.4137 -1.7896 -2.3836 0.9721
-6.3891 -1.8682 -2.3828 0.9721
-6.3635 -1.9465 -2.3820 0.9721
-6.3369 -2.0244 -2.3813 0.9721
-6.2953 -2.1406 -2.3802 0.9721
-6.2809 -2.1791 -2.3798 0.9722
-6.2663 -2.2176 -2.3794 0.9722
-6.2515 -2.2560 -2.3790 0.9722
-6.2212 -2.3324 -2.3783 0.9722
-6.2057 -2.3704 -2.3779 0.9722
-6.1247 -2.5592 -2.3761 0.9722
-6.0734 -2.6712 -2.3750 0.9722
-6.0559 -2.7083 -2.3746 0.9722
-6.0381 -2.7452 -2.3743 0.9722
-6.0201 -2.7821 -2.3739 0.9722
-6.0019 -2.8189 -2.3736 0.9722
-5.9834 -2.8555 -2.3732 0.9722
-5.9268 -2.9647 -2.3722 0.9722
-5.9074 -3.0008 -2.3718 0.9722
-5.8682 -3.0728 -2.3711 0.9722
-5.8280 -3.1442 -2.3704 0.9723
-5.7662 -3.2504 -2.3694 0.9723
-5.7451 -3.2854 -2.3690 0.9723
-5.7239 -3.3205 -2.3687 0.9723
-5.7024 -3.3554 -2.3684 0.9723
-5.6368 -3.4591 -2.3674 0.9723
-5.5920 -3.5275 -2.3667 0.9723
-5.5693 -3.5615 -2.3664 0.9723
-5.5233 -3.6291 -2.3657 0.9723
-5.5000 -3.6627 -2.3654 0.9723
-5.4765 -3.6962 -2.3651 0.9723
-5.4528 -3.7295 -2.3647 0.9723
-5.3559 -3.8611 -2.3634 0.9723
-5.3064 -3.9260 -2.3628 0.9723
-5.2813 -3.9582 -2.3625 0.9723
-5.2049 -4.0539 -2.3616 0.9724
-5.1530 -4.1169 -2.3610 0.9724
-5.1268 -4.1482 -2.3607 0.9724
-5.0471 -4.2409 -2.3598 0.9724
-4.9930 -4.3019 -2.3592 0.9724
-4.9381 -4.3623 -2.3586 0.9724
-4.9104 -4.3922 -2.3583 0.9724
-4.8826 -4.4219 -2.3580 0.9724
-4.6827 -4.6252 -2.3560 0.9724
-4.6535 -4.6535 -2.3557 0.9724
-4.5945 -4.7096 -2.3552 0.9724
-4.5648 -4.7374 -2.3549 0.9724
-4.5349 -4.7650 -2.3546 0.9724
-4.5048 -4.7924 -2.3544 0.9724
-4.4442 -4.8467 -2.3539 0.9724
-4.3829 -4.9002 -2.3533 0.9725
-4.3211 -4.9529 -2.3528 0.9725
-4.2586 -5.0049 -2.3523 0.9725
-4.2271 -5.0306 -2.3521 0.9725
-4.1954 -5.0562 -2.3518 0.9725
-4.1636 -5.0814 -2.3516 0.9725
-4.1317 -5.1066 -2.3513 0.9725
-4.0996 -5.1315 -2.3511 0.9725
-4.0674 -5.1562 -2.3508 0.9725
-4.0025 -5.2051 -2.3504 0.9725
-3.9370 -5.2532 -2.3499 0.9725
-3.9041 -5.2769 -2.3497 0.9725
-3.8710 -5.3004 -2.3494 0.9725
-3.8378 -5.3237 -2.3492 0.9725
-3.8044 -5.3468 -2.3490 0.9725
-3.7709 -5.3697 -2.3488 0.9725
-3.7373 -5.3925 -2.3485 0.9725
-3.7035 -5.4150 -2.3483 0.9725
-3.6696 -5.4372 -2.3481 0.9725
-3.6356 -5.4593 -2.3479 0.9725
-3.5671 -5.5029 -2.3474 0.9725
-3.4287 -5.5875 -2.3466 0.9725
-3.3588 -5.6285 -2.3462 0.9725
-3.3236 -5.6487 -2.3460 0.9725
-3.2883 -5.6687 -2.3458 0.9725
-3.1461 -5.7464 -2.3451 0.9726
-3.1103 -5.7653 -2.3449 0.9726
-3.0743 -5.7839 -2.3447 0.9726
-3.0021 -5.8206 -2.3443 0.9726
-2.9658 -5.8387 -2.3442 0.9726
-2.9294 -5.8564 -2.3440 0.9726
-2.8197 -5.9085 -2.3435 0.9726
-2.7460 -5.9421 -2.3431 0.9726
-2.7090 -5.9585 -2.3430 0.9726
-2.6719 -5.9748 -2.3428 0.9726
-2.6348 -5.9908 -2.3427 0.9726
-2.5975 -6.0066 -2.3425 0.9726
-2.5227 -6.0374 -2.3422 0.9726
-2.4851 -6.0525 -2.3421 0.9726
-2.4098 -6.0821 -2.3418 0.9726
-2.3341 -6.1107 -2.3415 0.9726
-2.2581 -6.1384 -2.3412 0.9726
-2.2199 -6.1518 -2.3411 0.9726
-2.0666 -6.2035 -2.3406 0.9726
-2.0281 -6.2159 -2.3405 0.9726
-1.9122 -6.2515 -2.3401 0.9726
-1.6785 -6.3164 -2.3395 0.9726
-1.6394 -6.3263 -2.3394 0.9726
-1.6001 -6.3361 -2.3393 0.9726
-1.5215 -6.3549 -2.3391 0.9726
-1.4427 -6.3728 -2.3389 0.9726
-1.4032 -6.3813 -2.3388 0.9726
-1.3637 -6.3896 -2.3387 0.9726
-1.3241 -6.3978 -2.3387 0.9726
-1.2844 -6.4056 -2.3386 0.9726
-1.1653 -6.4277 -2.3384 0.9726
-1.1254 -6.4346 -2.3383 0.9726
-1.0457 -6.4477 -2.3381 0.9726
-1.0058 -6.4539 -2.3381 0.9726
-0.9659 -6.4598 -2.3380 0.9726
-0.9259 -6.4655 -2.3380 0.9726
-0.8057 -6.4811 -2.3378 0.9726
-0.7656 -6.4859 -2.3378 0.9726
-0.6853 -6.4946 -2.3377 0.9726
-0.6049 -6.5023 -2.3376 0.9726
-0.5646 -6.5059 -2.3376 0.9726
-0.5244 -6.5091 -2.3375 0.9726
-0.2019 -6.5265 -2.3373 0.9726
-0.1615 -6.5276 -2.3373 0.9726
-0.0404 -6.5294 -2.3373 0.9726
0.0404 -6.5294 -2.3373 0.9726
0.0808 -6.5290 -2.3373 0.9726
0.1211 -6.5284 -2.3373 0.9726
0.1615 -6.5276 -2.3373 0.9726
0.2422 -6.5251 -2.3373 0.9726
0.2826 -6.5235 -2.3373 0.9726
0.3229 -6.5217 -2.3373 0.9726
0.4841 -6.5120 -2.3374 0.9726
0.5244 -6.5089 -2.3375 0.9726
0.5647 -6.5056 -2.3375 0.9726
0.6049 -6.5021 -2.3375 0.9726
0.6853 -6.4943 -2.3376 0.9726
0.8057 -6.4808 -2.3377 0.9726
0.8458 -6.4758 -2.3378 0.9726
0.8858 -6.4706 -2.3378 0.9726
0.9259 -6.4652 -2.3379 0.9726
0.9658 -6.4595 -2.3379 0.9726
1.0457 -6.4473 -2.3380 0.9726
1.0856 -6.4409 -2.3381 0.9726
1.1254 -6.4342 -2.3381 0.9726
1.2050 -6.4202 -2.3383 0.9726
1.2843 -6.4052 -2.3384 0.9726
1.3240 -6.3973 -2.3385 0.9726
1.3636 -6.3892 -2.3386 0.9726
1.4426 -6.3723 -2.3387 0.9726
1.4820 -6.3635 -2.3388 0.9726
1.5214 -6.3544 -2.3389 0.9726
1.5607 -6.3451 -2.3390 0.9726
1.6392 -6.3258 -2.3392 0.9726
1.7175 -6.3056 -2.3393 0.9726
1.7565 -6.2951 -2.3394 0.9726
1.7955 -6.2844 -2.3395 0.9726
1.8344 -6.2735 -2.3397 0.9726
1.8732 -6.2623 -2.3398 0.9726
1.9507 -6.2392 -2.3400 0.9726
1.9894 -6.2273 -2.3401 0.9726
2.0280 -6.2152 -2.3402 0.9726
2.1432 -6.1775 -2.3406 0.9726
2.1815 -6.1644 -2.3407 0.9726
2.3338 -6.1099 -2.3412 0.9726
2.3717 -6.0957 -2.3413 0.9726
2.4472 -6.0666 -2.3416 0.9726
2.4848 -6.0518 -2.3418 0.9726
2.5598 -6.0213 -2.3420 0.9726
2.5972 -6.0057 -2.3422 0.9726
2.7087 -5.9577 -2.3427 0.9726
2.7456 -5.9412 -2.3428 0.9726
2.7825 -5.9245 -2.3430 0.9726
2.9290 -5.8555 -2.3436 0.9726
2.9654 -5.8377 -2.3438 0.9726
3.0016 -5.8197 -2.3440 0.9726
3.0378 -5.8015 -2.3441 0.9726
3.1456 -5.7454 -2.3447 0.9726
3.1813 -5.7263 -2.3449 0.9726
3.2524 -5.6874 -2.3452 0.9725
3.2878 -5.6676 -2.3454 0.9725
3.5321 -5.5233 -2.3468 0.9725
3.5665 -5.5018 -2.3470 0.9725
3.6349 -5.4583 -2.3474 0.9725
3.7028 -5.4139 -2.3479 0.9725
3.7702 -5.3687 -2.3483 0.9725
3.8037 -5.3458 -2.3485 0.9725
3.8702 -5.2993 -2.3489 0.9725
3.9033 -5.2758 -2.3492 0.9725
4.1308 -5.1055 -2.3508 0.9725
4.1628 -5.0803 -2.3510 0.9725
4.2261 -5.0295 -2.3515 0.9725
4.2576 -5.0038 -2.3518 0.9725
4.2889 -4.9779 -2.3520 0.9725
4.5934 -4.7085 -2.3546 0.9724
4.6230 -4.6805 -2.3549 0.9724
4.6816 -4.6240 -2.3554 0.9724
4.7107 -4.5956 -2.3557 0.9724
4.7396 -4.5669 -2.3560 0.9724
4.7683 -4.5380 -2.3563 0.9724
4.8814 -4.4208 -2.3574 0.9724
4.9369 -4.3611 -2.3580 0.9724
4.9917 -4.3008 -2.3585 0.9724
5.0725 -4.2090 -2.3594 0.9724
5.0991 -4.1781 -2.3597 0.9724
5.1777 -4.0844 -2.3606 0.9724
5.2291 -4.0211 -2.3612 0.9724
5.2546 -3.9891 -2.3615 0.9724
5.2798 -3.9571 -2.3618 0.9724
5.3049 -3.9249 -2.3622 0.9724
5.3298 -3.8925 -2.3625 0.9723
