ply
format ascii 1.0
element vertex 1527
property float32 x
property float32 y
property float32 z
property float32 I
end_header
-24.0931 13.9764 -2.5504 0.8942
-24.2339 13.6604 -2.5473 0.8943
-24.3028 13.5018 -2.5457 0.8943
-24.3704 13.3429 -2.5441 0.8944
-24.4371 13.1836 -2.5425 0.8945
-24.5027 13.0240 -2.5409 0.8945
-24.5672 12.8640 -2.5393 0.8946
-24.8145 12.2212 -2.5328 0.8948
-24.9317 11.8981 -2.5295 0.8950
-24.9887 11.7361 -2.5279 0.8950
-25.0445 11.5738 -2.5263 0.8951
-25.0994 11.4114 -2.5246 0.8952
-25.2573 10.9224 -2.5197 0.8954
-25.3572 10.5953 -2.5164 0.8955
-25.4055 10.4314 -2.5147 0.8956
-25.4528 10.2673 -2.5131 0.8956
-25.4990 10.1030 -2.5114 0.8957
-25.5441 9.9386 -2.5098 0.8957
-25.5881 9.7739 -2.5081 0.8958
-25.6310 9.6091 -2.5064 0.8959
-25.6728 9.4441 -2.5048 0.8959
-25.7136 9.2790 -2.5031 0.8960
-25.7533 9.1137 -2.5014 0.8961
-25.8295 8.7828 -2.4981 0.8962
-25.8659 8.6171 -2.4964 0.8963
-25.9013 8.4512 -2.4947 0.8963
-26.0320 7.7870 -2.4880 0.8966
-26.1713 6.9548 -2.4796 0.8969
-26.1960 6.7882 -2.4779 0.8970
-26.2421 6.4548 -2.4745 0.8971
-26.2635 6.2881 -2.4728 0.8972
-26.2839 6.1214 -2.4711 0.8973
-26.3032 5.9547 -2.4694 0.8973
-26.3215 5.7879 -2.4677 0.8974
-26.3387 5.6212 -2.4660 0.8975
-26.4090 4.7877 -2.4576 0.8978
-26.4297 4.4545 -2.4542 0.8979
-26.4462 4.1216 -2.4508 0.8981
-26.4529 3.9553 -2.4491 0.8981
-26.4632 3.6228 -2.4457 0.8983
-26.4693 3.2906 -2.4423 0.8984
-26.4708 3.1247 -2.4407 0.8985
-26.4714 2.9589 -2.4390 0.8985
-26.4708 2.7932 -2.4373 0.8986
-26.4693 2.6276 -2.4356 0.8987
-26.4667 2.4622 -2.4339 0.8987
-26.4631 2.2970 -2.4322 0.8988
-26.3408 0.3258 -2.4121 0.8996
-26.3241 0.1628 -2.4104 0.8997
-24.3105 -0.0000 -2.4081 0.9069
-24.2777 -0.3003 -2.4051 0.9070
-24.2599 -0.4502 -2.4035 0.9071
-24.2412 -0.5998 -2.4020 0.9071
-24.2216 -0.7492 -2.4005 0.9072
-24.1797 -1.0474 -2.3974 0.9073
-24.1342 -1.3447 -2.3944 0.9074
-24.1102 -1.4930 -2.3929 0.9075
-24.0852 -1.6410 -2.3914 0.9075
-23.9765 -2.2306 -2.3853 0.9077
-23.9472 -2.3773 -2.3838 0.9078
-23.9170 -2.5238 -2.3823 0.9079
-23.8859 -2.6699 -2.3808 0.9079
-23.8539 -2.8158 -2.3793 0.9080
-23.8210 -2.9614 -2.3778 0.9080
-23.7873 -3.1067 -2.3763 0.9081
-23.7174 -3.3964 -2.3734 0.9082
-23.6812 -3.5408 -2.3719 0.9082
-23.6441 -3.6849 -2.3704 0.9083
-23.5673 -3.9721 -2.3675 0.9084
-23.4872 -4.2580 -2.3645 0.9085
-23.4037 -4.5427 -2.3616 0.9086
-23.3608 -4.6843 -2.3601 0.9087
-23.2724 -4.9668 -2.3572 0.9088
-23.1807 -5.2478 -2.3543 0.9089
-23.1337 -5.3877 -2.3529 0.9089
-22.8863 -6.0819 -2.3458 0.9092
-22.8344 -6.2195 -2.3443 0.9093
-22.7818 -6.3567 -2.3429 0.9093
-22.7283 -6.4936 -2.3415 0.9094
-22.6741 -6.6301 -2.3401 0.9094
-22.6191 -6.7661 -2.3387 0.9095
-22.5633 -6.9017 -2.3373 0.9095
-22.5068 -7.0369 -2.3359 0.9096
-22.4494 -7.1717 -2.3345 0.9096
-22.2125 -7.7065 -2.3290 0.9098
-22.0895 -7.9713 -2.3263 0.9099
-22.0269 -8.1030 -2.3249 0.9100
-21.9635 -8.2342 -2.3235 0.9100
-21.8346 -8.4954 -2.3208 0.9101
-21.7690 -8.6252 -2.3195 0.9102
-21.7028 -8.7546 -2.3182 0.9102
-21.6358 -8.8836 -2.3168 0.9103
-21.4995 -9.1400 -2.3142 0.9104
-21.1466 -9.7725 -2.3076 0.9106
-21.0740 -9.8976 -2.3063 0.9107
-21.0005 -10.0221 -2.3050 0.9107
-20.7763 -10.3926 -2.3012 0.9108
-20.6234 -10.6370 -2.2986 0.9109
-20.5460 -10.7585 -2.2974 0.9110
-20.4678 -10.8794 -2.2961 0.9110
-20.3890 -10.9997 -2.2949 0.9111
-20.0673 -11.4759 -2.2899 0.9113
-19.9853 -11.5936 -2.2887 0.9113
-19.7354 -11.9433 -2.2851 0.9114
-19.1302 -12.7397 -2.2768 0.9118
-18.9519 -12.9621 -2.2744 0.9118
-18.8618 -13.0724 -2.2733 0.9119
-18.6799 -13.2913 -2.2710 0.9120
-18.4955 -13.5079 -2.2687 0.9121
-18.2149 -13.8282 -2.2654 0.9122
-18.0249 -14.0387 -2.2632 0.9123
-17.9290 -14.1431 -2.2621 0.9123
-17.8327 -14.2469 -2.2610 0.9123
-17.5402 -14.5545 -2.2578 0.9125
-17.4417 -14.6558 -2.2567 0.9125
-17.2430 -14.8564 -2.2546 0.9126
-16.8392 -15.2504 -2.2505 0.9127
-16.7370 -15.3472 -2.2494 0.9128
-16.2184 -15.8221 -2.2444 0.9129
-15.9765 -15.9765 -2.2381 0.9132
-15.2784 -16.2537 -2.2097 0.9142
-15.1388 -16.3062 -2.2041 0.9144
-15.0000 -16.3584 -2.1985 0.9147
-14.5874 -16.5133 -2.1826 0.9152
-14.0379 -16.7064 -2.1616 0.9160
-13.9018 -16.7538 -2.1565 0.9162
-13.4956 -16.8923 -2.1418 0.9168
-13.2245 -16.9794 -2.1319 0.9171
-12.9558 -17.0657 -2.1225 0.9175
-12.6894 -17.1513 -2.1134 0.9178
-12.5552 -17.1913 -2.1087 0.9180
-12.2881 -17.2700 -2.0996 0.9183
-12.1554 -17.3091 -2.0952 0.9185
-12.0233 -17.3481 -2.0908 0.9187
-11.3822 -17.5588 -2.0728 0.9193
-11.2696 -17.6230 -2.0721 0.9194
-11.1568 -17.6865 -2.0714 0.9194
-11.0436 -17.7494 -2.0708 0.9194
-10.8162 -17.8731 -2.0694 0.9195
-10.4729 -18.0537 -2.0675 0.9195
-9.8949 -18.3412 -2.0644 0.9196
-9.5446 -18.5055 -2.0626 0.9197
-9.4273 -18.5590 -2.0620 0.9197
-8.9556 -18.7659 -2.0597 0.9198
-8.7182 -18.8653 -2.0587 0.9199
-8.5991 -18.9140 -2.0581 0.9199
-8.0003 -19.1469 -2.0556 0.9200
-7.8799 -19.1914 -2.0551 0.9200
-7.7592 -19.2353 -2.0546 0.9200
-7.6383 -19.2784 -2.0541 0.9200
-7.5172 -19.3208 -2.0536 0.9200
-7.3959 -19.3626 -2.0532 0.9201
-7.1528 -19.4440 -2.0523 0.9201
-7.0308 -19.4837 -2.0518 0.9201
-6.6640 -19.5985 -2.0505 0.9202
-6.5414 -19.6353 -2.0501 0.9202
-6.4185 -19.6715 -2.0497 0.9202
-6.1724 -19.7417 -2.0489 0.9202
-6.0490 -19.7758 -2.0485 0.9202
-5.5540 -19.9050 -2.0471 0.9203
-5.4299 -19.9356 -2.0467 0.9203
-5.3056 -19.9655 -2.0464 0.9203
-5.0566 -20.0230 -2.0457 0.9203
-4.5571 -20.1297 -2.0445 0.9204
-4.3065 -20.1788 -2.0439 0.9204
-4.0555 -20.2251 -2.0433 0.9204
-3.9299 -20.2471 -2.0431 0.9204
-3.3000 -20.3469 -2.0419 0.9205
-3.0475 -20.3818 -2.0414 0.9205
-2.7946 -20.4139 -2.0410 0.9205
-1.6535 -20.5229 -2.0395 0.9206
-1.5264 -20.5314 -2.0394 0.9206
-1.3993 -20.5393 -2.0393 0.9206
-1.1451 -20.5528 -2.0391 0.9206
-0.8907 -20.5635 -2.0389 0.9206
-0.5090 -20.5742 -2.0387 0.9206
-0.1273 -20.5784 -2.0385 0.9206
0.0000 -20.5784 -2.0385 0.9206
0.2545 -20.5762 -2.0384 0.9206
0.3818 -20.5741 -2.0384 0.9206
0.5090 -20.5712 -2.0384 0.9206
0.6362 -20.5677 -2.0384 0.9206
0.7634 -20.5634 -2.0384 0.9206
1.0177 -20.5526 -2.0384 0.9206
1.1448 -20.5462 -2.0384 0.9206
1.2718 -20.5391 -2.0384 0.9206
1.5258 -20.5226 -2.0385 0.9206
1.7796 -20.5033 -2.0387 0.9206
1.9065 -20.4927 -2.0387 0.9206
2.0332 -20.4812 -2.0388 0.9206
2.1600 -20.4691 -2.0389 0.9206
2.2866 -20.4563 -2.0390 0.9206
2.7925 -20.3979 -2.0394 0.9206
2.9187 -20.3814 -2.0395 0.9206
3.2970 -20.3280 -2.0400 0.9206
3.4229 -20.3088 -2.0401 0.9205
3.5487 -20.2888 -2.0403 0.9205
4.0509 -20.2021 -2.0410 0.9205
4.3014 -20.1544 -2.0414 0.9205
4.6760 -20.0776 -2.0421 0.9205
4.8006 -20.0506 -2.0423 0.9205
5.1737 -19.9655 -2.0431 0.9204
5.2978 -19.9357 -2.0433 0.9204
5.6690 -19.8421 -2.0442 0.9204
6.0388 -19.7422 -2.0451 0.9204
6.2844 -19.6721 -2.0457 0.9203
6.6516 -19.5618 -2.0467 0.9203
6.8954 -19.4848 -2.0474 0.9203
7.0170 -19.4452 -2.0478 0.9203
7.1385 -19.4050 -2.0481 0.9202
7.5014 -19.2801 -2.0493 0.9202
7.7424 -19.1933 -2.0501 0.9202
7.8625 -19.1490 -2.0505 0.9202
8.1021 -19.0582 -2.0514 0.9201
8.6969 -18.8191 -2.0536 0.9200
9.0509 -18.6676 -2.0550 0.9200
9.1683 -18.6157 -2.0555 0.9200
9.2855 -18.5631 -2.0560 0.9200
9.8675 -18.2903 -2.0586 0.9199
9.9830 -18.2337 -2.0592 0.9198
10.0982 -18.1764 -2.0597 0.9198
10.5563 -17.9407 -2.0620 0.9197
10.6700 -17.8801 -2.0626 0.9197
11.2341 -17.5672 -2.0656 0.9196
11.3459 -17.5027 -2.0662 0.9196
11.6794 -17.3052 -2.0681 0.9195
12.0099 -17.1018 -2.0701 0.9194
12.2284 -16.9630 -2.0714 0.9194
12.3371 -16.8926 -2.0721 0.9194
12.4455 -16.8215 -2.0728 0.9193
12.5535 -16.7499 -2.0735 0.9193
12.6611 -16.6776 -2.0742 0.9193
12.8753 -16.5311 -2.0756 0.9192
12.9924 -16.4703 -2.0780 0.9191
13.2465 -16.3719 -2.0861 0.9188
13.3727 -16.3205 -2.0901 0.9187
13.7570 -16.1680 -2.1029 0.9182
13.8866 -16.1173 -2.1074 0.9180
14.0167 -16.0664 -2.1120 0.9179
14.1475 -16.0152 -2.1168 0.9177
14.2772 -15.9620 -2.1214 0.9175
14.5368 -15.8532 -2.1306 0.9172
15.1941 -15.5747 -2.1553 0.9163
15.3252 -15.5159 -2.1603 0.9161
15.4569 -15.4569 -2.1653 0.9159
15.9900 -15.2178 -2.1866 0.9151
16.2550 -15.0913 -2.1971 0.9147
16.3884 -15.0276 -2.2026 0.9145
16.5225 -14.9635 -2.2081 0.9143
16.6573 -14.8991 -2.2138 0.9141
16.9277 -14.7682 -2.2253 0.9137
17.0616 -14.7002 -2.2309 0.9135
17.5566 -14.3857 -2.2484 0.9128
17.8448 -14.0767 -2.2514 0.9127
17.9397 -13.9724 -2.2525 0.9127
18.0341 -13.8676 -2.2535 0.9126
18.2211 -13.6562 -2.2556 0.9125
18.3138 -13.5496 -2.2567 0.9125
18.4059 -13.4424 -2.2577 0.9125
18.4974 -13.3346 -2.2588 0.9124
18.5884 -13.2262 -2.2599 0.9124
18.6787 -13.1173 -2.2609 0.9123
18.9463 -12.7871 -2.2642 0.9122
19.3802 -12.2253 -2.2698 0.9120
19.6333 -11.8815 -2.2732 0.9119
19.7988 -11.6496 -2.2755 0.9118
19.8807 -11.5328 -2.2767 0.9118
19.9618 -11.4155 -2.2779 0.9117
20.0424 -11.2977 -2.2790 0.9117
20.2016 -11.0604 -2.2814 0.9116
20.4354 -10.7005 -2.2850 0.9114
20.5120 -10.5795 -2.2862 0.9114
20.7379 -10.2135 -2.2899 0.9113
20.8118 -10.0905 -2.2911 0.9112
21.1007 -9.5934 -2.2961 0.9110
21.4462 -8.9611 -2.3024 0.9108
21.5132 -8.8332 -2.3037 0.9108
21.5794 -8.7048 -2.3050 0.9107
21.8998 -8.0562 -2.3115 0.9105
22.0229 -7.7936 -2.3141 0.9104
22.3741 -6.9954 -2.3221 0.9101
22.4851 -6.7260 -2.3248 0.9100
22.6459 -6.3188 -2.3289 0.9098
22.8492 -5.7704 -2.3345 0.9096
22.8981 -5.6324 -2.3358 0.9096
23.0400 -5.2160 -2.3400 0.9094
23.0857 -5.0764 -2.3414 0.9094
23.1746 -4.7963 -2.3443 0.9093
23.2603 -4.5147 -2.3471 0.9092
23.4977 -3.6621 -2.3557 0.9088
23.5701 -3.3754 -2.3586 0.9087
23.7365 -2.6533 -2.3659 0.9085
23.7970 -2.3624 -2.3689 0.9084
23.8260 -2.2166 -2.3703 0.9083
23.8542 -2.0705 -2.3718 0.9082
23.8814 -1.9241 -2.3733 0.9082
23.9078 -1.7775 -2.3748 0.9081
23.9333 -1.6306 -2.3763 0.9081
23.9817 -1.3362 -2.3793 0.9080
24.0046 -1.1886 -2.3808 0.9079
24.0266 -1.0408 -2.3823 0.9079
24.0680 -0.7445 -2.3853 0.9077
24.0873 -0.5960 -2.3868 0.9077
24.1233 -0.2984 -2.3898 0.9076
24.1706 0.1494 -2.3943 0.9074
24.1846 0.2991 -2.3959 0.9074
24.1977 0.4490 -2.3974 0.9073
24.2493 1.2007 -2.4050 0.9070
24.2740 1.8047 -2.4112 0.9068
24.2808 2.1074 -2.4142 0.9067
24.2828 2.2590 -2.4158 0.9066
24.2840 2.5624 -2.4189 0.9065
24.2788 3.0183 -2.4235 0.9063
24.2652 3.4748 -2.4282 0.9062
24.2337 4.0844 -2.4344 0.9059
24.2001 4.5420 -2.4391 0.9058
24.1870 4.6945 -2.4406 0.9057
24.1071 5.4574 -2.4484 0.9054
24.0683 5.7625 -2.4515 0.9053
24.0258 6.0675 -2.4547 0.9052
24.0030 6.2199 -2.4562 0.9051
23.9793 6.3723 -2.4578 0.9051
23.9546 6.5246 -2.4593 0.9050
23.9024 6.8289 -2.4624 0.9049
23.8462 7.1331 -2.4656 0.9048
23.8167 7.2850 -2.4671 0.9047
23.7861 7.4368 -2.4687 0.9047
23.6888 7.8917 -2.4733 0.9045
23.6543 8.0431 -2.4749 0.9045
23.5453 8.4965 -2.4795 0.9043
23.5069 8.6473 -2.4811 0.9042
23.4270 8.9481 -2.4842 0.9041
23.3860 9.0989 -2.4857 0.9041
23.2113 9.6986 -2.4919 0.9038
23.1180 9.9972 -2.4950 0.9037
23.0699 10.1462 -2.4965 0.9037
23.0208 10.2950 -2.4980 0.9036
22.9708 10.4436 -2.4996 0.9035
22.8677 10.7400 -2.5026 0.9034
22.8148 10.8878 -2.5041 0.9034
22.7607 11.0354 -2.5057 0.9033
22.4764 11.7692 -2.5132 0.9030
22.2941 12.2060 -2.5177 0.9029
22.2313 12.3510 -2.5192 0.9028
22.1677 12.4956 -2.5207 0.9028
22.1031 12.6400 -2.5222 0.9027
22.0375 12.7839 -2.5237 0.9027
21.9709 12.9276 -2.5252 0.9026
21.7654 13.3564 -2.5296 0.9024
21.6950 13.4985 -2.5311 0.9024
15.0026 9.4637 -1.7571 0.9312
14.8211 9.6075 -1.7496 0.9315
14.7309 9.6790 -1.7460 0.9316
14.6411 9.7502 -1.7425 0.9317
14.5517 9.8210 -1.7390 0.9319
14.4626 9.8916 -1.7357 0.9320
14.3738 9.9619 -1.7324 0.9321
14.2854 10.0320 -1.7292 0.9322
14.1973 10.1018 -1.7260 0.9324
14.1095 10.1714 -1.7230 0.9325
14.0220 10.2407 -1.7200 0.9326
13.9348 10.3097 -1.7171 0.9327
13.5031 10.6518 -1.7037 0.9332
13.4176 10.7196 -1.7012 0.9333
13.2472 10.8545 -1.6965 0.9335
12.9933 11.0557 -1.6900 0.9337
12.9091 11.1224 -1.6879 0.9338
12.8251 11.1889 -1.6859 0.9339
13.5247 12.5565 -1.8281 0.9285
14.2857 13.4285 -1.9422 0.9242
18.7444 18.0615 -2.5785 0.9007
17.9232 17.4852 -2.4804 0.9043
17.2635 17.2635 -2.4184 0.9065
16.9654 17.6068 -2.4220 0.9064
16.7627 17.8327 -2.4244 0.9063
16.5569 18.0561 -2.4267 0.9062
16.3478 18.2769 -2.4290 0.9061
16.1357 18.4951 -2.4313 0.9061
16.0285 18.6033 -2.4325 0.9060
15.1814 18.0673 -2.3376 0.9095
15.0672 18.1582 -2.3373 0.9095
12.2579 15.3430 -1.9453 0.9241
15.0354 19.5527 -2.4433 0.9056
14.9204 19.6535 -2.4443 0.9056
14.8048 19.7537 -2.4453 0.9055
14.5714 19.9518 -2.4473 0.9055
14.4536 20.0497 -2.4483 0.9054
14.3352 20.1469 -2.4493 0.9054
14.2160 20.2433 -2.4503 0.9054
14.0962 20.3389 -2.4513 0.9053
13.5191 19.7663 -2.3722 0.9082
12.5548 18.6022 -2.2231 0.9137
12.4466 18.6901 -2.2244 0.9137
12.3383 18.7782 -2.2257 0.9136
12.1218 18.9555 -2.2288 0.9135
12.0133 19.0443 -2.2305 0.9135
11.9047 19.1333 -2.2322 0.9134
11.7958 19.2223 -2.2341 0.9133
7.8734 13.0102 -1.5064 0.9407
10.6321 17.8165 -2.0552 0.9200
10.1266 17.2106 -1.9781 0.9229
7.5673 13.0447 -1.4939 0.9412
6.7468 11.9690 -1.3610 0.9463
6.6119 12.0764 -1.3638 0.9462
6.4014 11.8657 -1.3355 0.9472
6.2536 11.9428 -1.3354 0.9473
5.4646 10.9245 -1.2100 0.9521
5.2253 10.7772 -1.1864 0.9530
5.1833 10.8612 -1.1921 0.9528
5.0643 10.9585 -1.1958 0.9526
5.0045 11.0075 -1.1978 0.9526
4.9445 11.0565 -1.1998 0.9525
4.8844 11.1058 -1.2018 0.9524
4.7634 11.2047 -1.2060 0.9522
4.7026 11.2545 -1.2083 0.9522
3.6609 9.2397 -0.9845 0.9608
3.4067 9.0867 -0.9613 0.9617
3.3117 9.0025 -0.9502 0.9622
3.2340 8.9620 -0.9438 0.9624
3.0871 8.8979 -0.9329 0.9629
3.0148 8.8663 -0.9277 0.9631
2.9434 8.8351 -0.9225 0.9633
2.8727 8.8042 -0.9174 0.9635
2.7931 8.7432 -0.9092 0.9638
2.7317 8.7371 -0.9068 0.9639
2.6707 8.7312 -0.9044 0.9640
2.6100 8.7252 -0.9021 0.9641
2.3726 8.7109 -0.8943 0.9644
2.1544 8.7588 -0.8935 0.9644
1.6945 7.2758 -0.7400 0.9704
1.5930 7.2443 -0.7347 0.9706
1.5475 7.2509 -0.7344 0.9706
1.5056 7.2746 -0.7359 0.9706
1.4676 7.3188 -0.7394 0.9704
1.7424 8.9772 -0.9059 0.9639
1.5862 9.0688 -0.9120 0.9637
1.4830 9.1435 -0.9176 0.9635
1.4316 9.1857 -0.9209 0.9633
1.3798 9.2281 -0.9243 0.9632
1.2751 9.3140 -0.9312 0.9629
1.2221 9.3575 -0.9348 0.9628
1.1688 9.4012 -0.9384 0.9626
1.0061 9.5346 -0.9497 0.9622
0.9510 9.5798 -0.9536 0.9620
0.8955 9.6254 -0.9576 0.9619
0.7829 9.7176 -0.9657 0.9616
0.7260 9.7643 -0.9699 0.9614
0.6105 9.8590 -0.9785 0.9611
0.0637 10.3074 -1.0210 0.9594
-0.0644 10.4124 -1.0315 0.9590
-0.6048 10.8555 -1.0770 0.9572
-0.8202 11.0321 -1.0958 0.9565
-0.8937 11.0924 -1.1024 0.9563
-0.9681 11.1534 -1.1090 0.9560
-1.1967 11.3408 -1.1296 0.9552
-1.2748 11.4049 -1.1368 0.9549
-1.3539 11.4697 -1.1441 0.9546
-1.6809 11.7378 -1.1746 0.9535
-1.7654 11.8071 -1.1826 0.9531
-1.8511 11.8773 -1.1907 0.9528
-2.2831 12.1645 -1.2260 0.9515
-2.7150 12.7214 -1.2885 0.9491
-3.0027 12.8928 -1.3113 0.9482
-3.4142 13.1756 -1.3483 0.9468
-3.4971 13.1597 -1.3488 0.9467
-3.7480 13.4323 -1.3814 0.9455
-3.8148 13.3524 -1.3756 0.9457
-3.8808 13.2721 -1.3698 0.9459
-3.9462 13.1924 -1.3640 0.9462
-4.1125 13.1533 -1.3651 0.9461
-4.3572 13.3539 -1.3914 0.9451
-4.4832 13.4571 -1.4051 0.9446
-4.6116 13.5624 -1.4190 0.9440
-4.7427 13.6699 -1.4333 0.9435
-5.4554 15.1179 -1.5921 0.9374
-5.6071 15.2422 -1.6088 0.9368
-5.7619 15.3691 -1.6259 0.9362
-5.9201 15.4988 -1.6435 0.9355
-6.0818 15.6313 -1.6615 0.9348
-6.4159 15.9052 -1.6989 0.9334
-6.9466 16.3401 -1.7588 0.9311
-5.8505 13.5289 -1.4601 0.9425
-6.0040 13.6515 -1.4773 0.9418
-7.7156 16.9704 -1.8466 0.9278
-7.9200 17.1380 -1.8702 0.9269
-6.2405 13.2874 -1.4542 0.9427
-6.4008 13.2018 -1.4533 0.9427
-6.4804 13.1581 -1.4529 0.9427
-6.5598 13.1139 -1.4525 0.9428
-6.6388 13.0692 -1.4521 0.9428
-6.7958 12.9783 -1.4512 0.9428
-6.8738 12.9321 -1.4507 0.9428
-7.0288 12.8380 -1.4498 0.9429
-7.1175 12.0965 -1.3903 0.9451
-5.9081 9.9004 -1.1421 0.9547
-7.3594 12.1610 -1.4081 0.9445
-12.9568 21.1142 -2.4539 0.9052
-10.7731 16.8464 -1.9808 0.9228
-13.5300 20.8720 -2.4639 0.9049
-11.7801 17.6892 -2.1053 0.9181
-10.8385 16.0593 -1.9192 0.9251
-11.1997 15.5359 -1.8972 0.9259
-11.3664 15.5633 -1.9090 0.9255
-12.3322 16.2443 -2.0203 0.9213
-14.3056 18.3675 -2.3062 0.9107
-15.6789 19.1349 -2.4505 0.9053
-15.7902 19.0295 -2.4495 0.9054
-15.9009 18.9235 -2.4484 0.9054
-16.0107 18.8167 -2.4474 0.9055
-16.1199 18.7093 -2.4463 0.9055
-16.3357 18.4923 -2.4442 0.9056
-16.4425 18.3828 -2.4431 0.9056
-16.5485 18.2727 -2.4420 0.9057
-9.6738 10.1646 -1.3900 0.9452
-9.7477 10.1163 -1.3916 0.9451
-9.7784 9.6582 -1.3614 0.9463
-10.2630 9.7674 -1.4035 0.9446
-10.4145 9.7896 -1.4159 0.9442
-11.4263 10.0938 -1.5103 0.9406
-16.0387 13.6470 -2.0861 0.9188
-18.7413 15.5511 -2.4124 0.9067
-18.8275 15.4270 -2.4111 0.9068
-19.0808 15.0516 -2.4074 0.9069
-19.1635 14.9255 -2.4061 0.9070
-19.2453 14.7990 -2.4049 0.9070
-19.3263 14.6719 -2.4036 0.9071
-19.4064 14.5444 -2.4023 0.9071
-19.4855 14.4165 -2.4011 0.9072
-19.6413 14.1592 -2.3985 0.9073
-21.0546 14.9811 -2.5597 0.9013
-21.1354 14.8425 -2.5583 0.9014
-21.2153 14.7035 -2.5569 0.9014
-21.4491 14.2839 -2.5527 0.9016
-21.6002 14.0021 -2.5499 0.9017
-21.6743 13.8605 -2.5485 0.9018
-21.7475 13.7185 -2.5471 0.9018
-21.8197 13.5761 -2.5456 0.9019
-21.9612 13.2902 -2.5428 0.9020
-22.0305 13.1467 -2.5413 0.9020
-22.0987 13.0028 -2.5399 0.9021
-22.1661 12.8586 -2.5384 0.9021
-22.2325 12.7140 -2.5370 0.9022
-22.3623 12.4238 -2.5341 0.9023
-22.4882 12.1322 -2.5311 0.9024
-22.6102 11.8393 -2.5282 0.9025
-22.6698 11.6924 -2.5267 0.9026
-23.2110 10.2083 -2.5118 0.9031
-23.3074 9.9085 -2.5088 0.9032
-23.5310 9.1554 -2.5012 0.9035
-23.6922 8.5496 -2.4950 0.9037
-23.7300 8.3977 -2.4935 0.9038
-23.7668 8.2457 -2.4920 0.9038
-23.9042 7.6364 -2.4858 0.9041
-23.9361 7.4837 -2.4843 0.9041
-23.9671 7.3311 -2.4827 0.9042
-23.9969 7.1782 -2.4812 0.9042
-24.0259 7.0253 -2.4796 0.9043
-24.0538 6.8723 -2.4781 0.9043
-24.0808 6.7192 -2.4765 0.9044
-24.1068 6.5660 -2.4750 0.9044
-24.1557 6.2595 -2.4719 0.9046
-24.1788 6.1062 -2.4703 0.9046
-24.2008 5.9528 -2.4687 0.9047
-24.2219 5.7993 -2.4672 0.9047
-24.2420 5.6459 -2.4656 0.9048
-24.3278 4.8782 -2.4578 0.9051
-24.3677 4.4176 -2.4532 0.9052
-24.3790 4.2641 -2.4516 0.9053
-24.3894 4.1106 -2.4500 0.9054
-24.3989 3.9572 -2.4485 0.9054
-24.4147 3.6505 -2.4454 0.9055
-24.4213 3.4972 -2.4438 0.9056
-24.4315 3.1908 -2.4407 0.9057
-24.4352 3.0378 -2.4391 0.9058
-24.4404 2.5790 -2.4345 0.9059
-24.4403 2.4262 -2.4329 0.9060
-24.4371 2.1210 -2.4298 0.9061
-24.4302 1.8163 -2.4267 0.9062
-24.4253 1.6641 -2.4251 0.9063
-24.4051 1.2084 -2.4205 0.9065
-24.3870 0.9053 -2.4174 0.9066
-24.3529 0.4518 -2.4128 0.9067
-24.3396 0.3010 -2.4112 0.9068
-24.3255 0.1504 -2.4097 0.9068
-22.5937 0.0000 -2.4076 0.9131
-22.5651 -0.2791 -2.4048 0.9132
-22.4389 -1.2502 -2.3948 0.9136
-22.3953 -1.5258 -2.3920 0.9137
-22.3723 -1.6633 -2.3906 0.9137
-22.3237 -1.9376 -2.3878 0.9138
-22.2982 -2.0744 -2.3864 0.9139
-22.2719 -2.2110 -2.3850 0.9139
-22.2168 -2.4834 -2.3822 0.9140
-22.1881 -2.6192 -2.3808 0.9140
-22.1585 -2.7548 -2.3794 0.9141
-22.0969 -3.0251 -2.3766 0.9142
-22.0650 -3.1598 -2.3753 0.9142
-21.9986 -3.4285 -2.3725 0.9143
-21.9291 -3.6960 -2.3698 0.9144
-21.8932 -3.8294 -2.3684 0.9145
-21.7018 -4.4915 -2.3616 0.9147
-21.6198 -4.7541 -2.3589 0.9148
-21.5777 -4.8849 -2.3575 0.9148
-21.5349 -5.0154 -2.3562 0.9149
-21.4016 -5.4048 -2.3522 0.9150
-21.3557 -5.5339 -2.3508 0.9151
-21.2135 -5.9191 -2.3469 0.9152
-21.1646 -6.0468 -2.3456 0.9153
-21.0646 -6.3011 -2.3429 0.9154
-21.0135 -6.4277 -2.3416 0.9154
-20.9617 -6.5538 -2.3403 0.9154
-20.9092 -6.6797 -2.3390 0.9155
-20.7473 -7.0547 -2.3352 0.9156
-20.6919 -7.1789 -2.3339 0.9157
-20.6358 -7.3028 -2.3326 0.9157
-20.5790 -7.4262 -2.3313 0.9158
-20.5214 -7.5492 -2.3301 0.9158
-20.4632 -7.6718 -2.3288 0.9158
-20.4043 -7.7939 -2.3275 0.9159
-20.2235 -8.1579 -2.3238 0.9160
-19.9084 -8.7559 -2.3176 0.9162
-19.7777 -8.9919 -2.3151 0.9163
-19.7114 -9.1092 -2.3139 0.9164
-19.6443 -9.2262 -2.3127 0.9164
-19.5767 -9.3426 -2.3115 0.9164
-19.4394 -9.5740 -2.3091 0.9165
-19.3698 -9.6891 -2.3079 0.9166
-19.1572 -10.0313 -2.3043 0.9167
-19.0123 -10.2570 -2.3020 0.9168
-18.8649 -10.4807 -2.2997 0.9168
-18.7903 -10.5919 -2.2985 0.9169
-18.7151 -10.7026 -2.2974 0.9169
-18.6392 -10.8126 -2.2962 0.9170
-18.5628 -10.9223 -2.2951 0.9170
-18.4857 -11.0314 -2.2939 0.9170
-18.1715 -11.4628 -2.2895 0.9172
-17.9298 -11.7809 -2.2861 0.9173
-17.8480 -11.8858 -2.2850 0.9174
-17.5154 -12.3003 -2.2807 0.9175
-17.4308 -12.4026 -2.2796 0.9175
-17.3456 -12.5043 -2.2786 0.9176
-17.1737 -12.7061 -2.2765 0.9177
-17.0869 -12.8062 -2.2754 0.9177
-16.9996 -12.9057 -2.2744 0.9177
-16.9118 -13.0046 -2.2734 0.9178
-16.6451 -13.2982 -2.2703 0.9179
-16.2822 -13.6815 -2.2663 0.9180
-16.1902 -13.7759 -2.2653 0.9180
-16.0977 -13.8698 -2.2643 0.9181
-16.0047 -13.9630 -2.2633 0.9181
-15.6278 -14.3301 -2.2594 0.9182
-15.0479 -14.8630 -2.2538 0.9184
-14.9497 -14.9497 -2.2529 0.9185
-14.8510 -15.0358 -2.2520 0.9185
-14.7517 -15.1213 -2.2511 0.9185
-14.6521 -15.2062 -2.2502 0.9186
-14.5521 -15.2904 -2.2493 0.9186
-14.1474 -15.6214 -2.2458 0.9187
-14.0451 -15.7026 -2.2450 0.9187
-13.9425 -15.7831 -2.2441 0.9188
-13.7358 -15.9424 -2.2424 0.9188
-13.6319 -16.0210 -2.2416 0.9189
-13.4228 -16.1765 -2.2399 0.9189
-13.2121 -16.3294 -2.2383 0.9190
-12.0259 -17.1247 -2.2298 0.9193
-11.8054 -17.2608 -2.2284 0.9193
-11.5836 -17.3944 -2.2270 0.9194
-11.2189 -17.5437 -2.2190 0.9196
-11.0887 -17.5787 -2.2148 0.9198
-10.9590 -17.6135 -2.2106 0.9199
-10.8298 -17.6482 -2.2065 0.9201
-10.5700 -17.7126 -2.1980 0.9204
-10.3115 -17.7754 -2.1898 0.9207
-10.0549 -17.8377 -2.1820 0.9209
-9.9272 -17.8687 -2.1782 0.9211
-9.5434 -17.9545 -2.1667 0.9215
-9.2889 -18.0098 -2.1594 0.9217
-9.1624 -18.0373 -2.1558 0.9218
-8.7839 -18.1171 -2.1455 0.9222
-8.2808 -18.2136 -2.1320 0.9227
-8.0314 -18.2614 -2.1258 0.9229
-7.9072 -18.2850 -2.1228 0.9230
-7.5333 -18.3473 -2.1135 0.9233
-7.4094 -18.3680 -2.1106 0.9234
-7.2858 -18.3886 -2.1077 0.9235
-7.0395 -18.4295 -2.1023 0.9237
-6.9166 -18.4491 -2.0996 0.9238
-6.7932 -18.4666 -2.0967 0.9239
-6.6702 -18.4841 -2.0940 0.9240
-6.5474 -18.5015 -2.0913 0.9241
-6.3028 -18.5361 -2.0863 0.9243
-6.1809 -18.5533 -2.0839 0.9243
-5.9376 -18.5866 -2.0792 0.9245
-5.6942 -18.6159 -2.0745 0.9247
-5.5732 -18.6316 -2.0723 0.9248
-5.3320 -18.6626 -2.0683 0.9249
-5.2117 -18.6780 -2.0664 0.9250
-4.9714 -18.7077 -2.0627 0.9251
-4.6140 -18.7580 -2.0585 0.9252
-4.2634 -18.8324 -2.0576 0.9253
-4.0290 -18.8787 -2.0570 0.9253
-3.7943 -18.9224 -2.0565 0.9253
-3.5591 -18.9633 -2.0560 0.9253
-3.4414 -18.9828 -2.0558 0.9253
-3.3235 -19.0016 -2.0556 0.9253
-2.9695 -19.0540 -2.0549 0.9254
-2.6148 -19.1003 -2.0543 0.9254
-2.2594 -19.1407 -2.0538 0.9254
-1.9035 -19.1750 -2.0533 0.9254
-1.7848 -19.1851 -2.0532 0.9254
-1.1904 -19.2255 -2.0526 0.9254
-0.9525 -19.2370 -2.0524 0.9254
-0.8335 -19.2417 -2.0523 0.9255
-0.7144 -19.2457 -2.0523 0.9255
-0.5954 -19.2491 -2.0522 0.9255
-0.4763 -19.2518 -2.0521 0.9255
-0.2381 -19.2552 -2.0520 0.9255
-0.1191 -19.2559 -2.0520 0.9255
0.0000 -19.2559 -2.0519 0.9255
0.1191 -19.2552 -2.0519 0.9255
0.2382 -19.2539 -2.0519 0.9255
0.3572 -19.2519 -2.0518 0.9255
0.8333 -19.2371 -2.0518 0.9255
1.0712 -19.2258 -2.0519 0.9255
1.1901 -19.2191 -2.0519 0.9255
1.4278 -19.2036 -2.0520 0.9255
1.6653 -19.1855 -2.0521 0.9255
2.0211 -19.1533 -2.0523 0.9255
2.1396 -19.1413 -2.0524 0.9254
2.3764 -19.1151 -2.0526 0.9254
2.6129 -19.0863 -2.0528 0.9254
2.9671 -19.0380 -2.0532 0.9254
3.5556 -18.9443 -2.0540 0.9254
3.7903 -18.9022 -2.0543 0.9254
4.7243 -18.7070 -2.0560 0.9253
4.9565 -18.6516 -2.0565 0.9253
5.0724 -18.6229 -2.0568 0.9253
5.1881 -18.5935 -2.0570 0.9253
5.5344 -18.5015 -2.0579 0.9253
5.6495 -18.4695 -2.0581 0.9252
5.7644 -18.4369 -2.0584 0.9252
5.8792 -18.4036 -2.0587 0.9252
5.9938 -18.3697 -2.0591 0.9252
6.3372 -18.2658 -2.0602 0.9252
6.4559 -18.2430 -2.0621 0.9251
6.5750 -18.2202 -2.0641 0.9250
6.9312 -18.1458 -2.0699 0.9248
7.0501 -18.1200 -2.0719 0.9248
7.2885 -18.0681 -2.0761 0.9246
7.4083 -18.0428 -2.0784 0.9245
7.8892 -17.9379 -2.0882 0.9242
8.2511 -17.8544 -2.0959 0.9239
8.4939 -17.7983 -2.1015 0.9237
8.6156 -17.7698 -2.1044 0.9236
8.7365 -17.7388 -2.1071 0.9235
8.8577 -17.7078 -2.1099 0.9234
9.2232 -17.6139 -2.1187 0.9231
9.4686 -17.5509 -2.1250 0.9229
9.7134 -17.4837 -2.1313 0.9227
10.0819 -17.3796 -2.1410 0.9224
10.2055 -17.3446 -2.1445 0.9222
10.3295 -17.3095 -2.1480 0.9221
10.5775 -17.2370 -2.1550 0.9219
10.7010 -17.1988 -2.1585 0.9217
10.9493 -17.1220 -2.1657 0.9215
11.0741 -17.0834 -2.1694 0.9214
11.1993 -17.0447 -2.1733 0.9212
11.3249 -17.0058 -2.1772 0.9211
11.4506 -16.9661 -2.1811 0.9210
11.5753 -16.9242 -2.1849 0.9208
11.7004 -16.8822 -2.1888 0.9207
12.2054 -16.7123 -2.2052 0.9201
12.3329 -16.6694 -2.2096 0.9200
12.4591 -16.6240 -2.2138 0.9198
12.8399 -16.4856 -2.2267 0.9194
12.9555 -16.4236 -2.2291 0.9193
13.0611 -16.3485 -2.2298 0.9193
13.4795 -16.0419 -2.2328 0.9192
13.7891 -15.8054 -2.2351 0.9191
13.8914 -15.7254 -2.2359 0.9191
13.9934 -15.6447 -2.2367 0.9190
14.0948 -15.5634 -2.2375 0.9190
14.2965 -15.3989 -2.2391 0.9189
14.3967 -15.3158 -2.2399 0.9189
14.5958 -15.1477 -2.2416 0.9189
14.6947 -15.0628 -2.2424 0.9188
15.0856 -14.7170 -2.2458 0.9187
15.1822 -14.6290 -2.2467 0.9187
15.3739 -14.4514 -2.2484 0.9186
15.5637 -14.2714 -2.2502 0.9186
15.6579 -14.1805 -2.2511 0.9185
15.7516 -14.0890 -2.2520 0.9185
16.1215 -13.7174 -2.2556 0.9184
16.3936 -13.4327 -2.2585 0.9183
16.4833 -13.3367 -2.2594 0.9182
16.5725 -13.2401 -2.2604 0.9182
16.8368 -12.9470 -2.2633 0.9181
16.9239 -12.8481 -2.2642 0.9181
17.0104 -12.7488 -2.2652 0.9180
17.1819 -12.5485 -2.2672 0.9180
17.2667 -12.4474 -2.2682 0.9179
17.5181 -12.1412 -2.2713 0.9178
17.7645 -11.8302 -2.2743 0.9177
17.8455 -11.7255 -2.2754 0.9177
18.0849 -11.4082 -2.2785 0.9176
18.3192 -11.0863 -2.2817 0.9175
18.3962 -10.9780 -2.2828 0.9174
18.4725 -10.8692 -2.2839 0.9174
18.5481 -10.7598 -2.2850 0.9174
18.6978 -10.5397 -2.2872 0.9173
18.9176 -10.2059 -2.2905 0.9172
18.9896 -10.0936 -2.2916 0.9171
19.0610 -9.9809 -2.2928 0.9171
19.1318 -9.8677 -2.2939 0.9170
19.2715 -9.6399 -2.2962 0.9170
19.4086 -9.4102 -2.2985 0.9169
19.6096 -9.0622 -2.3020 0.9168
19.8046 -8.7102 -2.3055 0.9166
19.8682 -8.5919 -2.3067 0.9166
19.9313 -8.4733 -2.3078 0.9166
20.1163 -8.1147 -2.3114 0.9164
20.1766 -7.9943 -2.3126 0.9164
20.2953 -7.7523 -2.3151 0.9163
20.3535 -7.6306 -2.3163 0.9163
20.4111 -7.5086 -2.3175 0.9162
20.4680 -7.3861 -2.3188 0.9162
20.5242 -7.2632 -2.3200 0.9161
20.5797 -7.1400 -2.3212 0.9161
20.6345 -7.0164 -2.3225 0.9161
20.6885 -6.8923 -2.3237 0.9160
20.8466 -6.5179 -2.3275 0.9159
21.0472 -6.0133 -2.3325 0.9157
21.0956 -5.8863 -2.3338 0.9157
21.2816 -5.3745 -2.3390 0.9155
21.3263 -5.2457 -2.3403 0.9154
21.3702 -5.1166 -2.3416 0.9154
21.4557 -4.8573 -2.3442 0.9153
21.5383 -4.5967 -2.3468 0.9152
21.5784 -4.4659 -2.3481 0.9152
21.6564 -4.2035 -2.3508 0.9151
21.6942 -4.0717 -2.3521 0.9150
21.7313 -3.9397 -2.3535 0.9150
21.8032 -3.6748 -2.3561 0.9149
21.8379 -3.5419 -2.3575 0.9149
21.8719 -3.4087 -2.3588 0.9148
21.9375 -3.1416 -2.3615 0.9147
21.9999 -2.8733 -2.3642 0.9146
22.0591 -2.6040 -2.3670 0.9145
22.0875 -2.4689 -2.3683 0.9145
22.1151 -2.3337 -2.3697 0.9144
22.1420 -2.1981 -2.3711 0.9144
22.2176 -1.7901 -2.3752 0.9142
22.2639 -1.5169 -2.3780 0.9141
22.3469 -0.9680 -2.3835 0.9140
22.3655 -0.8303 -2.3849 0.9139
22.3833 -0.6924 -2.3863 0.9139
22.4003 -0.5543 -2.3877 0.9138
22.4165 -0.4160 -2.3891 0.9138
22.4318 -0.2775 -2.3905 0.9137
22.4600 -0.0001 -2.3934 0.9136
22.4848 0.2781 -2.3962 0.9135
22.4959 0.4174 -2.3976 0.9135
22.5156 0.6964 -2.4004 0.9134
22.5242 0.8362 -2.4018 0.9133
22.5543 1.5366 -2.4090 0.9131
22.5577 1.6771 -2.4104 0.9130
22.5620 1.9582 -2.4133 0.9129
22.5629 2.0990 -2.4147 0.9129
22.5620 2.3807 -2.4176 0.9128
22.5576 2.6628 -2.4204 0.9127
22.5540 2.8039 -2.4219 0.9126
22.5445 3.0863 -2.4248 0.9125
22.5383 3.2276 -2.4262 0.9125
22.5313 3.3689 -2.4276 0.9124
22.5234 3.5102 -2.4291 0.9124
22.4944 3.9345 -2.4334 0.9122
22.4830 4.0759 -2.4349 0.9122
22.4707 4.2174 -2.4363 0.9121
22.4285 4.6418 -2.4406 0.9120
22.3958 4.9246 -2.4435 0.9119
22.2765 5.7725 -2.4522 0.9116
22.2535 5.9136 -2.4536 0.9115
22.2048 6.1957 -2.4565 0.9114
22.1791 6.3366 -2.4580 0.9114
22.1249 6.6182 -2.4609 0.9113
22.0672 6.8994 -2.4637 0.9112
22.0371 7.0400 -2.4652 0.9111
22.0058 7.1802 -2.4666 0.9111
21.9738 7.3204 -2.4681 0.9110
21.9071 7.6004 -2.4709 0.9109
21.7628 8.1589 -2.4767 0.9107
21.6851 8.4371 -2.4795 0.9106
21.6450 8.5760 -2.4810 0.9106
21.5620 8.8532 -2.4838 0.9105
21.4755 9.1297 -2.4867 0.9104
21.3388 9.5428 -2.4909 0.9103
21.2914 9.6801 -2.4923 0.9102
21.0931 10.2268 -2.4979 0.9100
21.0412 10.3629 -2.4993 0.9100
20.8803 10.7695 -2.5035 0.9098
20.8249 10.9045 -2.5049 0.9098
20.7686 11.0392 -2.5063 0.9097
20.4736 11.7081 -2.5132 0.9095
20.3494 11.9735 -2.5160 0.9094
20.2217 12.2376 -2.5187 0.9093
14.9107 9.5352 -1.8860 0.9313
14.8201 9.6069 -1.8820 0.9314
14.5508 9.8204 -1.8706 0.9318
14.4616 9.8910 -1.8670 0.9319
14.1086 10.1707 -1.8534 0.9324
14.0212 10.2400 -1.8501 0.9325
13.9340 10.3091 -1.8470 0.9327
13.7605 10.4466 -1.8410 0.9329
13.6742 10.5150 -1.8381 0.9330
13.5881 10.5831 -1.8353 0.9331
13.5023 10.6511 -1.8326 0.9332
13.3315 10.7865 -1.8274 0.9333
13.1615 10.9211 -1.8225 0.9335
12.8243 11.1883 -1.8135 0.9338
12.7405 11.2547 -1.8115 0.9339
12.6569 11.3209 -1.8095 0.9340
12.6593 11.4648 -1.8200 0.9336
13.5292 12.5606 -1.9672 0.9284
14.2906 13.4330 -2.0900 0.9241
17.4288 16.5872 -2.5639 0.9078
15.9628 15.9627 -2.4056 0.9132
15.8711 16.0685 -2.4067 0.9132
15.7786 16.1738 -2.4078 0.9131
15.5915 16.3825 -2.4100 0.9130
15.4015 16.5890 -2.4121 0.9130
15.0129 16.9948 -2.4164 0.9128
14.9140 17.0948 -2.4174 0.9128
14.8144 17.1941 -2.4185 0.9127
14.6182 17.3970 -2.4214 0.9126
14.5163 17.4942 -2.4224 0.9126
14.3104 17.6867 -2.4244 0.9125
14.2065 17.7821 -2.4253 0.9125
14.1018 17.8767 -2.4263 0.9125
13.8906 18.0639 -2.4282 0.9124
13.7840 18.1566 -2.4292 0.9124
13.6767 18.2485 -2.4301 0.9123
13.5688 18.3398 -2.4310 0.9123
13.4602 18.4303 -2.4320 0.9123
13.2412 18.6094 -2.4338 0.9122
13.1307 18.6978 -2.4347 0.9122
12.9079 18.8726 -2.4365 0.9121
12.5542 18.6013 -2.3914 0.9137
12.4460 18.6892 -2.3927 0.9136
12.3377 18.7773 -2.3942 0.9136
12.2293 18.8656 -2.3958 0.9135
12.1210 18.9543 -2.3975 0.9135
7.9300 12.7451 -1.5996 0.9414
7.7851 12.8643 -1.6023 0.9413
7.7125 12.9241 -1.6038 0.9413
7.6397 12.9840 -1.6053 0.9412
7.5132 13.1381 -1.6128 0.9409
6.3658 11.7996 -1.4287 0.9475
6.3189 11.8881 -1.4346 0.9473
5.5845 10.6650 -1.2829 0.9527
5.4941 10.8158 -1.2927 0.9524
5.3425 10.6804 -1.2726 0.9531
5.2422 10.8121 -1.2804 0.9528
5.1830 10.8606 -1.2823 0.9527
4.9443 11.0559 -1.2906 0.9524
4.8841 11.1051 -1.2928 0.9524
4.8237 11.1545 -1.2950 0.9523
4.7023 11.2538 -1.2997 0.9521
4.6413 11.3037 -1.3021 0.9520
4.5800 11.3538 -1.3046 0.9519
3.6606 9.2390 -1.0590 0.9608
3.6029 9.2601 -1.0588 0.9608
3.4062 9.0856 -1.0340 0.9617
3.3113 9.0014 -1.0220 0.9622
3.2337 8.9612 -1.0152 0.9624
3.0867 8.8970 -1.0035 0.9628
3.0145 8.8654 -0.9978 0.9630
2.9431 8.8343 -0.9923 0.9632
2.6869 8.7841 -0.9788 0.9637
2.6258 8.7781 -0.9764 0.9638
2.5045 8.7662 -0.9715 0.9640
2.3312 8.7723 -0.9672 0.9641
2.2214 8.7963 -0.9668 0.9642
2.1118 8.8204 -0.9665 0.9642
1.6942 7.2746 -0.7959 0.9704
1.6409 7.2484 -0.7919 0.9705
1.5473 7.2501 -0.7900 0.9706
1.7423 8.9766 -0.9744 0.9639
1.6905 9.0070 -0.9766 0.9638
1.6384 9.0375 -0.9787 0.9637
1.5861 9.0681 -0.9810 0.9636
1.3275 9.2703 -0.9979 0.9630
1.2221 9.3568 -1.0055 0.9628
1.1149 9.4447 -1.0134 0.9625
0.9509 9.5791 -1.0258 0.9620
0.8954 9.6247 -1.0300 0.9619
0.7259 9.7637 -1.0433 0.9614
0.6104 9.8583 -1.0525 0.9610
0.4929 9.9547 -1.0621 0.9607
0.4333 10.0036 -1.0670 0.9605
0.3125 10.1026 -1.0771 0.9602
0.2512 10.1529 -1.0822 0.9600
0.1268 10.2548 -1.0928 0.9596
0.0637 10.3066 -1.0983 0.9594
-0.1294 10.4650 -1.1152 0.9588
-0.1952 10.5189 -1.1211 0.9586
-0.2616 10.5733 -1.1271 0.9583
-0.3287 10.6284 -1.1331 0.9581
-0.4652 10.7403 -1.1456 0.9577
-0.6757 10.9129 -1.1651 0.9570
-0.8936 11.0915 -1.1858 0.9562
-0.9680 11.1525 -1.1929 0.9560
-1.0432 11.2142 -1.2002 0.9557
-1.1195 11.2766 -1.2076 0.9554
-1.3538 11.4688 -1.2306 0.9546
-1.4339 11.5345 -1.2386 0.9543
-1.5974 11.6684 -1.2550 0.9537
-1.6808 11.7368 -1.2634 0.9534
-1.7652 11.8060 -1.2720 0.9531
-1.9378 11.9475 -1.2898 0.9525
-2.1152 12.0929 -1.3082 0.9518
-2.1915 12.0885 -1.3092 0.9518
-2.4224 12.4806 -1.3548 0.9501
-2.5069 12.5018 -1.3587 0.9500
-2.6158 12.6392 -1.3754 0.9494
-2.9172 12.8863 -1.4079 0.9482
-3.1263 13.0576 -1.4308 0.9474
-3.2334 13.1454 -1.4425 0.9470
-3.3423 13.2346 -1.4546 0.9466
-3.4140 13.1748 -1.4503 0.9467
-3.7476 13.4309 -1.4859 0.9455
-3.8806 13.2712 -1.4734 0.9459
-3.9460 13.1916 -1.4672 0.9461
-4.0109 13.1126 -1.4612 0.9463
-4.1120 13.1519 -1.4684 0.9461
-4.2332 13.2512 -1.4824 0.9456
-4.3567 13.3525 -1.4967 0.9451
-4.4827 13.4557 -1.5113 0.9445
-4.6111 13.5610 -1.5263 0.9440
-4.8758 13.7779 -1.5574 0.9429
-5.7613 15.3674 -1.7489 0.9361
-6.0810 15.6295 -1.7871 0.9348
-6.2462 15.7648 -1.8070 0.9341
-6.4152 15.9033 -1.8274 0.9333
-6.5880 16.0449 -1.8483 0.9326
-6.9457 16.3381 -1.8918 0.9311
-5.8419 13.5090 -1.5684 0.9425
-6.1524 13.7575 -1.6059 0.9412
-7.7146 16.9682 -1.9863 0.9278
-7.9190 17.1357 -2.0116 0.9269
-8.1286 17.3076 -2.0376 0.9260
-6.7817 14.2107 -1.6779 0.9386
-6.9192 14.0489 -1.6688 0.9389
-6.9992 13.9924 -1.6672 0.9390
-6.5888 12.5830 -1.5136 0.9445
-6.7365 12.4867 -1.5119 0.9445
-6.8222 12.4607 -1.5138 0.9445
-6.9083 12.4346 -1.5158 0.9444
-7.1263 12.1114 -1.4974 0.9450
-5.9978 9.9109 -1.2345 0.9545
-12.0444 19.6274 -2.4539 0.9115
-8.1010 12.8423 -1.6180 0.9407
-12.5100 19.2985 -2.4507 0.9116
-10.8325 16.0503 -2.0634 0.9251
-12.9660 18.9576 -2.4474 0.9117
-13.0784 18.8705 -2.4466 0.9118
-11.5021 16.1653 -2.1141 0.9233
-11.6600 16.1745 -2.1247 0.9229
-13.4657 18.4379 -2.4330 0.9122
-11.5770 15.6477 -2.0742 0.9247
-13.7400 18.3331 -2.4414 0.9120
-12.3292 16.2404 -2.1728 0.9213
-13.5887 17.6714 -2.3754 0.9142
-14.0621 18.0549 -2.4387 0.9121
-14.1682 17.9608 -2.4377 0.9121
-14.2735 17.8661 -2.4368 0.9121
-14.4822 17.6745 -2.4349 0.9122
-14.5856 17.5778 -2.4340 0.9122
-14.6883 17.4804 -2.4330 0.9122
-14.7902 17.3823 -2.4321 0.9123
-14.9921 17.1843 -2.4301 0.9123
-15.2896 16.8825 -2.4271 0.9124
-8.7206 9.2773 -1.3568 0.9501
-9.5208 9.4038 -1.4260 0.9476
-9.7467 9.3916 -1.4423 0.9470
-9.6328 9.1676 -1.4170 0.9479
-10.0544 9.4511 -1.4704 0.9460
-10.4280 9.6815 -1.5163 0.9444
-11.4026 10.3267 -1.6393 0.9400
-10.6297 9.5077 -1.5197 0.9442
-11.4313 10.0982 -1.6254 0.9405
-12.4240 10.8391 -1.7569 0.9358
-13.5716 11.6932 -1.9090 0.9305
-14.7295 12.5330 -2.0609 0.9252
-16.1747 13.5912 -2.2513 0.9185
-17.4129 14.2679 -2.3989 0.9134
-17.4925 14.1532 -2.3977 0.9135
-17.7264 13.8063 -2.3943 0.9136
-17.8028 13.6897 -2.3931 0.9136
-18.0272 13.3375 -2.3896 0.9137
-19.4811 13.8614 -2.5478 0.9083
-19.6314 13.6058 -2.5452 0.9084
-19.7781 13.3484 -2.5427 0.9085
-19.9917 12.9593 -2.5388 0.9086
-20.0611 12.8288 -2.5375 0.9087
-20.1296 12.6979 -2.5362 0.9087
-20.1974 12.5667 -2.5348 0.9087
-20.2641 12.4351 -2.5335 0.9088
-20.5223 11.9050 -2.5282 0.9090
-20.5846 11.7716 -2.5269 0.9090
-20.6461 11.6379 -2.5255 0.9091
-20.9398 10.9646 -2.5188 0.9093
-21.1052 10.5570 -2.5147 0.9094
-21.1585 10.4206 -2.5133 0.9095
-21.2109 10.2840 -2.5119 0.9095
-21.3131 10.0098 -2.5092 0.9096
-21.3627 9.8724 -2.5078 0.9097
-21.4115 9.7347 -2.5064 0.9097
-21.4594 9.5968 -2.5050 0.9098
-21.5064 9.4586 -2.5036 0.9098
-21.6419 9.0428 -2.4994 0.9100
-21.6852 8.9038 -2.4980 0.9100
-21.8098 8.4857 -2.4938 0.9102
-21.8495 8.3459 -2.4924 0.9102
-21.8882 8.2060 -2.4910 0.9103
-21.9261 8.0659 -2.4895 0.9103
-22.0684 7.5039 -2.4839 0.9105
-22.1018 7.3631 -2.4824 0.9105
-22.1342 7.2221 -2.4810 0.9106
-22.1656 7.0810 -2.4796 0.9106
-22.1962 6.9398 -2.4782 0.9107
-22.2546 6.6570 -2.4753 0.9108
-22.2824 6.5155 -2.4739 0.9108
-22.3094 6.3739 -2.4724 0.9109
-22.3354 6.2322 -2.4710 0.9109
-22.4080 5.8066 -2.4667 0.9111
-22.4304 5.6646 -2.4652 0.9111
-22.5109 5.0961 -2.4595 0.9113
-22.5457 4.8117 -2.4566 0.9114
-22.5617 4.6694 -2.4552 0.9115
-22.6045 4.2425 -2.4508 0.9116
-22.6392 3.8157 -2.4465 0.9118
-22.6658 3.3890 -2.4421 0.9119
-22.6729 3.2469 -2.4407 0.9120
-22.6791 3.1047 -2.4393 0.9120
-22.6844 2.9626 -2.4378 0.9121
-22.6924 2.6787 -2.4349 0.9122
-22.6951 2.5368 -2.4335 0.9122
-22.6969 2.3950 -2.4320 0.9123
-22.6978 2.1115 -2.4291 0.9124
-22.6926 1.6871 -2.4248 0.9125
-22.6891 1.5458 -2.4234 0.9126
-22.6404 0.5602 -2.4133 0.9129
-22.6066 0.1398 -2.4090 0.9131
-21.0762 -0.2607 -2.4045 0.9186
-21.0328 -0.6506 -2.4005 0.9188
-21.0167 -0.7802 -2.3992 0.9188
-20.9639 -1.1680 -2.3952 0.9189
-20.9448 -1.2970 -2.3939 0.9190
-20.9248 -1.4257 -2.3926 0.9190
-20.9041 -1.5542 -2.3912 0.9191
-20.8603 -1.8106 -2.3886 0.9192
-20.7890 -2.1937 -2.3847 0.9193
-20.7636 -2.3210 -2.3834 0.9193
-20.7376 -2.4480 -2.3821 0.9194
-20.7107 -2.5747 -2.3808 0.9194
-20.6831 -2.7013 -2.3795 0.9195
-20.6548 -2.8276 -2.3782 0.9195
-20.5652 -3.2051 -2.3743 0.9196
-20.5018 -3.4555 -2.3717 0.9197
-20.4689 -3.5803 -2.3705 0.9197
-20.4354 -3.7048 -2.3692 0.9198
-20.4011 -3.8290 -2.3679 0.9198
-20.3303 -4.0767 -2.3654 0.9199
-20.1800 -4.5685 -2.3603 0.9201
-20.1406 -4.6907 -2.3591 0.9201
-20.1005 -4.8126 -2.3578 0.9202
-19.9760 -5.1764 -2.3541 0.9203
-19.9331 -5.2971 -2.3528 0.9203
-19.8452 -5.5374 -2.3503 0.9204
-19.8002 -5.6570 -2.3491 0.9204
-19.7544 -5.7763 -2.3479 0.9205
-19.4658 -6.4850 -2.3406 0.9207
-19.4153 -6.6018 -2.3394 0.9208
-19.3641 -6.7183 -2.3382 0.9208
-19.2598 -6.9501 -2.3358 0.9209
-19.2067 -7.0655 -2.3346 0.9209
-19.0432 -7.4093 -2.3310 0.9210
-18.9875 -7.5231 -2.3298 0.9211
-18.9310 -7.6366 -2.3287 0.9211
-18.8740 -7.7496 -2.3275 0.9211
-18.8163 -7.8622 -2.3263 0.9212
-18.4567 -8.5294 -2.3194 0.9214
-18.3318 -8.7485 -2.3172 0.9215
-18.2684 -8.8574 -2.3160 0.9215
-18.1399 -9.0738 -2.3138 0.9216
-18.0089 -9.2885 -2.3115 0.9217
-17.7398 -9.7126 -2.3071 0.9218
-17.4613 -10.1294 -2.3028 0.9219
-17.3902 -10.2324 -2.3017 0.9220
-17.3186 -10.3349 -2.3007 0.9220
-17.2463 -10.4370 -2.2996 0.9220
-17.1735 -10.5386 -2.2986 0.9221
-17.1002 -10.6397 -2.2975 0.9221
-16.8769 -10.9402 -2.2944 0.9222
-16.8013 -11.0394 -2.2933 0.9223
-16.7252 -11.1381 -2.2923 0.9223
-16.5714 -11.3340 -2.2903 0.9224
-16.4936 -11.4312 -2.2892 0.9224
-16.0971 -11.9096 -2.2842 0.9225
-16.0163 -12.0037 -2.2833 0.9226
-15.9349 -12.0974 -2.2823 0.9226
-15.8530 -12.1905 -2.2813 0.9226
-15.6043 -12.4666 -2.2784 0.9227
-15.5205 -12.5576 -2.2775 0.9228
-15.3512 -12.7381 -2.2756 0.9228
-15.2658 -12.8274 -2.2746 0.9229
-15.1800 -12.9163 -2.2737 0.9229
-15.0937 -13.0046 -2.2728 0.9229
-15.0069 -13.0924 -2.2719 0.9230
-14.8319 -13.2664 -2.2700 0.9230
-14.6550 -13.4381 -2.2682 0.9231
-14.5658 -13.5232 -2.2673 0.9231
-14.3862 -13.6916 -2.2656 0.9232
-14.2957 -13.7749 -2.2647 0.9232
-14.2048 -13.8577 -2.2638 0.9232
-14.1134 -13.9400 -2.2629 0.9232
-14.0216 -14.0217 -2.2621 0.9233
-13.9294 -14.1028 -2.2612 0.9233
-13.8367 -14.1833 -2.2604 0.9233
-13.5561 -14.4215 -2.2579 0.9234
-13.4617 -14.4997 -2.2570 0.9234
-13.1761 -14.7310 -2.2546 0.9235
-12.7896 -15.0312 -2.2514 0.9236
-12.6921 -15.1047 -2.2506 0.9236
-12.5940 -15.1777 -2.2499 0.9237
-12.4957 -15.2501 -2.2491 0.9237
-12.3969 -15.3219 -2.2483 0.9237
-12.2978 -15.3931 -2.2476 0.9237
-12.1983 -15.4637 -2.2468 0.9238
-12.0984 -15.5337 -2.2461 0.9238
-11.9982 -15.6031 -2.2453 0.9238
-11.7966 -15.7400 -2.2439 0.9239
-11.6953 -15.8076 -2.2432 0.9239
-11.5936 -15.8746 -2.2424 0.9239
-11.4916 -15.9409 -2.2417 0.9239
-11.3892 -16.0067 -2.2410 0.9240
-11.2865 -16.0718 -2.2403 0.9240
-11.1834 -16.1363 -2.2396 0.9240
-11.0801 -16.2003 -2.2390 0.9240
-10.7679 -16.3883 -2.2369 0.9241
-10.6632 -16.4496 -2.2363 0.9241
-10.2413 -16.6892 -2.2337 0.9242
-10.1350 -16.7475 -2.2331 0.9242
-9.8145 -16.9186 -2.2312 0.9243
-9.7071 -16.9744 -2.2306 0.9243
-9.5993 -17.0296 -2.2300 0.9243
-9.3830 -17.1380 -2.2289 0.9244
-9.2745 -17.1912 -2.2283 0.9244
-9.1656 -17.2438 -2.2277 0.9244
-8.9471 -17.3472 -2.2266 0.9244
-8.5071 -17.5461 -2.2244 0.9245
-8.3964 -17.5942 -2.2239 0.9245
-7.9514 -17.7802 -2.2219 0.9246
-7.7274 -17.8694 -2.2209 0.9246
-7.5026 -17.9558 -2.2199 0.9246
-6.9368 -18.1606 -2.2177 0.9247
-6.8231 -18.1996 -2.2172 0.9247
-6.7091 -18.2380 -2.2168 0.9247
-6.4806 -18.3127 -2.2160 0.9248
-6.3661 -18.3490 -2.2156 0.9248
-6.2513 -18.3847 -2.2152 0.9248
-6.0213 -18.4542 -2.2144 0.9248
-5.9061 -18.4879 -2.2140 0.9248
-5.6751 -18.5533 -2.2133 0.9249
-5.5593 -18.5851 -2.2129 0.9249
-5.3235 -18.6331 -2.2106 0.9249
-5.2031 -18.6472 -2.2084 0.9250
-5.0828 -18.6612 -2.2063 0.9251
-4.8419 -18.6853 -2.2019 0.9252
-4.7216 -18.6965 -2.1998 0.9253
-4.6015 -18.7075 -2.1977 0.9254
-4.4817 -18.7186 -2.1957 0.9254
-4.2425 -18.7405 -2.1919 0.9256
-4.0041 -18.7618 -2.1885 0.9257
-3.6462 -18.7860 -2.1830 0.9259
-3.4086 -18.8020 -2.1798 0.9260
-3.2900 -18.8100 -2.1783 0.9260
-3.1716 -18.8179 -2.1769 0.9260
-2.9348 -18.8309 -2.1741 0.9261
-2.8164 -18.8360 -2.1726 0.9262
-2.3442 -18.8563 -2.1676 0.9264
-2.1088 -18.8663 -2.1656 0.9264
-1.9911 -18.8692 -2.1645 0.9265
-1.8734 -18.8714 -2.1633 0.9265
-1.7558 -18.8736 -2.1623 0.9265
-1.5209 -18.8779 -2.1605 0.9266
-1.2865 -18.8821 -2.1590 0.9266
-1.0522 -18.8852 -2.1577 0.9267
-0.8180 -18.8838 -2.1562 0.9267
-0.5840 -18.8823 -2.1550 0.9268
-0.2335 -18.8801 -2.1539 0.9268
-0.1167 -18.8791 -2.1537 0.9268
0.0000 -18.8756 -2.1532 0.9268
0.1167 -18.8720 -2.1529 0.9268
0.8166 -18.8504 -2.1524 0.9269
1.0496 -18.8386 -2.1524 0.9269
1.1661 -18.8321 -2.1524 0.9269
1.3992 -18.8192 -2.1527 0.9268
1.5157 -18.8127 -2.1530 0.9268
1.6323 -18.8063 -2.1534 0.9268
1.8656 -18.7924 -2.1543 0.9268
1.9820 -18.7832 -2.1546 0.9268
2.0985 -18.7738 -2.1550 0.9268
2.2151 -18.7646 -2.1554 0.9268
2.3317 -18.7552 -2.1560 0.9267
2.4483 -18.7459 -2.1566 0.9267
2.5650 -18.7365 -2.1573 0.9267
2.6818 -18.7271 -2.1581 0.9267
2.9153 -18.7058 -2.1596 0.9266
3.0319 -18.6936 -2.1604 0.9266
3.3823 -18.6569 -2.1630 0.9265
3.4994 -18.6446 -2.1640 0.9265
3.6165 -18.6323 -2.1652 0.9264
3.8508 -18.6060 -2.1675 0.9264
4.3191 -18.5453 -2.1722 0.9262
4.4366 -18.5301 -2.1736 0.9262
4.5542 -18.5148 -2.1750 0.9261
4.6719 -18.4995 -2.1766 0.9261
4.9070 -18.4651 -2.1795 0.9260
5.2600 -18.4106 -2.1842 0.9258
5.3780 -18.3923 -2.1860 0.9258
5.4962 -18.3740 -2.1878 0.9257
5.6147 -18.3556 -2.1897 0.9256
5.7332 -18.3369 -2.1916 0.9256
5.8511 -18.3157 -2.1934 0.9255
6.3249 -18.2305 -2.2013 0.9253
6.5632 -18.1876 -2.2057 0.9251
6.9203 -18.1173 -2.2124 0.9249
7.0374 -18.0874 -2.2140 0.9248
7.2631 -18.0052 -2.2148 0.9248
7.3756 -17.9631 -2.2152 0.9248
7.6000 -17.8770 -2.2160 0.9248
7.8234 -17.7883 -2.2168 0.9247
7.9348 -17.7430 -2.2172 0.9247
8.1569 -17.6505 -2.2181 0.9247
8.2675 -17.6032 -2.2185 0.9247
8.3779 -17.5553 -2.2190 0.9247
8.4881 -17.5068 -2.2195 0.9247
8.7077 -17.4079 -2.2204 0.9246
8.8170 -17.3574 -2.2209 0.9246
9.0350 -17.2546 -2.2219 0.9246
9.1436 -17.2023 -2.2224 0.9246
9.2519 -17.1494 -2.2229 0.9245
9.3600 -17.0957 -2.2234 0.9245
9.5752 -16.9866 -2.2244 0.9245
9.7892 -16.8750 -2.2255 0.9245
9.8958 -16.8183 -2.2260 0.9244
10.0021 -16.7609 -2.2266 0.9244
10.1081 -16.7029 -2.2271 0.9244
10.2138 -16.6443 -2.2277 0.9244
10.3192 -16.5850 -2.2283 0.9244
10.5290 -16.4647 -2.2294 0.9243
10.7375 -16.3419 -2.2306 0.9243
11.1506 -16.0889 -2.2331 0.9242
11.2531 -16.0242 -2.2337 0.9242
11.3552 -15.9588 -2.2343 0.9242
11.7601 -15.6913 -2.2369 0.9241
11.8604 -15.6229 -2.2376 0.9241
11.9604 -15.5539 -2.2383 0.9240
12.1593 -15.4142 -2.2396 0.9240
12.5524 -15.1275 -2.2424 0.9239
12.7467 -14.9807 -2.2438 0.9239
12.8433 -14.9064 -2.2446 0.9238
12.9395 -14.8315 -2.2453 0.9238
13.0352 -14.7561 -2.2460 0.9238
13.2255 -14.6034 -2.2475 0.9237
13.3200 -14.5262 -2.2483 0.9237
13.5078 -14.3702 -2.2498 0.9237
13.6012 -14.2913 -2.2506 0.9236
13.8785 -14.0512 -2.2529 0.9236
14.0612 -13.8883 -2.2546 0.9235
14.1518 -13.8060 -2.2554 0.9235
14.2421 -13.7232 -2.2562 0.9235
14.4213 -13.5559 -2.2578 0.9234
14.6866 -13.3009 -2.2603 0.9233
14.9478 -13.0409 -2.2629 0.9232
15.0339 -12.9532 -2.2638 0.9232
15.2047 -12.7761 -2.2655 0.9232
15.2894 -12.6868 -2.2664 0.9231
15.4573 -12.5065 -2.2682 0.9231
15.6232 -12.3242 -2.2700 0.9230
15.7054 -12.2322 -2.2709 0.9230
15.9490 -11.9533 -2.2737 0.9229
16.0292 -11.8593 -2.2746 0.9229
16.1089 -11.7648 -2.2755 0.9228
16.1880 -11.6698 -2.2765 0.9228
16.3447 -11.4782 -2.2784 0.9227
16.4223 -11.3817 -2.2793 0.9227
16.4994 -11.2847 -2.2803 0.9227
16.5759 -11.1872 -2.2813 0.9226
16.8765 -10.7924 -2.2852 0.9225
17.1684 -10.3898 -2.2892 0.9224
17.2400 -10.2880 -2.2902 0.9224
17.3109 -10.1857 -2.2912 0.9223
17.3813 -10.0830 -2.2923 0.9223
17.5205 -9.8761 -2.2943 0.9222
17.5892 -9.7720 -2.2954 0.9222
17.7917 -9.4569 -2.2985 0.9221
17.8582 -9.3511 -2.2996 0.9220
17.9239 -9.2446 -2.3006 0.9220
17.9891 -9.1379 -2.3017 0.9220
18.1176 -8.9230 -2.3038 0.9219
18.2437 -8.7064 -2.3060 0.9218
18.3674 -8.4882 -2.3082 0.9218
18.4283 -8.3784 -2.3093 0.9217
18.7235 -7.8234 -2.3148 0.9216
18.7806 -7.7113 -2.3160 0.9215
18.8371 -7.5987 -2.3171 0.9215
18.9482 -7.3723 -2.3194 0.9214
19.0567 -7.1445 -2.3217 0.9213
19.1100 -7.0299 -2.3228 0.9213
19.2146 -6.7998 -2.3251 0.9212
19.3165 -6.5682 -2.3274 0.9211
19.3664 -6.4518 -2.3286 0.9211
19.4158 -6.3352 -2.3298 0.9211
19.4644 -6.2181 -2.3310 0.9210
19.5124 -6.1007 -2.3321 0.9210
19.6063 -5.8649 -2.3345 0.9209
19.6975 -5.6277 -2.3369 0.9208
19.7420 -5.5086 -2.3381 0.9208
19.7858 -5.3892 -2.3393 0.9208
19.8290 -5.2694 -2.3405 0.9207
19.8715 -5.1493 -2.3417 0.9207
20.0733 -4.5443 -2.3478 0.9205
20.1491 -4.3002 -2.3503 0.9204
20.2220 -4.0549 -2.3528 0.9203
20.2574 -3.9319 -2.3540 0.9203
20.3260 -3.6849 -2.3565 0.9202
20.3592 -3.5611 -2.3577 0.9202
20.4234 -3.3125 -2.3603 0.9201
20.4847 -3.0629 -2.3628 0.9200
20.5430 -2.8124 -2.3653 0.9199
20.5710 -2.6867 -2.3666 0.9199
20.5983 -2.5608 -2.3679 0.9198
20.6249 -2.4347 -2.3691 0.9198
20.7236 -1.9280 -2.3743 0.9196
20.7464 -1.8007 -2.3756 0.9196
20.7684 -1.6733 -2.3768 0.9195
20.8298 -1.2898 -2.3807 0.9194
20.8844 -0.9047 -2.3846 0.9193
20.9010 -0.7759 -2.3859 0.9192
20.9320 -0.5179 -2.3886 0.9192
20.9463 -0.3887 -2.3899 0.9191
20.9598 -0.2593 -2.3912 0.9191
20.9725 -0.1297 -2.3925 0.9190
20.9957 0.1298 -2.3951 0.9189
21.0156 0.3899 -2.3978 0.9189
21.0244 0.5201 -2.3991 0.9188
21.0324 0.6505 -2.4004 0.9188
21.0396 0.7810 -2.4018 0.9187
21.0636 1.4351 -2.4084 0.9185
21.0675 1.6973 -2.4111 0.9184
21.0510 2.7493 -2.4218 0.9181
21.0452 2.8810 -2.4231 0.9180
21.0231 3.2764 -2.4272 0.9179
21.0042 3.5401 -2.4299 0.9178
20.9936 3.6720 -2.4312 0.9178
20.9698 3.9357 -2.4339 0.9177
20.9566 4.0676 -2.4353 0.9176
20.9426 4.1994 -2.4366 0.9176
20.9278 4.3312 -2.4380 0.9176
20.9122 4.4630 -2.4393 0.9175
20.8958 4.5948 -2.4406 0.9175
20.8785 4.7265 -2.4420 0.9174
20.8216 5.1215 -2.4460 0.9173
20.7572 5.5160 -2.4501 0.9172
20.7341 5.6473 -2.4514 0.9171
20.7101 5.7787 -2.4528 0.9171
20.6853 5.9099 -2.4541 0.9170
20.6332 6.1720 -2.4568 0.9169
20.6059 6.3029 -2.4581 0.9169
20.4567 6.9559 -2.4648 0.9167
20.4244 7.0861 -2.4662 0.9166
20.3912 7.2162 -2.4675 0.9166
20.3572 7.3461 -2.4688 0.9166
20.3224 7.4759 -2.4702 0.9165
20.2502 7.7350 -2.4728 0.9164
20.2128 7.8642 -2.4742 0.9164
20.1355 8.1224 -2.4768 0.9163
20.0957 8.2511 -2.4781 0.9163
20.0549 8.3797 -2.4795 0.9162
19.9710 8.6363 -2.4821 0.9161
19.9278 8.7643 -2.4834 0.9161
19.8388 9.0197 -2.4860 0.9160
19.7931 9.1470 -2.4874 0.9160
19.6019 9.6540 -2.4926 0.9158
19.5520 9.7801 -2.4939 0.9157
19.4497 10.0316 -2.4965 0.9157
19.3442 10.2820 -2.4991 0.9156
19.2902 10.4068 -2.5004 0.9155
19.2354 10.5313 -2.5016 0.9155
19.0658 10.9031 -2.5055 0.9154
19.0078 11.0264 -2.5068 0.9153
18.9488 11.1494 -2.5080 0.9153
18.6418 11.7594 -2.5143 0.9151
18.5780 11.8804 -2.5156 0.9150
18.5134 12.0010 -2.5168 0.9150
18.4479 12.1212 -2.5181 0.9150
16.3421 11.3261 -2.2682 0.9231
16.0325 11.5577 -2.2546 0.9235
15.9303 11.6343 -2.2503 0.9237
15.8683 11.7402 -2.2518 0.9236
16.1665 12.1163 -2.3047 0.9219
17.6753 13.4185 -2.5315 0.9145
17.5245 13.6490 -2.5339 0.9145
17.2926 13.9914 -2.5375 0.9143
13.2456 10.8532 -1.9535 0.9334
13.1608 10.9205 -1.9509 0.9335
13.0762 10.9875 -1.9484 0.9335
12.9917 11.0544 -1.9459 0.9336
12.9075 11.1211 -1.9436 0.9337
12.6631 11.4682 -1.9489 0.9335
14.1540 12.9787 -2.1907 0.9256
14.0583 13.0518 -2.1883 0.9257
14.2954 13.4376 -2.2381 0.9241
15.1789 14.4459 -2.3904 0.9191
15.0122 14.6453 -2.3925 0.9190
