ply
format ascii 1.0
element vertex 1597
property float32 x
property float32 y
property float32 z
property float32 I
end_header
0.5547 -5.9628 -2.3979 0.9745
0.5916 -5.9595 -2.3980 0.9745
0.6653 -5.9521 -2.3982 0.9745
0.7389 -5.9439 -2.3984 0.9745
0.8125 -5.9347 -2.3986 0.9745
0.8859 -5.9247 -2.3987 0.9745
0.9226 -5.9193 -2.3988 0.9745
0.9957 -5.9079 -2.3990 0.9745
1.0323 -5.9018 -2.3991 0.9745
1.0688 -5.8955 -2.3992 0.9745
1.1053 -5.8891 -2.3993 0.9745
1.1417 -5.8823 -2.3994 0.9745
1.2145 -5.8682 -2.3995 0.9745
1.2508 -5.8608 -2.3996 0.9745
1.2871 -5.8532 -2.3997 0.9745
1.3595 -5.8372 -2.3999 0.9745
1.3956 -5.8290 -2.4000 0.9745
1.4317 -5.8204 -2.4001 0.9745
1.4677 -5.8117 -2.4002 0.9745
1.5037 -5.8027 -2.4003 0.9745
1.5396 -5.7935 -2.4004 0.9745
1.6112 -5.7745 -2.4005 0.9745
1.6470 -5.7646 -2.4006 0.9745
1.6827 -5.7545 -2.4007 0.9745
1.7183 -5.7442 -2.4008 0.9745
1.7893 -5.7230 -2.4010 0.9745
1.8601 -5.7008 -2.4012 0.9745
1.8954 -5.6894 -2.4013 0.9745
1.9658 -5.6660 -2.4015 0.9745
2.0359 -5.6417 -2.4016 0.9745
2.0708 -5.6292 -2.4017 0.9745
2.1404 -5.6036 -2.4019 0.9745
2.1751 -5.5904 -2.4020 0.9745
2.2098 -5.5771 -2.4021 0.9745
2.2443 -5.5635 -2.4022 0.9745
2.2787 -5.5497 -2.4023 0.9745
2.3816 -5.5071 -2.4025 0.9745
2.4156 -5.4925 -2.4026 0.9745
2.4836 -5.4626 -2.4028 0.9745
2.5512 -5.4319 -2.4030 0.9745
2.5848 -5.4162 -2.4031 0.9745
2.6183 -5.4004 -2.4032 0.9745
2.6518 -5.3842 -2.4033 0.9745
2.7184 -5.3514 -2.4034 0.9745
2.8503 -5.2833 -2.4038 0.9745
2.8830 -5.2658 -2.4039 0.9745
3.0129 -5.1937 -2.4042 0.9745
3.0450 -5.1751 -2.4043 0.9745
3.0771 -5.1564 -2.4044 0.9745
3.1091 -5.1374 -2.4045 0.9745
3.1408 -5.1183 -2.4046 0.9745
3.1726 -5.0989 -2.4047 0.9745
3.2041 -5.0794 -2.4048 0.9745
3.2356 -5.0597 -2.4048 0.9745
3.2670 -5.0398 -2.4049 0.9745
3.2982 -5.0197 -2.4050 0.9745
3.4218 -4.9373 -2.4054 0.9744
3.4829 -4.8949 -2.4055 0.9744
3.5133 -4.8734 -2.4056 0.9744
3.6034 -4.8079 -2.4059 0.9744
3.6628 -4.7633 -2.4061 0.9744
3.7801 -4.6719 -2.4064 0.9744
3.8090 -4.6486 -2.4065 0.9744
3.9516 -4.5294 -2.4069 0.9744
3.9797 -4.5051 -2.4070 0.9744
4.0076 -4.4805 -2.4071 0.9744
4.1449 -4.3552 -2.4075 0.9744
4.1719 -4.3297 -2.4075 0.9744
4.1988 -4.3039 -2.4076 0.9744
4.2520 -4.2519 -2.4078 0.9744
4.3305 -4.1727 -2.4080 0.9744
4.3564 -4.1460 -2.4081 0.9744
4.4076 -4.0921 -2.4083 0.9744
4.4329 -4.0649 -2.4083 0.9744
4.4582 -4.0375 -2.4084 0.9744
4.5080 -3.9823 -2.4086 0.9744
4.5816 -3.8984 -2.4088 0.9744
4.6058 -3.8701 -2.4089 0.9744
4.6772 -3.7843 -2.4091 0.9744
4.7239 -3.7264 -2.4092 0.9744
4.7699 -3.6679 -2.4094 0.9744
4.8153 -3.6089 -2.4095 0.9744
4.8598 -3.5492 -2.4097 0.9744
4.8818 -3.5192 -2.4098 0.9744
4.9252 -3.4588 -2.4099 0.9744
4.9467 -3.4284 -2.4100 0.9744
4.9680 -3.3978 -2.4100 0.9744
5.0099 -3.3363 -2.4102 0.9744
5.0306 -3.3054 -2.4102 0.9744
5.0714 -3.2431 -2.4104 0.9744
5.1113 -3.1802 -2.4105 0.9744
5.1890 -3.0532 -2.4108 0.9744
5.2079 -3.0211 -2.4109 0.9744
5.2452 -2.9566 -2.4110 0.9744
5.2817 -2.8917 -2.4111 0.9744
5.3348 -2.7934 -2.4113 0.9744
5.3521 -2.7605 -2.4114 0.9744
5.3692 -2.7274 -2.4114 0.9744
5.3861 -2.6942 -2.4115 0.9744
5.4029 -2.6609 -2.4116 0.9744
5.4356 -2.5940 -2.4117 0.9744
5.4986 -2.4590 -2.4119 0.9744
5.5583 -2.3225 -2.4121 0.9744
5.5727 -2.2881 -2.4122 0.9744
5.6008 -2.2192 -2.4123 0.9744
5.6545 -2.0801 -2.4125 0.9744
5.6925 -1.9750 -2.4127 0.9744
5.7401 -1.8337 -2.4129 0.9744
5.7515 -1.7982 -2.4129 0.9744
5.7735 -1.7270 -2.4130 0.9744
5.8049 -1.6197 -2.4132 0.9744
5.8247 -1.5479 -2.4133 0.9744
5.8343 -1.5119 -2.4133 0.9744
5.8436 -1.4758 -2.4134 0.9744
5.8617 -1.4034 -2.4135 0.9744
5.8704 -1.3672 -2.4135 0.9744
5.8788 -1.3309 -2.4136 0.9744
5.8870 -1.2945 -2.4136 0.9744
5.8950 -1.2581 -2.4136 0.9744
5.9316 -1.0753 -2.4138 0.9744
5.9383 -1.0387 -2.4139 0.9744
5.9568 -0.9284 -2.4140 0.9744
5.9625 -0.8915 -2.4140 0.9744
5.9783 -0.7808 -2.4142 0.9744
5.9877 -0.7068 -2.4142 0.9744
5.9961 -0.6328 -2.4143 0.9744
6.0000 -0.5956 -2.4143 0.9744
6.0036 -0.5585 -2.4144 0.9744
6.0071 -0.5214 -2.4144 0.9744
6.0132 -0.4471 -2.4145 0.9744
6.0227 -0.2982 -2.4146 0.9744
6.0245 -0.2610 -2.4146 0.9744
6.0274 -0.1864 -2.4147 0.9744
6.0294 -0.1119 -2.4147 0.9744
6.0306 0.0373 -2.4148 0.9743
6.0303 0.0746 -2.4148 0.9743
6.0298 0.1119 -2.4149 0.9743
6.0281 0.1864 -2.4149 0.9743
6.0254 0.2610 -2.4150 0.9743
6.0218 0.3355 -2.4150 0.9743
6.0173 0.4100 -2.4150 0.9743
6.0020 0.5958 -2.4151 0.9743
5.9942 0.6700 -2.4152 0.9743
5.9900 0.7071 -2.4152 0.9743
5.9809 0.7811 -2.4152 0.9743
5.9654 0.8920 -2.4152 0.9743
5.9540 0.9657 -2.4153 0.9743
5.9479 1.0025 -2.4153 0.9743
5.9283 1.1127 -2.4153 0.9743
5.9142 1.1859 -2.4153 0.9743
5.9068 1.2225 -2.4153 0.9743
5.8991 1.2590 -2.4153 0.9743
5.8831 1.3319 -2.4153 0.9743
5.8747 1.3682 -2.4153 0.9743
5.8392 1.5131 -2.4153 0.9743
5.8200 1.5852 -2.4153 0.9743
5.8101 1.6212 -2.4153 0.9743
5.8000 1.6571 -2.4153 0.9743
5.7896 1.6929 -2.4153 0.9743
5.7345 1.8711 -2.4153 0.9743
5.7228 1.9065 -2.4153 0.9743
5.6480 2.1175 -2.4153 0.9743
5.6348 2.1523 -2.4153 0.9743
5.6214 2.1871 -2.4153 0.9743
5.5654 2.3255 -2.4152 0.9743
5.4752 2.5303 -2.4152 0.9743
5.4272 2.6313 -2.4151 0.9743
5.4108 2.6648 -2.4151 0.9743
5.3773 2.7315 -2.4151 0.9743
5.3603 2.7647 -2.4150 0.9743
5.3430 2.7978 -2.4150 0.9743
5.3079 2.8636 -2.4150 0.9743
5.2720 2.9290 -2.4149 0.9743
5.2538 2.9615 -2.4149 0.9743
5.2353 2.9939 -2.4149 0.9743
5.2167 3.0262 -2.4149 0.9743
5.1005 3.2174 -2.4147 0.9744
5.0397 3.3114 -2.4147 0.9744
5.0191 3.3424 -2.4146 0.9744
4.9561 3.4349 -2.4145 0.9744
4.9347 3.4654 -2.4145 0.9744
4.9131 3.4958 -2.4145 0.9744
4.8694 3.5562 -2.4144 0.9744
4.8472 3.5862 -2.4144 0.9744
4.8249 3.6161 -2.4143 0.9744
4.8023 3.6458 -2.4143 0.9744
4.6870 3.7922 -2.4141 0.9744
4.6634 3.8211 -2.4141 0.9744
4.6396 3.8498 -2.4141 0.9744
4.5915 3.9068 -2.4140 0.9744
4.5671 3.9350 -2.4139 0.9744
4.5427 3.9631 -2.4139 0.9744
4.5180 3.9911 -2.4139 0.9744
4.4931 4.0189 -2.4138 0.9744
4.4681 4.0465 -2.4138 0.9744
4.4429 4.0740 -2.4137 0.9744
4.3921 4.1285 -2.4137 0.9744
4.3664 4.1555 -2.4136 0.9744
4.3145 4.2090 -2.4135 0.9744
4.2883 4.2356 -2.4135 0.9744
4.2619 4.2619 -2.4134 0.9744
4.2087 4.3141 -2.4134 0.9744
4.1549 4.3657 -2.4133 0.9744
4.1004 4.4166 -2.4132 0.9744
4.0453 4.4668 -2.4131 0.9744
3.9049 4.5892 -2.4128 0.9744
3.6767 4.6020 -2.3586 0.9749
3.6288 4.6002 -2.3462 0.9751
3.5352 4.5973 -2.3222 0.9753
3.4442 4.5955 -2.2996 0.9756
3.3994 4.5946 -2.2886 0.9757
3.3549 4.5937 -2.2777 0.9758
3.2740 4.6014 -2.2613 0.9760
3.2134 4.6364 -2.2588 0.9760
3.1845 4.6561 -2.2588 0.9760
3.1556 4.6756 -2.2587 0.9760
3.0681 4.7330 -2.2585 0.9760
3.0387 4.7517 -2.2585 0.9760
2.9795 4.7887 -2.2584 0.9760
2.9498 4.8069 -2.2583 0.9760
2.9199 4.8249 -2.2583 0.9760
2.8900 4.8428 -2.2582 0.9760
2.6463 4.9787 -2.2577 0.9760
2.5844 5.0108 -2.2576 0.9760
2.5221 5.0421 -2.2575 0.9760
2.4908 5.0574 -2.2574 0.9760
2.4595 5.0726 -2.2573 0.9760
2.3963 5.1024 -2.2572 0.9760
2.2371 5.1732 -2.2569 0.9760
2.1729 5.2002 -2.2567 0.9760
2.0758 5.2392 -2.2565 0.9760
2.0433 5.2517 -2.2565 0.9760
2.0108 5.2641 -2.2564 0.9760
1.7144 5.3663 -2.2558 0.9760
1.6477 5.3867 -2.2556 0.9760
1.6143 5.3967 -2.2556 0.9760
1.4802 5.4342 -2.2553 0.9760
1.4127 5.4518 -2.2551 0.9760
1.3451 5.4685 -2.2550 0.9760
1.3112 5.4765 -2.2549 0.9760
1.2773 5.4843 -2.2548 0.9760
1.1752 5.5065 -2.2546 0.9760
1.1411 5.5135 -2.2545 0.9760
1.0727 5.5268 -2.2544 0.9760
0.9356 5.5509 -2.2541 0.9760
0.9012 5.5564 -2.2540 0.9760
0.8324 5.5667 -2.2538 0.9760
0.7634 5.5762 -2.2537 0.9760
0.7289 5.5806 -2.2536 0.9760
0.6943 5.5848 -2.2535 0.9760
0.6252 5.5926 -2.2533 0.9760
0.5905 5.5962 -2.2533 0.9760
0.5212 5.6026 -2.2531 0.9760
0.4865 5.6055 -2.2530 0.9760
0.4171 5.6108 -2.2529 0.9760
0.3824 5.6130 -2.2528 0.9761
0.3477 5.6151 -2.2527 0.9761
0.2435 5.6200 -2.2525 0.9761
0.2087 5.6212 -2.2524 0.9761
0.1392 5.6229 -2.2522 0.9761
0.1044 5.6235 -2.2521 0.9761
0.0696 5.6238 -2.2521 0.9761
-0.0348 5.6235 -2.2518 0.9761
-0.0696 5.6230 -2.2517 0.9761
-0.1391 5.6213 -2.2516 0.9761
-0.1738 5.6201 -2.2515 0.9761
-0.2780 5.6153 -2.2512 0.9761
-0.4514 5.6030 -2.2508 0.9761
-0.6243 5.5853 -2.2504 0.9761
-0.6588 5.5811 -2.2503 0.9761
-0.8309 5.5570 -2.2499 0.9761
-0.9679 5.5339 -2.2495 0.9761
-1.0021 5.5276 -2.2495 0.9761
-1.0362 5.5211 -2.2494 0.9761
-1.0703 5.5144 -2.2493 0.9761
-1.1043 5.5075 -2.2492 0.9761
-1.1384 5.5003 -2.2491 0.9761
-1.2739 5.4696 -2.2488 0.9761
-1.3749 5.4445 -2.2485 0.9761
-1.4085 5.4356 -2.2484 0.9761
-1.5423 5.3983 -2.2481 0.9761
-1.5756 5.3885 -2.2480 0.9761
-1.6751 5.3577 -2.2478 0.9761
-1.7082 5.3471 -2.2477 0.9761
-1.7411 5.3362 -2.2476 0.9761
-1.8396 5.3024 -2.2473 0.9761
-1.8723 5.2907 -2.2473 0.9761
-2.0668 5.2164 -2.2467 0.9761
-2.0990 5.2033 -2.2467 0.9761
-2.1310 5.1900 -2.2466 0.9761
-2.1630 5.1766 -2.2465 0.9761
-2.1949 5.1629 -2.2464 0.9761
-2.2267 5.1491 -2.2463 0.9761
-2.2584 5.1350 -2.2462 0.9761
-2.3216 5.1063 -2.2461 0.9761
-2.3844 5.0768 -2.2459 0.9761
-2.4156 5.0618 -2.2458 0.9761
-2.4468 5.0465 -2.2457 0.9761
-2.5089 5.0155 -2.2456 0.9761
-2.6012 4.9676 -2.2453 0.9761
-2.6317 4.9512 -2.2452 0.9761
-2.6622 4.9347 -2.2452 0.9761
-2.7228 4.9010 -2.2450 0.9761
-2.7530 4.8839 -2.2449 0.9761
-2.7830 4.8666 -2.2448 0.9761
-2.8130 4.8491 -2.2447 0.9761
-2.8725 4.8136 -2.2446 0.9761
-2.9021 4.7956 -2.2445 0.9761
-2.9316 4.7773 -2.2444 0.9761
-3.0025 4.7597 -2.2534 0.9760
-3.2099 4.7560 -2.2976 0.9756
-3.2529 4.7562 -2.3073 0.9755
-3.3844 4.7565 -2.3375 0.9752
-3.4290 4.7566 -2.3480 0.9751
-3.5651 4.7568 -2.3803 0.9747
-3.6112 4.7568 -2.3914 0.9746
-3.7042 4.6959 -2.3949 0.9746
-3.7331 4.6727 -2.3949 0.9746
-3.7618 4.6494 -2.3948 0.9746
-3.7903 4.6259 -2.3947 0.9746
-3.8751 4.5543 -2.3944 0.9746
-3.9309 4.5057 -2.3943 0.9746
-3.9585 4.4812 -2.3942 0.9746
-3.9860 4.4564 -2.3941 0.9746
-4.0134 4.4315 -2.3940 0.9746
-4.0945 4.3559 -2.3938 0.9746
-4.1478 4.3046 -2.3936 0.9746
-4.2524 4.2001 -2.3933 0.9746
-4.2782 4.1736 -2.3932 0.9746
-4.3292 4.1201 -2.3931 0.9746
-4.3544 4.0932 -2.3930 0.9746
-4.4044 4.0387 -2.3929 0.9746
-4.4292 4.0113 -2.3928 0.9746
-4.4782 3.9560 -2.3926 0.9746
-4.5024 3.9281 -2.3925 0.9746
-4.5265 3.9000 -2.3925 0.9746
-4.5976 3.8150 -2.3922 0.9746
-4.6210 3.7864 -2.3922 0.9746
-4.6672 3.7287 -2.3920 0.9746
-4.7351 3.6412 -2.3918 0.9746
-4.7795 3.5821 -2.3917 0.9746
-4.8661 3.4624 -2.3914 0.9746
-4.9290 3.3712 -2.3912 0.9746
-4.9903 3.2789 -2.3910 0.9746
-5.0103 3.2479 -2.3909 0.9746
-5.1076 3.0910 -2.3906 0.9746
-5.1265 3.0593 -2.3905 0.9746
-5.1452 3.0274 -2.3904 0.9746
-5.1820 2.9634 -2.3903 0.9746
-5.2001 2.9312 -2.3902 0.9746
-5.2180 2.8989 -2.3902 0.9746
-5.2357 2.8665 -2.3901 0.9746
-5.2531 2.8340 -2.3901 0.9746
-5.3538 2.6368 -2.3897 0.9746
-5.3858 2.5702 -2.3896 0.9746
-5.4014 2.5368 -2.3895 0.9746
-5.4620 2.4022 -2.3893 0.9746
-5.4766 2.3683 -2.3892 0.9746
-5.4910 2.3343 -2.3892 0.9746
-5.5052 2.3003 -2.3891 0.9746
-5.5192 2.2662 -2.3890 0.9746
-5.5330 2.2319 -2.3890 0.9746
-5.5465 2.1976 -2.3889 0.9746
-5.5599 2.1632 -2.3889 0.9746
-5.5987 2.0596 -2.3887 0.9746
-5.6475 1.9203 -2.3885 0.9746
-5.6591 1.8853 -2.3885 0.9746
-5.6705 1.8502 -2.3884 0.9746
-5.7141 1.7093 -2.3882 0.9746
-5.7244 1.6738 -2.3882 0.9746
-5.7345 1.6384 -2.3881 0.9746
-5.7636 1.5316 -2.3880 0.9746
-5.8077 1.3526 -2.3878 0.9746
-5.8238 1.2806 -2.3877 0.9746
-5.8315 1.2445 -2.3876 0.9746
-5.8390 1.2084 -2.3876 0.9746
-5.8532 1.1361 -2.3875 0.9746
-5.8667 1.0636 -2.3874 0.9746
-5.8730 1.0273 -2.3874 0.9746
-5.8792 0.9909 -2.3874 0.9746
-5.8851 0.9545 -2.3873 0.9746
-5.8908 0.9181 -2.3873 0.9746
-5.8963 0.8816 -2.3872 0.9746
-5.9015 0.8451 -2.3872 0.9746
-5.9065 0.8086 -2.3872 0.9746
-5.9113 0.7720 -2.3871 0.9746
-5.9203 0.6988 -2.3871 0.9746
-5.9244 0.6622 -2.3870 0.9746
-5.9320 0.5889 -2.3870 0.9746
-5.9354 0.5522 -2.3869 0.9746
-5.9416 0.4787 -2.3869 0.9746
-5.9444 0.4419 -2.3868 0.9746
-5.9548 0.2579 -2.3867 0.9746
-5.9562 0.2211 -2.3867 0.9746
-5.9574 0.1843 -2.3866 0.9746
-5.9584 0.1474 -2.3866 0.9746
-5.9591 0.1106 -2.3866 0.9746
-5.9597 0.0737 -2.3866 0.9746
-5.8346 -0.0361 -2.3868 0.9751
-5.8336 -0.1083 -2.3867 0.9751
-5.8305 -0.2165 -2.3867 0.9751
-5.8290 -0.2525 -2.3866 0.9751
-5.8272 -0.2885 -2.3866 0.9751
-5.8231 -0.3606 -2.3866 0.9751
-5.8208 -0.3966 -2.3866 0.9751
-5.8181 -0.4326 -2.3866 0.9751
-5.8153 -0.4685 -2.3865 0.9751
-5.8123 -0.5045 -2.3865 0.9751
-5.8018 -0.6122 -2.3865 0.9751
-5.7937 -0.6839 -2.3864 0.9751
-5.7893 -0.7197 -2.3864 0.9751
-5.7749 -0.8270 -2.3864 0.9751
-5.7696 -0.8627 -2.3864 0.9751
-5.7642 -0.8984 -2.3864 0.9751
-5.7585 -0.9340 -2.3864 0.9751
-5.7526 -0.9696 -2.3864 0.9751
-5.7464 -1.0051 -2.3863 0.9751
-5.7268 -1.1115 -2.3863 0.9751
-5.7198 -1.1469 -2.3863 0.9751
-5.7051 -1.2176 -2.3863 0.9751
-5.6974 -1.2528 -2.3863 0.9751
-5.6815 -1.3232 -2.3863 0.9751
-5.6647 -1.3934 -2.3863 0.9751
-5.6559 -1.4284 -2.3863 0.9751
-5.6189 -1.5678 -2.3863 0.9751
-5.5677 -1.7408 -2.3863 0.9751
-5.5458 -1.8095 -2.3863 0.9751
-5.5345 -1.8438 -2.3863 0.9751
-5.5113 -1.9121 -2.3863 0.9751
-5.4624 -2.0479 -2.3863 0.9751
-5.4235 -2.1489 -2.3863 0.9751
-5.4101 -2.1824 -2.3864 0.9751
-5.3965 -2.2158 -2.3864 0.9751
-5.3828 -2.2492 -2.3864 0.9751
-5.3688 -2.2824 -2.3864 0.9751
-5.3402 -2.3486 -2.3864 0.9751
-5.3256 -2.3817 -2.3864 0.9751
-5.3108 -2.4146 -2.3864 0.9751
-5.2958 -2.4474 -2.3865 0.9751
-5.2652 -2.5127 -2.3865 0.9751
-5.2496 -2.5452 -2.3865 0.9751
-5.2178 -2.6100 -2.3865 0.9751
-5.1851 -2.6744 -2.3866 0.9751
-5.1348 -2.7702 -2.3866 0.9751
-5.0826 -2.8650 -2.3867 0.9751
-5.0648 -2.8964 -2.3867 0.9751
-5.0469 -2.9277 -2.3867 0.9751
-5.0104 -2.9900 -2.3868 0.9751
-4.9351 -3.1131 -2.3869 0.9751
-4.9158 -3.1436 -2.3869 0.9751
-4.8568 -3.2344 -2.3870 0.9751
-4.7961 -3.3241 -2.3870 0.9751
-4.7338 -3.4126 -2.3871 0.9751
-4.7127 -3.4418 -2.3872 0.9751
-4.6914 -3.4709 -2.3872 0.9751
-4.6699 -3.4999 -2.3872 0.9751
-4.6482 -3.5288 -2.3873 0.9751
-4.6263 -3.5575 -2.3873 0.9751
-4.6043 -3.5861 -2.3873 0.9751
-4.5372 -3.6711 -2.3874 0.9751
-4.5145 -3.6991 -2.3875 0.9751
-4.4916 -3.7270 -2.3875 0.9751
-4.4685 -3.7548 -2.3875 0.9751
-4.4218 -3.8099 -2.3876 0.9751
-4.3983 -3.8372 -2.3876 0.9751
-4.3266 -3.9183 -2.3878 0.9751
-4.1786 -4.0765 -2.3880 0.9751
-4.1280 -4.1281 -2.3881 0.9751
-4.0769 -4.1790 -2.3882 0.9751
-4.0250 -4.2292 -2.3883 0.9751
-3.8658 -4.3762 -2.3885 0.9751
-3.8387 -4.4001 -2.3886 0.9751
-3.7567 -4.4708 -2.3887 0.9751
-3.7290 -4.4940 -2.3888 0.9751
-3.7012 -4.5171 -2.3888 0.9751
-3.6733 -4.5400 -2.3889 0.9751
-3.6170 -4.5853 -2.3890 0.9751
-3.5316 -4.6519 -2.3892 0.9751
-3.5028 -4.6737 -2.3892 0.9751
-3.4739 -4.6954 -2.3893 0.9751
-3.3864 -4.7594 -2.3894 0.9751
-3.2680 -4.8422 -2.3896 0.9751
-3.2080 -4.8824 -2.3898 0.9751
-3.1778 -4.9023 -2.3898 0.9751
-3.1475 -4.9220 -2.3899 0.9751
-3.0559 -4.9799 -2.3901 0.9751
-3.0251 -4.9988 -2.3901 0.9751
-2.9632 -5.0361 -2.3902 0.9751
-2.9009 -5.0726 -2.3904 0.9751
-2.8695 -5.0906 -2.3904 0.9751
-2.8380 -5.1084 -2.3905 0.9751
-2.8065 -5.1260 -2.3905 0.9751
-2.7111 -5.1776 -2.3907 0.9751
-2.5825 -5.2436 -2.3910 0.9751
-2.5501 -5.2596 -2.3911 0.9751
-2.4850 -5.2911 -2.3912 0.9751
-2.4522 -5.3065 -2.3913 0.9751
-2.4195 -5.3217 -2.3913 0.9751
-2.3866 -5.3367 -2.3914 0.9751
-2.3536 -5.3515 -2.3915 0.9751
-2.2874 -5.3805 -2.3916 0.9750
-2.2541 -5.3947 -2.3917 0.9750
-2.2208 -5.4087 -2.3917 0.9750
-2.1874 -5.4225 -2.3918 0.9750
-2.1202 -5.4495 -2.3920 0.9750
-2.0866 -5.4626 -2.3920 0.9750
-2.0528 -5.4756 -2.3921 0.9750
-1.9850 -5.5009 -2.3922 0.9750
-1.9510 -5.5132 -2.3923 0.9750
-1.9170 -5.5254 -2.3924 0.9750
-1.8828 -5.5373 -2.3925 0.9750
-1.8143 -5.5605 -2.3926 0.9750
-1.7799 -5.5718 -2.3927 0.9750
-1.6764 -5.6044 -2.3929 0.9750
-1.6418 -5.6148 -2.3930 0.9750
-1.6071 -5.6250 -2.3930 0.9750
-1.5723 -5.6350 -2.3931 0.9750
-1.5026 -5.6544 -2.3933 0.9750
-1.3273 -5.6991 -2.3937 0.9750
-1.2920 -5.7074 -2.3937 0.9750
-1.2214 -5.7233 -2.3939 0.9750
-1.1506 -5.7383 -2.3941 0.9750
-1.0797 -5.7525 -2.3942 0.9750
-1.0441 -5.7592 -2.3943 0.9750
-0.7223 -5.8102 -2.3950 0.9750
-0.6504 -5.8191 -2.3952 0.9750
-0.6145 -5.8232 -2.3953 0.9750
-0.5785 -5.8271 -2.3953 0.9750
-0.5064 -5.8342 -2.3955 0.9750
-0.4703 -5.8374 -2.3956 0.9750
-0.4342 -5.8404 -2.3957 0.9750
-0.3981 -5.8431 -2.3958 0.9750
-0.3258 -5.8481 -2.3959 0.9750
0.0000 -5.8590 -2.3967 0.9750
0.0362 -5.8591 -2.3968 0.9750
0.2174 -5.8562 -2.3972 0.9750
0.2536 -5.8550 -2.3973 0.9750
0.2898 -5.8535 -2.3974 0.9750
0.3261 -5.8518 -2.3975 0.9750
0.3622 -5.8499 -2.3975 0.9750
0.5069 -5.8400 -2.3979 0.9750
0.5430 -5.8370 -2.3980 0.9750
0.6153 -5.8302 -2.3982 0.9750
0.6513 -5.8265 -2.3982 0.9750
0.6873 -5.8226 -2.3983 0.9750
0.7234 -5.8184 -2.3984 0.9750
0.7594 -5.8141 -2.3985 0.9750
0.7954 -5.8095 -2.3986 0.9750
0.8313 -5.8046 -2.3987 0.9750
0.8672 -5.7996 -2.3988 0.9750
0.9747 -5.7832 -2.3990 0.9750
1.0462 -5.7711 -2.3992 0.9750
1.0820 -5.7647 -2.3993 0.9750
1.1176 -5.7581 -2.3994 0.9750
1.1533 -5.7513 -2.3995 0.9750
1.1888 -5.7443 -2.3996 0.9750
1.2244 -5.7371 -2.3997 0.9750
1.2599 -5.7296 -2.3997 0.9750
1.5422 -5.6619 -2.4005 0.9750
1.5772 -5.6525 -2.4005 0.9750
1.6122 -5.6429 -2.4006 0.9750
1.6471 -5.6330 -2.4007 0.9750
1.6820 -5.6229 -2.4008 0.9750
1.7515 -5.6021 -2.4010 0.9750
1.8554 -5.5692 -2.4013 0.9749
1.9586 -5.5345 -2.4015 0.9749
2.0952 -5.4852 -2.4019 0.9749
2.1292 -5.4723 -2.4020 0.9749
2.1630 -5.4592 -2.4021 0.9749
2.2305 -5.4324 -2.4022 0.9749
2.2642 -5.4187 -2.4023 0.9749
2.2978 -5.4048 -2.4024 0.9749
2.4311 -5.3471 -2.4028 0.9749
2.4642 -5.3322 -2.4028 0.9749
2.4972 -5.3171 -2.4029 0.9749
2.5301 -5.3017 -2.4030 0.9749
2.5957 -5.2704 -2.4032 0.9749
2.6609 -5.2383 -2.4034 0.9749
2.7257 -5.2053 -2.4035 0.9749
2.7579 -5.1886 -2.4036 0.9749
2.7900 -5.1716 -2.4037 0.9749
2.8221 -5.1544 -2.4038 0.9749
2.8540 -5.1371 -2.4039 0.9749
3.0432 -5.0287 -2.4044 0.9749
3.1364 -4.9719 -2.4047 0.9749
3.1672 -4.9526 -2.4048 0.9749
3.1978 -4.9331 -2.4048 0.9749
3.2588 -4.8935 -2.4050 0.9749
3.2892 -4.8735 -2.4051 0.9749
3.3193 -4.8532 -2.4052 0.9749
3.4978 -4.7277 -2.4057 0.9749
3.5271 -4.7062 -2.4058 0.9749
3.7284 -4.5502 -2.4063 0.9749
3.7847 -4.5041 -2.4065 0.9749
3.8125 -4.4807 -2.4066 0.9749
3.9227 -4.3856 -2.4069 0.9749
3.9769 -4.3371 -2.4071 0.9749
4.0305 -4.2878 -2.4072 0.9749
4.0571 -4.2629 -2.4073 0.9749
4.1876 -4.1362 -2.4077 0.9749
4.2641 -4.0581 -2.4079 0.9749
4.2892 -4.0318 -2.4080 0.9749
4.3142 -4.0054 -2.4081 0.9749
4.3390 -3.9787 -2.4082 0.9749
4.3882 -3.9250 -2.4083 0.9749
4.4125 -3.8979 -2.4084 0.9749
4.4367 -3.8707 -2.4085 0.9749
4.4607 -3.8433 -2.4085 0.9749
4.5549 -3.7322 -2.4088 0.9749
4.6010 -3.6758 -2.4090 0.9749
4.6238 -3.6474 -2.4091 0.9749
4.6464 -3.6189 -2.4091 0.9749
4.6911 -3.5613 -2.4093 0.9749
4.7351 -3.5033 -2.4094 0.9749
4.7568 -3.4740 -2.4095 0.9749
4.7783 -3.4446 -2.4096 0.9749
4.7997 -3.4151 -2.4096 0.9749
4.8418 -3.3557 -2.4098 0.9749
4.8626 -3.3258 -2.4098 0.9749
4.9037 -3.2655 -2.4100 0.9749
4.9239 -3.2352 -2.4100 0.9749
4.9439 -3.2048 -2.4101 0.9749
5.0029 -3.1128 -2.4103 0.9749
5.0603 -3.0197 -2.4105 0.9749
5.0975 -2.9570 -2.4106 0.9749
5.1696 -2.8304 -2.4109 0.9749
5.2553 -2.6695 -2.4112 0.9748
5.2719 -2.6371 -2.4113 0.9748
5.2882 -2.6044 -2.4113 0.9748
5.3043 -2.5718 -2.4114 0.9748
5.3203 -2.5390 -2.4114 0.9748
5.3360 -2.5061 -2.4115 0.9748
5.3969 -2.3736 -2.4117 0.9748
5.4116 -2.3402 -2.4118 0.9748
5.4261 -2.3067 -2.4118 0.9748
5.4545 -2.2396 -2.4120 0.9748
5.4683 -2.2058 -2.4120 0.9748
5.5087 -2.1042 -2.4122 0.9748
5.5217 -2.0701 -2.4122 0.9748
5.5471 -2.0017 -2.4123 0.9748
5.5595 -1.9674 -2.4124 0.9748
5.5717 -1.9330 -2.4124 0.9748
5.5837 -1.8986 -2.4125 0.9748
5.5954 -1.8641 -2.4125 0.9748
5.6183 -1.7948 -2.4126 0.9748
5.6294 -1.7601 -2.4127 0.9748
5.6716 -1.6204 -2.4129 0.9748
5.6915 -1.5502 -2.4130 0.9748
5.7011 -1.5150 -2.4130 0.9748
5.7104 -1.4797 -2.4131 0.9748
5.7196 -1.4444 -2.4131 0.9748
5.7285 -1.4091 -2.4131 0.9748
5.7372 -1.3736 -2.4132 0.9748
5.7457 -1.3381 -2.4132 0.9748
5.7620 -1.2670 -2.4133 0.9748
5.7848 -1.1600 -2.4134 0.9748
5.7920 -1.1242 -2.4135 0.9748
5.7989 -1.0884 -2.4135 0.9748
5.8056 -1.0525 -2.4136 0.9748
5.8245 -0.9447 -2.4137 0.9748
5.8303 -0.9086 -2.4137 0.9748
5.8359 -0.8726 -2.4138 0.9748
5.8513 -0.7642 -2.4139 0.9748
5.8725 -0.5830 -2.4140 0.9748
5.8881 -0.4012 -2.4142 0.9748
5.8906 -0.3648 -2.4142 0.9748
5.8928 -0.3283 -2.4143 0.9748
5.8981 -0.2190 -2.4143 0.9748
5.8994 -0.1825 -2.4144 0.9748
5.9004 -0.1460 -2.4144 0.9748
5.9025 0.0365 -2.4145 0.9748
5.9017 0.1095 -2.4146 0.9748
5.9009 0.1460 -2.4146 0.9748
5.9000 0.1825 -2.4146 0.9748
5.8974 0.2554 -2.4147 0.9748
5.8957 0.2919 -2.4147 0.9748
5.8939 0.3284 -2.4147 0.9748
5.8918 0.3648 -2.4147 0.9748
5.8869 0.4377 -2.4147 0.9748
5.8841 0.4741 -2.4148 0.9748
5.8811 0.5104 -2.4148 0.9748
5.8779 0.5468 -2.4148 0.9748
5.8744 0.5832 -2.4148 0.9748
5.8668 0.6558 -2.4148 0.9748
5.8584 0.7283 -2.4149 0.9748
5.8538 0.7645 -2.4149 0.9748
5.8489 0.8007 -2.4149 0.9748
5.8332 0.9091 -2.4149 0.9748
5.8215 0.9812 -2.4150 0.9748
5.8154 1.0172 -2.4150 0.9748
5.8024 1.0890 -2.4150 0.9748
5.7885 1.1607 -2.4150 0.9748
5.7660 1.2679 -2.4150 0.9748
5.7581 1.3035 -2.4150 0.9748
5.7499 1.3391 -2.4150 0.9748
5.7242 1.4456 -2.4150 0.9748
5.7058 1.5163 -2.4150 0.9748
5.6963 1.5515 -2.4150 0.9748
5.6767 1.6219 -2.4150 0.9748
5.6562 1.6919 -2.4150 0.9748
5.6456 1.7269 -2.4150 0.9748
5.6349 1.7617 -2.4150 0.9748
5.6238 1.7966 -2.4150 0.9748
5.6012 1.8660 -2.4150 0.9748
5.5655 1.9696 -2.4150 0.9748
5.5532 2.0040 -2.4150 0.9748
5.5150 2.1066 -2.4150 0.9748
5.4885 2.1746 -2.4150 0.9748
5.4749 2.2085 -2.4149 0.9748
5.4612 2.2423 -2.4149 0.9748
5.4472 2.2761 -2.4149 0.9748
5.4329 2.3097 -2.4149 0.9748
5.4186 2.3432 -2.4149 0.9748
5.4039 2.3767 -2.4149 0.9748
5.3741 2.4433 -2.4149 0.9748
5.3277 2.5425 -2.4148 0.9748
5.3119 2.5754 -2.4148 0.9748
5.2631 2.6735 -2.4148 0.9748
5.2464 2.7059 -2.4147 0.9748
5.1600 2.8667 -2.4146 0.9748
5.1422 2.8986 -2.4146 0.9748
5.1241 2.9303 -2.4146 0.9748
5.0687 3.0247 -2.4145 0.9748
5.0498 3.0560 -2.4145 0.9748
5.0116 3.1181 -2.4145 0.9748
4.9725 3.1798 -2.4144 0.9748
4.9125 3.2714 -2.4143 0.9748
4.8299 3.3918 -2.4142 0.9748
4.7874 3.4512 -2.4141 0.9748
4.7659 3.4807 -2.4141 0.9748
4.7442 3.5100 -2.4141 0.9748
4.7003 3.5683 -2.4140 0.9748
4.6557 3.6261 -2.4140 0.9748
4.6331 3.6548 -2.4139 0.9748
4.5874 3.7117 -2.4138 0.9748
4.5643 3.7399 -2.4138 0.9748
4.5410 3.7680 -2.4138 0.9748
4.5176 3.7960 -2.4137 0.9748
4.4939 3.8238 -2.4137 0.9748
4.4701 3.8514 -2.4137 0.9748
4.4462 3.8789 -2.4136 0.9748
4.3977 3.9335 -2.4135 0.9748
4.3732 3.9606 -2.4135 0.9748
4.3486 3.9875 -2.4135 0.9748
4.3238 4.0142 -2.4134 0.9748
4.2988 4.0408 -2.4134 0.9748
4.2229 4.1196 -2.4133 0.9748
4.1972 4.1456 -2.4132 0.9748
4.1455 4.1971 -2.4131 0.9748
4.1194 4.2225 -2.4131 0.9748
4.0931 4.2479 -2.4130 0.9748
4.0667 4.2730 -2.4130 0.9748
4.0401 4.2980 -2.4129 0.9748
4.0134 4.3228 -2.4129 0.9748
3.8774 4.4444 -2.4127 0.9748
3.8220 4.4918 -2.4126 0.9748
3.7941 4.5152 -2.4125 0.9748
3.7660 4.5385 -2.4125 0.9748
3.7378 4.5617 -2.4124 0.9748
3.7094 4.5846 -2.4124 0.9748
3.6216 4.5910 -2.3920 0.9750
3.3035 4.5825 -2.3108 0.9759
3.0602 4.5953 -2.2584 0.9764
3.0029 4.6325 -2.2583 0.9764
2.9742 4.6509 -2.2583 0.9764
2.9163 4.6871 -2.2582 0.9764
2.7400 4.7913 -2.2578 0.9764
2.6804 4.8246 -2.2577 0.9764
2.6504 4.8410 -2.2576 0.9764
2.6204 4.8571 -2.2576 0.9764
2.5902 4.8731 -2.2575 0.9764
2.5296 4.9045 -2.2574 0.9764
2.4380 4.9502 -2.2572 0.9764
2.3764 4.9797 -2.2571 0.9764
2.3455 4.9941 -2.2570 0.9764
2.3146 5.0084 -2.2569 0.9764
2.2835 5.0225 -2.2569 0.9764
2.2523 5.0363 -2.2568 0.9764
2.1897 5.0636 -2.2567 0.9764
2.1583 5.0768 -2.2566 0.9764
2.1268 5.0899 -2.2566 0.9764
2.0636 5.1156 -2.2564 0.9764
2.0318 5.1281 -2.2564 0.9764
2.0000 5.1404 -2.2563 0.9764
1.9362 5.1644 -2.2562 0.9764
1.8720 5.1877 -2.2560 0.9764
1.8399 5.1990 -2.2560 0.9764
1.7753 5.2210 -2.2558 0.9764
1.7430 5.2317 -2.2557 0.9764
1.7105 5.2422 -2.2557 0.9765
1.5801 5.2823 -2.2554 0.9765
1.5474 5.2918 -2.2553 0.9765
1.5146 5.3011 -2.2553 0.9765
1.4158 5.3278 -2.2550 0.9765
1.3828 5.3363 -2.2550 0.9765
1.2835 5.3605 -2.2547 0.9765
1.1837 5.3828 -2.2545 0.9765
1.1169 5.3967 -2.2544 0.9765
0.9830 5.4220 -2.2541 0.9765
0.9494 5.4278 -2.2540 0.9765
0.8484 5.4439 -2.2538 0.9765
0.6796 5.4666 -2.2534 0.9765
0.6457 5.4705 -2.2533 0.9765
0.5780 5.4777 -2.2532 0.9765
0.5102 5.4840 -2.2530 0.9765
0.4762 5.4869 -2.2529 0.9765
0.3743 5.4942 -2.2527 0.9765
0.2723 5.4996 -2.2525 0.9765
0.2383 5.5010 -2.2524 0.9765
0.2043 5.5022 -2.2523 0.9765
0.1703 5.5032 -2.2522 0.9765
0.1362 5.5039 -2.2521 0.9765
0.0000 5.5048 -2.2518 0.9765
-0.1021 5.5033 -2.2516 0.9765
-0.1361 5.5023 -2.2515 0.9765
-0.1702 5.5012 -2.2514 0.9765
-0.2381 5.4983 -2.2512 0.9765
-0.3401 5.4923 -2.2510 0.9765
-0.4419 5.4845 -2.2508 0.9765
-0.4758 5.4814 -2.2507 0.9765
-0.5096 5.4782 -2.2506 0.9765
-0.5773 5.4711 -2.2504 0.9765
-0.6449 5.4631 -2.2503 0.9765
-0.6787 5.4588 -2.2502 0.9765
-0.7460 5.4496 -2.2500 0.9765
-0.8133 5.4395 -2.2499 0.9765
-0.8804 5.4287 -2.2497 0.9765
-0.9475 5.4170 -2.2495 0.9765
-0.9809 5.4108 -2.2494 0.9765
-1.1143 5.3841 -2.2491 0.9765
-1.2469 5.3541 -2.2488 0.9765
-1.2800 5.3461 -2.2487 0.9765
-1.3129 5.3379 -2.2486 0.9765
-1.3459 5.3294 -2.2485 0.9765
-1.3788 5.3208 -2.2484 0.9765
-1.4116 5.3120 -2.2484 0.9765
-1.4444 5.3030 -2.2483 0.9765
-1.5097 5.2843 -2.2481 0.9765
-1.6397 5.2446 -2.2478 0.9765
-1.7687 5.2016 -2.2474 0.9765
-1.8327 5.1790 -2.2473 0.9765
-1.8647 5.1673 -2.2472 0.9765
-1.8965 5.1555 -2.2471 0.9765
-1.9916 5.1189 -2.2469 0.9765
-2.0546 5.0935 -2.2467 0.9765
-2.1485 5.0540 -2.2464 0.9765
-2.1797 5.0404 -2.2464 0.9765
-2.3034 4.9842 -2.2460 0.9766
-2.4559 4.9097 -2.2456 0.9766
-2.5162 4.8786 -2.2455 0.9766
-2.5463 4.8628 -2.2454 0.9766
-2.6060 4.8305 -2.2452 0.9766
-2.6358 4.8142 -2.2451 0.9766
-2.6949 4.7808 -2.2450 0.9766
-2.7579 4.7542 -2.2483 0.9765
-2.7947 4.7498 -2.2543 0.9765
-2.8320 4.7457 -2.2607 0.9764
-2.8721 4.7459 -2.2692 0.9763
-2.9125 4.7462 -2.2779 0.9762
-2.9532 4.7464 -2.2867 0.9761
-3.0355 4.7467 -2.3048 0.9759
-3.0771 4.7469 -2.3141 0.9758
-3.1613 4.7472 -2.3331 0.9757
-3.2470 4.7474 -2.3528 0.9754
-3.4829 4.7076 -2.3955 0.9750
-3.5693 4.6417 -2.3952 0.9750
-3.6262 4.5969 -2.3951 0.9750
-3.6545 4.5742 -2.3950 0.9750
-3.6825 4.5514 -2.3949 0.9750
-3.7105 4.5284 -2.3948 0.9750
-3.7383 4.5052 -2.3947 0.9750
-3.7660 4.4818 -2.3947 0.9750
-3.7935 4.4583 -2.3946 0.9750
-3.8208 4.4346 -2.3945 0.9750
-3.8480 4.4108 -2.3944 0.9750
-3.8752 4.3867 -2.3943 0.9750
-3.9288 4.3382 -2.3942 0.9750
-3.9554 4.3137 -2.3941 0.9750
-3.9819 4.2890 -2.3940 0.9750
-4.0604 4.2140 -2.3938 0.9750
-4.0862 4.1886 -2.3937 0.9750
-4.1375 4.1375 -2.3935 0.9750
-4.2131 4.0596 -2.3933 0.9750
-4.2380 4.0334 -2.3932 0.9750
-4.3117 3.9537 -2.3930 0.9750
-4.3839 3.8726 -2.3928 0.9750
-4.4076 3.8453 -2.3927 0.9750
-4.4312 3.8179 -2.3926 0.9750
-4.4546 3.7903 -2.3926 0.9750
-4.4778 3.7626 -2.3925 0.9750
-4.5008 3.7347 -2.3924 0.9750
-4.5464 3.6785 -2.3923 0.9750
-4.5689 3.6502 -2.3922 0.9750
-4.5913 3.6218 -2.3921 0.9750
-4.6135 3.5932 -2.3921 0.9750
-4.6573 3.5357 -2.3919 0.9750
-4.6789 3.5067 -2.3919 0.9750
-4.7004 3.4776 -2.3918 0.9750
-4.7844 3.3599 -2.3915 0.9751
-4.8455 3.2703 -2.3913 0.9751
-4.8655 3.2401 -2.3912 0.9751
-4.8853 3.2099 -2.3912 0.9751
-4.9244 3.1491 -2.3910 0.9751
-4.9436 3.1184 -2.3910 0.9751
-5.0002 3.0260 -2.3908 0.9751
-5.0186 2.9949 -2.3907 0.9751
-5.0370 2.9637 -2.3906 0.9751
-5.0551 2.9325 -2.3906 0.9751
-5.0907 2.8696 -2.3905 0.9751
-5.1255 2.8062 -2.3903 0.9751
-5.1427 2.7744 -2.3903 0.9751
-5.1763 2.7104 -2.3902 0.9751
-5.2091 2.6461 -2.3900 0.9751
-5.2253 2.6137 -2.3900 0.9751
-5.2412 2.5813 -2.3899 0.9751
-5.2570 2.5488 -2.3899 0.9751
-5.2725 2.5162 -2.3898 0.9751
-5.3029 2.4507 -2.3897 0.9751
-5.3326 2.3848 -2.3896 0.9751
-5.3471 2.3517 -2.3895 0.9751
-5.3614 2.3185 -2.3895 0.9751
-5.3895 2.2519 -2.3893 0.9751
-5.4032 2.2185 -2.3893 0.9751
-5.4167 2.1850 -2.3892 0.9751
-5.4299 2.1514 -2.3892 0.9751
-5.4686 2.0502 -2.3890 0.9751
-5.4810 2.0163 -2.3890 0.9751
-5.4933 1.9823 -2.3889 0.9751
-5.5171 1.9141 -2.3888 0.9751
-5.5401 1.8457 -2.3887 0.9751
-5.5731 1.7425 -2.3886 0.9751
-5.5836 1.7079 -2.3885 0.9751
-5.5940 1.6733 -2.3885 0.9751
-5.6042 1.6387 -2.3884 0.9751
-5.6140 1.6040 -2.3884 0.9751
-5.6237 1.5692 -2.3883 0.9751
-5.6515 1.4645 -2.3882 0.9751
-5.6604 1.4295 -2.3882 0.9751
-5.6690 1.3944 -2.3881 0.9751
-5.6936 1.2889 -2.3880 0.9751
-5.7162 1.1830 -2.3879 0.9751
-5.7234 1.1476 -2.3878 0.9751
-5.7303 1.1122 -2.3878 0.9751
-5.7434 1.0412 -2.3877 0.9751
-5.7496 1.0057 -2.3877 0.9751
-5.7557 0.9701 -2.3876 0.9751
-5.7724 0.8631 -2.3875 0.9751
-5.7871 0.7558 -2.3874 0.9751
-5.7959 0.6842 -2.3873 0.9751
-5.8037 0.6124 -2.3873 0.9751
-5.8107 0.5406 -2.3872 0.9751
-5.8139 0.5046 -2.3872 0.9751
-5.8195 0.4327 -2.3871 0.9751
-5.8243 0.3606 -2.3871 0.9751
-5.8264 0.3246 -2.3870 0.9751
-5.8282 0.2886 -2.3870 0.9751
-5.8298 0.2525 -2.3870 0.9751
-5.8340 0.1083 -2.3869 0.9751
-5.8345 0.0722 -2.3868 0.9751
-5.8348 0.0361 -2.3868 0.9751
-5.7139 -0.0353 -2.3871 0.9755
-5.7129 -0.1060 -2.3870 0.9755
-5.7098 -0.2120 -2.3870 0.9755
-5.7067 -0.2825 -2.3869 0.9755
-5.7048 -0.3179 -2.3869 0.9755
-5.7003 -0.3884 -2.3869 0.9755
-5.6920 -0.4941 -2.3868 0.9755
-5.6854 -0.5644 -2.3868 0.9755
-5.6817 -0.5996 -2.3868 0.9755
-5.6779 -0.6347 -2.3868 0.9755
-5.6738 -0.6698 -2.3867 0.9755
-5.6696 -0.7048 -2.3867 0.9755
-5.6603 -0.7749 -2.3867 0.9755
-5.6503 -0.8449 -2.3867 0.9755
-5.6449 -0.8798 -2.3867 0.9755
-5.6393 -0.9147 -2.3867 0.9755
-5.6275 -0.9843 -2.3866 0.9755
-5.6213 -1.0191 -2.3866 0.9755
-5.6083 -1.0885 -2.3866 0.9755
-5.6014 -1.1232 -2.3866 0.9755
-5.5795 -1.2269 -2.3866 0.9755
-5.5718 -1.2614 -2.3866 0.9755
-5.5027 -1.5354 -2.3866 0.9755
-5.4930 -1.5694 -2.3866 0.9755
-5.4832 -1.6033 -2.3866 0.9755
-5.4419 -1.7385 -2.3866 0.9755
-5.4311 -1.7721 -2.3866 0.9755
-5.4200 -1.8057 -2.3866 0.9755
-5.4088 -1.8391 -2.3866 0.9755
-5.3856 -1.9059 -2.3866 0.9755
-5.3616 -1.9724 -2.3866 0.9755
-5.3369 -2.0386 -2.3866 0.9755
-5.3242 -2.0715 -2.3866 0.9755
-5.2849 -2.1700 -2.3867 0.9755
-5.2714 -2.2026 -2.3867 0.9755
-5.2438 -2.2677 -2.3867 0.9755
-5.2297 -2.3001 -2.3867 0.9755
-5.2154 -2.3324 -2.3867 0.9755
-5.1713 -2.4288 -2.3868 0.9755
-5.1562 -2.4607 -2.3868 0.9755
-5.1410 -2.4926 -2.3868 0.9755
-5.1255 -2.5243 -2.3868 0.9755
-5.0939 -2.5876 -2.3868 0.9755
-5.0779 -2.6190 -2.3869 0.9755
-5.0616 -2.6504 -2.3869 0.9755
-5.0285 -2.7129 -2.3869 0.9755
-5.0117 -2.7439 -2.3869 0.9755
-4.9947 -2.7749 -2.3869 0.9755
-4.9600 -2.8365 -2.3870 0.9755
-4.9425 -2.8671 -2.3870 0.9755
-4.9246 -2.8977 -2.3870 0.9755
-4.8885 -2.9584 -2.3871 0.9755
-4.8517 -3.0187 -2.3871 0.9755
-4.8141 -3.0786 -2.3872 0.9755
-4.7950 -3.1083 -2.3872 0.9755
-4.7563 -3.1674 -2.3872 0.9755
-4.7367 -3.1968 -2.3873 0.9755
-4.7169 -3.2261 -2.3873 0.9755
-4.6969 -3.2552 -2.3873 0.9755
-4.6767 -3.2843 -2.3874 0.9755
-4.6359 -3.3419 -2.3874 0.9755
-4.5732 -3.4275 -2.3875 0.9755
-4.5090 -3.5119 -2.3876 0.9755
-4.3986 -3.6499 -2.3878 0.9755
-4.3760 -3.6771 -2.3878 0.9755
-4.2840 -3.7844 -2.3880 0.9755
-4.2605 -3.8109 -2.3880 0.9755
-4.2133 -3.8634 -2.3881 0.9755
-4.1653 -3.9153 -2.3881 0.9755
-4.1410 -3.9411 -2.3882 0.9755
-4.1167 -3.9667 -2.3882 0.9755
-4.0426 -4.0426 -2.3884 0.9755
-4.0176 -4.0676 -2.3884 0.9755
-3.9671 -4.1171 -2.3885 0.9755
-3.9416 -4.1417 -2.3885 0.9755
-3.9160 -4.1660 -2.3886 0.9755
-3.8903 -4.1902 -2.3886 0.9755
-3.8643 -4.2143 -2.3887 0.9755
-3.8383 -4.2382 -2.3887 0.9755
-3.8121 -4.2620 -2.3887 0.9755
-3.7857 -4.2855 -2.3888 0.9755
-3.7592 -4.3089 -2.3888 0.9755
-3.7326 -4.3322 -2.3889 0.9755
-3.6788 -4.3782 -2.3890 0.9755
-3.6518 -4.4010 -2.3890 0.9755
-3.5972 -4.4460 -2.3891 0.9755
-3.5697 -4.4682 -2.3892 0.9755
-3.5421 -4.4903 -2.3892 0.9755
-3.5143 -4.5122 -2.3893 0.9755
-3.4864 -4.5340 -2.3893 0.9755
-3.3735 -4.6192 -2.3895 0.9755
-3.3450 -4.6401 -2.3896 0.9755
-3.2875 -4.6813 -2.3897 0.9755
-3.2585 -4.7017 -2.3898 0.9755
-3.2295 -4.7218 -2.3898 0.9755
-3.2003 -4.7418 -2.3899 0.9755
-3.1710 -4.7616 -2.3899 0.9755
-3.1416 -4.7813 -2.3900 0.9755
-3.0823 -4.8200 -2.3901 0.9755
-3.0226 -4.8580 -2.3902 0.9755
-2.9926 -4.8767 -2.3903 0.9755
-2.9625 -4.8953 -2.3903 0.9755
-2.9322 -4.9136 -2.3904 0.9755
-2.8714 -4.9497 -2.3905 0.9755
-2.8407 -4.9675 -2.3906 0.9755
-2.8100 -4.9851 -2.3906 0.9755
-2.7173 -5.0368 -2.3908 0.9755
-2.6862 -5.0536 -2.3909 0.9755
-2.4972 -5.1506 -2.3913 0.9755
-2.4654 -5.1661 -2.3913 0.9755
-2.4334 -5.1814 -2.3914 0.9755
-2.4015 -5.1965 -2.3915 0.9755
-2.3693 -5.2114 -2.3915 0.9755
-2.3371 -5.2261 -2.3916 0.9755
-2.3048 -5.2406 -2.3917 0.9755
-2.2400 -5.2690 -2.3918 0.9755
-2.2074 -5.2829 -2.3919 0.9755
-2.1747 -5.2966 -2.3919 0.9755
-2.1420 -5.3101 -2.3920 0.9755
-2.1092 -5.3234 -2.3921 0.9755
-2.0433 -5.3494 -2.3922 0.9755
-1.9439 -5.3868 -2.3924 0.9755
-1.9106 -5.3989 -2.3925 0.9755
-1.8772 -5.4108 -2.3926 0.9755
-1.8103 -5.4339 -2.3927 0.9755
-1.7430 -5.4562 -2.3928 0.9755
-1.6417 -5.4881 -2.3931 0.9755
-1.6077 -5.4983 -2.3931 0.9755
-1.5397 -5.5181 -2.3933 0.9755
-1.5056 -5.5277 -2.3934 0.9755
-1.4029 -5.5552 -2.3936 0.9755
-1.2997 -5.5808 -2.3938 0.9755
-1.2652 -5.5889 -2.3939 0.9755
-1.1961 -5.6045 -2.3940 0.9755
-1.0224 -5.6397 -2.3944 0.9755
-0.9876 -5.6461 -2.3945 0.9755
-0.9526 -5.6523 -2.3946 0.9755
-0.9177 -5.6583 -2.3947 0.9755
-0.8827 -5.6640 -2.3947 0.9755
-0.8477 -5.6696 -2.3948 0.9755
-0.8126 -5.6749 -2.3949 0.9755
-0.7776 -5.6800 -2.3950 0.9755
-0.6369 -5.6982 -2.3953 0.9755
-0.4605 -5.7162 -2.3957 0.9754
-0.4252 -5.7191 -2.3958 0.9754
-0.3898 -5.7218 -2.3959 0.9754
-0.3190 -5.7266 -2.3960 0.9754
-0.2837 -5.7286 -2.3961 0.9754
-0.2482 -5.7305 -2.3962 0.9754
-0.2128 -5.7321 -2.3963 0.9754
-0.1419 -5.7347 -2.3964 0.9754
-0.1064 -5.7357 -2.3965 0.9754
-0.0354 -5.7369 -2.3967 0.9754
0.0000 -5.7372 -2.3968 0.9754
0.1064 -5.7369 -2.3970 0.9754
0.1419 -5.7363 -2.3971 0.9754
0.1774 -5.7355 -2.3972 0.9754
0.2483 -5.7333 -2.3974 0.9754
0.2838 -5.7319 -2.3974 0.9754
0.3193 -5.7302 -2.3975 0.9754
0.3902 -5.7262 -2.3977 0.9754
0.4256 -5.7239 -2.3978 0.9754
0.4963 -5.7186 -2.3979 0.9754
0.5318 -5.7156 -2.3980 0.9754
0.6024 -5.7090 -2.3982 0.9754
0.6378 -5.7054 -2.3983 0.9754
0.7436 -5.6932 -2.3985 0.9754
0.7788 -5.6887 -2.3986 0.9754
0.8140 -5.6839 -2.3987 0.9754
0.9545 -5.6629 -2.3991 0.9754
1.0245 -5.6511 -2.3992 0.9754
1.0595 -5.6448 -2.3993 0.9754
1.0944 -5.6384 -2.3994 0.9754
1.1989 -5.6177 -2.3997 0.9754
1.2684 -5.6028 -2.3998 0.9754
1.3377 -5.5871 -2.4000 0.9754
1.3723 -5.5790 -2.4001 0.9754
1.4068 -5.5706 -2.4002 0.9754
1.5444 -5.5349 -2.4005 0.9754
1.6129 -5.5158 -2.4007 0.9754
1.6811 -5.4958 -2.4009 0.9754
1.7490 -5.4750 -2.4011 0.9754
1.7829 -5.4642 -2.4012 0.9754
1.8167 -5.4533 -2.4012 0.9754
1.9514 -5.4075 -2.4016 0.9754
1.9848 -5.3955 -2.4017 0.9754
2.0182 -5.3833 -2.4018 0.9754
2.0515 -5.3709 -2.4018 0.9754
2.0848 -5.3583 -2.4019 0.9754
2.1511 -5.3325 -2.4021 0.9754
2.1841 -5.3193 -2.4022 0.9754
2.2170 -5.3059 -2.4023 0.9754
2.3479 -5.2502 -2.4026 0.9754
2.5096 -5.1760 -2.4031 0.9754
2.5416 -5.1606 -2.4031 0.9754
2.5736 -5.1450 -2.4032 0.9754
2.6372 -5.1131 -2.4034 0.9754
2.6689 -5.0969 -2.4035 0.9754
2.7004 -5.0804 -2.4036 0.9754
2.7319 -5.0638 -2.4037 0.9754
2.8567 -4.9954 -2.4040 0.9754
2.8877 -4.9778 -2.4041 0.9754
2.9492 -4.9421 -2.4043 0.9754
2.9798 -4.9239 -2.4043 0.9754
3.0407 -4.8870 -2.4045 0.9754
3.0710 -4.8683 -2.4046 0.9754
3.1611 -4.8110 -2.4048 0.9754
3.1909 -4.7915 -2.4049 0.9754
3.2206 -4.7719 -2.4050 0.9754
3.2501 -4.7520 -2.4051 0.9754
3.2796 -4.7320 -2.4052 0.9754
3.3089 -4.7118 -2.4053 0.9753
3.3961 -4.6501 -2.4055 0.9753
3.4536 -4.6080 -2.4057 0.9753
3.5388 -4.5436 -2.4059 0.9753
3.5950 -4.4998 -2.4061 0.9753
3.6229 -4.4776 -2.4061 0.9753
3.6506 -4.4553 -2.4062 0.9753
3.7056 -4.4101 -2.4064 0.9753
3.7602 -4.3642 -2.4065 0.9753
3.7872 -4.3410 -2.4066 0.9753
3.8142 -4.3177 -2.4067 0.9753
3.8409 -4.2941 -2.4068 0.9753
3.8675 -4.2704 -2.4069 0.9753
4.0496 -4.1000 -2.4074 0.9753
4.1003 -4.0498 -2.4076 0.9753
4.1254 -4.0245 -2.4076 0.9753
4.1503 -3.9991 -2.4077 0.9753
4.2485 -3.8957 -2.4080 0.9753
4.2726 -3.8695 -2.4081 0.9753
4.2966 -3.8431 -2.4082 0.9753
4.3440 -3.7899 -2.4083 0.9753
4.3675 -3.7630 -2.4084 0.9753
4.3908 -3.7361 -2.4085 0.9753
4.4370 -3.6817 -2.4086 0.9753
4.4598 -3.6543 -2.4087 0.9753
4.4825 -3.6268 -2.4087 0.9753
4.5049 -3.5991 -2.4088 0.9753
4.5272 -3.5713 -2.4089 0.9753
4.5494 -3.5433 -2.4090 0.9753
4.5713 -3.5152 -2.4090 0.9753
4.6362 -3.4301 -2.4092 0.9753
4.6574 -3.4014 -2.4093 0.9753
4.7812 -3.2269 -2.4097 0.9753
4.8794 -3.0779 -2.4100 0.9753
4.9360 -2.9871 -2.4102 0.9753
4.9729 -2.9260 -2.4104 0.9753
4.9910 -2.8953 -2.4104 0.9753
5.0089 -2.8644 -2.4105 0.9753
5.0267 -2.8335 -2.4105 0.9753
5.0442 -2.8024 -2.4106 0.9753
5.0788 -2.7400 -2.4107 0.9753
5.1291 -2.6454 -2.4109 0.9753
5.2840 -2.3239 -2.4115 0.9753
5.3127 -2.2585 -2.4116 0.9753
5.3404 -2.1927 -2.4117 0.9753
5.3540 -2.1597 -2.4118 0.9753
5.3674 -2.1266 -2.4118 0.9753
5.3805 -2.0935 -2.4119 0.9753
5.4312 -1.9599 -2.4121 0.9753
5.4432 -1.9263 -2.4121 0.9753
5.4551 -1.8926 -2.4122 0.9753
5.4897 -1.7912 -2.4123 0.9753
5.5008 -1.7573 -2.4124 0.9753
5.5328 -1.6550 -2.4125 0.9753
5.5530 -1.5865 -2.4126 0.9753
5.5628 -1.5522 -2.4127 0.9753
5.5724 -1.5178 -2.4127 0.9753
5.5818 -1.4833 -2.4128 0.9753
5.6087 -1.3796 -2.4129 0.9753
5.6172 -1.3449 -2.4129 0.9753
5.6336 -1.2754 -2.4130 0.9753
5.6415 -1.2405 -2.4131 0.9753
5.6491 -1.2056 -2.4131 0.9753
5.6566 -1.1707 -2.4131 0.9753
5.6638 -1.1357 -2.4132 0.9753
5.6708 -1.1007 -2.4132 0.9753
5.6966 -0.9601 -2.4134 0.9753
5.7026 -0.9249 -2.4134 0.9753
5.7083 -0.8896 -2.4134 0.9753
5.7138 -0.8543 -2.4135 0.9753
5.7190 -0.8190 -2.4135 0.9753
5.7289 -0.7482 -2.4136 0.9753
5.7378 -0.6773 -2.4137 0.9753
5.7460 -0.6063 -2.4137 0.9753
5.7531 -0.5352 -2.4138 0.9753
5.7564 -0.4996 -2.4138 0.9753
5.7595 -0.4640 -2.4138 0.9753
5.7623 -0.4284 -2.4139 0.9753
5.7649 -0.3928 -2.4139 0.9753
5.7673 -0.3571 -2.4139 0.9753
5.7714 -0.2858 -2.4140 0.9753
5.7746 -0.2144 -2.4140 0.9753
5.7784 -0.0715 -2.4142 0.9753
5.7788 -0.0358 -2.4142 0.9753
5.7789 0.0358 -2.4142 0.9753
5.7775 0.1429 -2.4143 0.9753
5.7765 0.1787 -2.4143 0.9753
5.7739 0.2501 -2.4144 0.9753
5.7705 0.3215 -2.4144 0.9753
5.7685 0.3572 -2.4144 0.9753
5.7479 0.6065 -2.4145 0.9753
5.7400 0.6776 -2.4146 0.9753
5.7312 0.7485 -2.4146 0.9753
5.7164 0.8547 -2.4146 0.9753
5.7111 0.8900 -2.4146 0.9753
5.6997 0.9606 -2.4147 0.9753
5.6874 1.0311 -2.4147 0.9753
5.6810 1.0662 -2.4147 0.9753
5.6674 1.1364 -2.4147 0.9753
5.6602 1.1715 -2.4147 0.9753
5.6375 1.2762 -2.4147 0.9753
5.6129 1.3806 -2.4147 0.9753
5.6043 1.4153 -2.4147 0.9753
5.5954 1.4499 -2.4147 0.9753
5.5863 1.4845 -2.4147 0.9753
5.5771 1.5190 -2.4147 0.9753
5.4725 1.8608 -2.4147 0.9753
5.4247 1.9956 -2.4147 0.9753
5.4123 2.0291 -2.4147 0.9753
5.3469 2.1954 -2.4146 0.9753
5.3332 2.2284 -2.4146 0.9753
5.3052 2.2942 -2.4146 0.9753
5.2763 2.3596 -2.4146 0.9753
5.2616 2.3922 -2.4146 0.9753
5.2467 2.4246 -2.4146 0.9753
5.2316 2.4570 -2.4145 0.9753
5.1850 2.5536 -2.4145 0.9753
5.1690 2.5856 -2.4145 0.9753
5.1366 2.6493 -2.4144 0.9753
5.0694 2.7754 -2.4144 0.9753
5.0346 2.8379 -2.4143 0.9753
4.9809 2.9307 -2.4143 0.9753
4.9442 2.9921 -2.4142 0.9753
4.8490 3.1433 -2.4141 0.9753
4.8295 3.1732 -2.4141 0.9753
4.7696 3.2621 -2.4140 0.9753
4.7493 3.2915 -2.4140 0.9753
4.7288 3.3208 -2.4139 0.9753
4.6872 3.3789 -2.4139 0.9753
4.6450 3.4366 -2.4138 0.9753
4.5802 3.5220 -2.4137 0.9753
4.5362 3.5783 -2.4136 0.9753
4.5139 3.6062 -2.4136 0.9753
4.4914 3.6340 -2.4136 0.9753
4.4688 3.6617 -2.4135 0.9753
4.4460 3.6892 -2.4135 0.9753
4.3295 3.8246 -2.4133 0.9753
4.3057 3.8512 -2.4133 0.9753
4.2818 3.8777 -2.4132 0.9753
4.2577 3.9040 -2.4132 0.9753
4.2333 3.9302 -2.4132 0.9753
4.2089 3.9563 -2.4131 0.9753
4.1595 4.0079 -2.4130 0.9753
4.1346 4.0335 -2.4130 0.9753
3.9556 4.2081 -2.4127 0.9753
3.9294 4.2324 -2.4126 0.9753
3.7963 4.3514 -2.4124 0.9753
3.7693 4.3747 -2.4124 0.9753
3.7421 4.3979 -2.4123 0.9753
3.7147 4.4208 -2.4123 0.9753
3.6872 4.4436 -2.4122 0.9753
3.6596 4.4663 -2.4122 0.9753
3.6318 4.4887 -2.4121 0.9753
3.5759 4.5331 -2.4120 0.9753
3.5194 4.5768 -2.4119 0.9753
3.4745 4.5767 -2.4005 0.9754
3.1671 4.5696 -2.3226 0.9762
3.1248 4.5687 -2.3123 0.9763
3.0414 4.5670 -2.2922 0.9765
3.0002 4.5661 -2.2824 0.9766
2.9595 4.5655 -2.2729 0.9767
2.8857 4.5746 -2.2595 0.9768
2.8554 4.5891 -2.2579 0.9768
2.7982 4.6239 -2.2578 0.9768
2.7695 4.6410 -2.2578 0.9768
2.6828 4.6912 -2.2576 0.9768
2.6536 4.7076 -2.2575 0.9768
2.6244 4.7238 -2.2575 0.9768
2.5656 4.7556 -2.2574 0.9768
2.5065 4.7868 -2.2573 0.9768
2.4768 4.8020 -2.2572 0.9768
2.4171 4.8321 -2.2571 0.9769
2.3570 4.8613 -2.2569 0.9769
2.2965 4.8898 -2.2568 0.9769
2.2662 4.9038 -2.2568 0.9769
2.1747 4.9446 -2.2566 0.9769
2.1440 4.9578 -2.2565 0.9769
2.0514 4.9963 -2.2563 0.9769
2.0204 5.0087 -2.2563 0.9769
1.9582 5.0330 -2.2561 0.9769
1.9271 5.0449 -2.2561 0.9769
1.8957 5.0566 -2.2560 0.9769
1.8014 5.0904 -2.2558 0.9769
1.7699 5.1013 -2.2557 0.9769
1.7383 5.1120 -2.2557 0.9769
1.6748 5.1328 -2.2555 0.9769
1.6429 5.1429 -2.2555 0.9769
1.6111 5.1528 -2.2554 0.9769
1.5471 5.1720 -2.2552 0.9769
1.5151 5.1813 -2.2552 0.9769
1.4185 5.2081 -2.2550 0.9769
1.3863 5.2166 -2.2549 0.9769
1.3539 5.2249 -2.2548 0.9769
1.2891 5.2409 -2.2547 0.9769
1.2567 5.2486 -2.2546 0.9769
1.1590 5.2705 -2.2544 0.9769
1.0936 5.2841 -2.2542 0.9769
1.0281 5.2969 -2.2541 0.9769
0.9296 5.3145 -2.2539 0.9769
0.8967 5.3200 -2.2538 0.9769
0.7647 5.3398 -2.2535 0.9769
0.7316 5.3443 -2.2534 0.9769
0.6985 5.3485 -2.2534 0.9769
0.6654 5.3526 -2.2533 0.9769
0.6323 5.3564 -2.2532 0.9769
0.5660 5.3634 -2.2531 0.9769
0.5328 5.3667 -2.2530 0.9769
0.3998 5.3775 -2.2527 0.9769
0.3332 5.3817 -2.2525 0.9769
0.2999 5.3834 -2.2524 0.9769
0.2666 5.3850 -2.2524 0.9769
0.2333 5.3863 -2.2523 0.9769
0.2000 5.3875 -2.2522 0.9769
0.1333 5.3892 -2.2521 0.9769
0.1000 5.3897 -2.2520 0.9769
0.0667 5.3900 -2.2519 0.9769
-0.1000 5.3886 -2.2515 0.9769
-0.1333 5.3877 -2.2514 0.9769
-0.1666 5.3866 -2.2513 0.9769
-0.1999 5.3852 -2.2513 0.9769
-0.2665 5.3820 -2.2511 0.9769
-0.3330 5.3779 -2.2509 0.9769
-0.3662 5.3755 -2.2509 0.9769
-0.3995 5.3730 -2.2508 0.9769
-0.4658 5.3672 -2.2506 0.9769
-0.4990 5.3640 -2.2505 0.9769
-0.5322 5.3607 -2.2505 0.9769
-0.5984 5.3533 -2.2503 0.9769
-0.6975 5.3407 -2.2501 0.9769
-0.7305 5.3361 -2.2500 0.9769
-0.7635 5.3313 -2.2499 0.9769
-0.8293 5.3210 -2.2497 0.9769
-0.8622 5.3156 -2.2497 0.9769
-0.9605 5.2982 -2.2494 0.9769
-1.0585 5.2788 -2.2492 0.9769
-1.1236 5.2650 -2.2490 0.9769
-1.1561 5.2577 -2.2489 0.9769
-1.2210 5.2426 -2.2488 0.9769
-1.2533 5.2348 -2.2487 0.9769
-1.2856 5.2268 -2.2486 0.9769
-1.3179 5.2185 -2.2485 0.9769
-1.3501 5.2101 -2.2484 0.9769
-1.3822 5.2014 -2.2484 0.9769
-1.4143 5.1926 -2.2483 0.9769
-1.4783 5.1743 -2.2481 0.9769
-1.5103 5.1649 -2.2480 0.9769
-1.5421 5.1553 -2.2479 0.9769
-1.5739 5.1455 -2.2479 0.9769
-1.6056 5.1354 -2.2478 0.9769
-1.6373 5.1252 -2.2477 0.9769
-1.6689 5.1148 -2.2476 0.9769
-1.7633 5.0824 -2.2474 0.9769
-1.7946 5.0712 -2.2473 0.9769
-1.9192 5.0246 -2.2470 0.9770
-1.9811 5.0001 -2.2468 0.9770
-2.0119 4.9876 -2.2467 0.9770
-2.0426 4.9749 -2.2466 0.9770
-2.0733 4.9620 -2.2466 0.9770
-2.1343 4.9356 -2.2464 0.9770
-2.1647 4.9221 -2.2463 0.9770
-2.1951 4.9084 -2.2462 0.9770
-2.2855 4.8663 -2.2460 0.9770
-2.3751 4.8226 -2.2458 0.9770
-2.4049 4.8077 -2.2457 0.9770
-2.5230 4.7466 -2.2456 0.9770
-2.6312 4.7360 -2.2633 0.9768
-2.7087 4.7366 -2.2794 0.9766
-2.7479 4.7368 -2.2877 0.9765
-2.7873 4.7371 -2.2961 0.9765
-2.9073 4.7377 -2.3221 0.9762
-3.0300 4.7382 -2.3495 0.9759
-3.0715 4.7383 -2.3590 0.9758
-3.2960 4.6934 -2.3959 0.9754
-3.3248 4.6728 -2.3958 0.9754
-3.3536 4.6520 -2.3957 0.9754
-3.3822 4.6310 -2.3957 0.9754
-3.4106 4.6099 -2.3956 0.9754
-3.4389 4.5885 -2.3955 0.9754
-3.4952 4.5453 -2.3953 0.9755
-3.5231 4.5235 -2.3953 0.9755
-3.5509 4.5015 -2.3952 0.9755
-3.6334 4.4344 -2.3949 0.9755
-3.6607 4.4117 -2.3949 0.9755
-3.7147 4.3658 -2.3947 0.9755
-3.7415 4.3426 -2.3946 0.9755
-3.7682 4.3192 -2.3945 0.9755
-3.8211 4.2720 -2.3944 0.9755
-3.8734 4.2241 -2.3942 0.9755
-3.8993 4.2000 -2.3942 0.9755
-3.9250 4.1756 -2.3941 0.9755
-3.9507 4.1512 -2.3940 0.9755
-3.9762 4.1265 -2.3939 0.9755
-4.0516 4.0516 -2.3937 0.9755
-4.0765 4.0264 -2.3936 0.9755
-4.1012 4.0010 -2.3935 0.9755
-4.1257 3.9754 -2.3935 0.9755
-4.1501 3.9497 -2.3934 0.9755
-4.1743 3.9238 -2.3933 0.9755
-4.2223 3.8717 -2.3932 0.9755
-4.2460 3.8453 -2.3931 0.9755
-4.3162 3.7656 -2.3929 0.9755
-4.3849 3.6845 -2.3927 0.9755
-4.5178 3.5187 -2.3922 0.9755
-4.5607 3.4624 -2.3921 0.9755
-4.6237 3.3769 -2.3919 0.9755
-4.6444 3.3481 -2.3918 0.9755
-4.6852 3.2902 -2.3917 0.9755
-4.7053 3.2611 -2.3916 0.9755
-4.8222 3.0838 -2.3912 0.9755
-4.8411 3.0538 -2.3912 0.9755
-4.8783 2.9936 -2.3910 0.9755
-4.9147 2.9328 -2.3909 0.9755
-4.9326 2.9023 -2.3909 0.9755
-4.9503 2.8717 -2.3908 0.9755
-4.9678 2.8409 -2.3907 0.9755
-5.0023 2.7791 -2.3906 0.9755
-5.0361 2.7169 -2.3905 0.9755
-5.0690 2.6543 -2.3904 0.9755
-5.0852 2.6228 -2.3903 0.9755
-5.1012 2.5913 -2.3902 0.9755
-5.1326 2.5278 -2.3901 0.9755
-5.1481 2.4960 -2.3901 0.9755
-5.1931 2.3999 -2.3899 0.9755
-5.2504 2.2705 -2.3897 0.9755
-5.2912 2.1726 -2.3895 0.9755
-5.3303 2.0739 -2.3894 0.9755
-5.3553 2.0077 -2.3893 0.9755
-5.3675 1.9745 -2.3892 0.9755
-5.3795 1.9412 -2.3892 0.9755
-5.4142 1.8410 -2.3890 0.9755
-5.4254 1.8075 -2.3890 0.9755
-5.4364 1.7738 -2.3889 0.9755
-5.4471 1.7401 -2.3889 0.9755
-5.4680 1.6725 -2.3888 0.9755
-5.4978 1.5707 -2.3886 0.9755
-5.5166 1.5026 -2.3885 0.9755
-5.5516 1.3656 -2.3884 0.9755
-5.5599 1.3312 -2.3883 0.9755
-5.5680 1.2967 -2.3883 0.9755
-5.5758 1.2623 -2.3882 0.9755
-5.5834 1.2277 -2.3882 0.9755
-5.5979 1.1586 -2.3881 0.9755
-5.6182 1.0544 -2.3880 0.9755
-5.6245 1.0197 -2.3880 0.9755
-5.6306 0.9848 -2.3879 0.9755
-5.6365 0.9500 -2.3879 0.9755
-5.6422 0.9151 -2.3879 0.9755
-5.6529 0.8452 -2.3878 0.9755
-5.6579 0.8102 -2.3878 0.9755
-5.6674 0.7402 -2.3877 0.9755
-5.6717 0.7051 -2.3877 0.9755
-5.6759 0.6700 -2.3876 0.9755
-5.6836 0.5997 -2.3876 0.9755
-5.6905 0.5294 -2.3875 0.9755
-5.6935 0.4942 -2.3875 0.9755
-5.6964 0.4589 -2.3874 0.9755
-5.6991 0.4237 -2.3874 0.9755
-5.7058 0.3179 -2.3873 0.9755
-5.7076 0.2826 -2.3873 0.9755
-5.7105 0.2120 -2.3872 0.9755
-5.7125 0.1413 -2.3872 0.9755
-5.7133 0.1060 -2.3872 0.9755
-5.7137 0.0707 -2.3871 0.9755
-5.5973 -0.0346 -2.3873 0.9760
-5.5964 -0.1038 -2.3873 0.9760
-5.5946 -0.1731 -2.3873 0.9760
-5.5934 -0.2076 -2.3872 0.9760
-5.5903 -0.2768 -2.3872 0.9760
-5.5816 -0.4150 -2.3871 0.9760
-5.5694 -0.5529 -2.3871 0.9760
-5.5495 -0.7248 -2.3870 0.9760
-5.5351 -0.8276 -2.3870 0.9760
-5.5298 -0.8618 -2.3869 0.9760
-5.5187 -0.9301 -2.3869 0.9760
-5.5067 -0.9983 -2.3869 0.9760
-5.4939 -1.0663 -2.3869 0.9760
-5.4803 -1.1342 -2.3869 0.9760
-5.4260 -1.3703 -2.3869 0.9760
-5.4086 -1.4373 -2.3869 0.9760
-5.3996 -1.4707 -2.3869 0.9760
-5.3810 -1.5374 -2.3869 0.9760
-5.3714 -1.5706 -2.3869 0.9760
-5.3515 -1.6370 -2.3869 0.9760
-5.3413 -1.6700 -2.3869 0.9760
-5.3309 -1.7030 -2.3869 0.9760
-5.2984 -1.8017 -2.3869 0.9760
-5.2872 -1.8343 -2.3869 0.9760
-5.2641 -1.8996 -2.3869 0.9760
-5.2523 -1.9321 -2.3869 0.9760
-5.2403 -1.9646 -2.3869 0.9760
-5.2156 -2.0293 -2.3869 0.9760
-5.1771 -2.1257 -2.3869 0.9760
-5.1505 -2.1896 -2.3870 0.9760
-5.0804 -2.3478 -2.3870 0.9760
-5.0658 -2.3792 -2.3870 0.9760
-5.0511 -2.4105 -2.3871 0.9760
-5.0361 -2.4417 -2.3871 0.9760
-5.0210 -2.4729 -2.3871 0.9760
-5.0056 -2.5039 -2.3871 0.9760
-4.9900 -2.5348 -2.3871 0.9760
-4.9743 -2.5656 -2.3871 0.9760
-4.9584 -2.5963 -2.3871 0.9760
-4.9260 -2.6575 -2.3872 0.9760
-4.8928 -2.7183 -2.3872 0.9760
-4.8417 -2.8087 -2.3873 0.9760
-4.8242 -2.8386 -2.3873 0.9760
-4.8066 -2.8684 -2.3873 0.9760
-4.7888 -2.8981 -2.3873 0.9760
-4.7708 -2.9277 -2.3874 0.9760
-4.7527 -2.9571 -2.3874 0.9760
-4.7344 -2.9865 -2.3874 0.9760
-4.7159 -3.0158 -2.3874 0.9760
-4.6971 -3.0449 -2.3875 0.9760
-4.6206 -3.1603 -2.3876 0.9760
-4.5412 -3.2738 -2.3877 0.9759
-4.5210 -3.3018 -2.3877 0.9759
-4.5005 -3.3298 -2.3877 0.9759
-4.4799 -3.3576 -2.3878 0.9759
-4.4591 -3.3853 -2.3878 0.9759
-4.3743 -3.4947 -2.3879 0.9759
-4.3089 -3.5754 -2.3880 0.9759
-4.2867 -3.6020 -2.3881 0.9759
-4.2420 -3.6549 -2.3881 0.9759
-4.2194 -3.6811 -2.3882 0.9759
-4.1966 -3.7072 -2.3882 0.9759
-4.0803 -3.8354 -2.3884 0.9759
