ply
format ascii 1.0
element vertex 1536
property float32 x
property float32 y
property float32 z
property float32 I
end_header
6.0239 11.5043 -1.5791 0.9490
5.9436 11.5237 -1.5767 0.9491
5.8635 11.5431 -1.5744 0.9492
5.7837 11.5624 -1.5721 0.9492
5.6806 11.5341 -1.5635 0.9495
5.5686 11.6686 -1.5722 0.9492
5.4888 11.6869 -1.5701 0.9493
5.4093 11.7051 -1.5680 0.9494
5.2508 11.7414 -1.5641 0.9495
5.0931 11.7775 -1.5604 0.9496
5.0145 11.7954 -1.5586 0.9497
4.9361 11.8134 -1.5569 0.9497
4.8579 11.8313 -1.5553 0.9498
4.7798 11.8491 -1.5537 0.9498
4.7018 11.8670 -1.5522 0.9499
4.6241 11.8848 -1.5508 0.9499
4.3143 11.9556 -1.5456 0.9501
4.2372 11.9733 -1.5445 0.9501
4.0556 11.9273 -1.5320 0.9505
3.9960 11.9949 -1.5374 0.9503
3.9198 12.0133 -1.5367 0.9504
3.6915 12.0685 -1.5347 0.9504
3.5396 12.1053 -1.5337 0.9504
3.3879 12.1420 -1.5329 0.9505
3.3121 12.1603 -1.5326 0.9505
3.2364 12.1786 -1.5324 0.9505
3.1606 12.1969 -1.5322 0.9505
3.0091 12.2336 -1.5320 0.9505
2.9334 12.2519 -1.5320 0.9505
2.7819 12.2885 -1.5321 0.9505
2.6304 12.3251 -1.5325 0.9505
2.5546 12.3434 -1.5328 0.9505
2.4787 12.3618 -1.5332 0.9505
2.3270 12.3985 -1.5340 0.9504
2.2510 12.4168 -1.5345 0.9504
2.1750 12.4352 -1.5351 0.9504
2.0989 12.4536 -1.5358 0.9504
2.0145 12.4207 -1.5301 0.9506
1.9549 12.5433 -1.5437 0.9501
1.8781 12.5608 -1.5444 0.9501
1.6474 12.6136 -1.5469 0.9500
1.5703 12.6312 -1.5478 0.9500
1.4928 12.6463 -1.5485 0.9500
1.2609 12.7019 -1.5522 0.9499
1.1833 12.7196 -1.5534 0.9498
1.0277 12.7552 -1.5561 0.9497
0.9496 12.7730 -1.5575 0.9497
0.8714 12.7909 -1.5590 0.9497
0.7931 12.8088 -1.5606 0.9496
0.5572 12.8627 -1.5656 0.9494
0.3962 12.8118 -1.5587 0.9497
0.1598 12.9221 -1.5715 0.9493
0.0800 12.9414 -1.5738 0.9492
-0.3896 12.5954 -1.5324 0.9505
-0.4683 12.6144 -1.5350 0.9504
-0.4357 8.7989 -1.0713 0.9651
-1.0272 12.7493 -1.5554 0.9498
-1.1083 12.7689 -1.5586 0.9497
-1.1897 12.7886 -1.5618 0.9496
-1.3414 13.5121 -1.6512 0.9468
-1.5151 13.5541 -1.6585 0.9465
-1.6025 13.5752 -1.6623 0.9464
-1.6903 13.5964 -1.6661 0.9463
-1.7785 13.6177 -1.6700 0.9462
-1.8672 13.6391 -1.6740 0.9460
-1.8050 12.0719 -1.4843 0.9520
-1.8884 12.1170 -1.4913 0.9518
-2.0479 12.1503 -1.4984 0.9516
-2.1285 12.1691 -1.5023 0.9514
-2.0735 11.4374 -1.4135 0.9542
-2.2027 11.3486 -1.4058 0.9545
-2.2728 11.3342 -1.4057 0.9545
-2.2078 10.3448 -1.2863 0.9583
-2.2705 10.3252 -1.2856 0.9583
-2.3975 10.2941 -1.2853 0.9583
-2.5226 10.2556 -1.2843 0.9583
-3.0359 11.1462 -1.4048 0.9545
-3.3777 11.0426 -1.4042 0.9545
-3.5134 10.9980 -1.4040 0.9545
-3.5810 10.9750 -1.4038 0.9545
-4.8854 14.3675 -1.8454 0.9407
-4.9938 14.3937 -1.8527 0.9405
-3.7783 10.4701 -1.3536 0.9561
-4.0132 10.7046 -1.3902 0.9550
-4.1310 10.8149 -1.4078 0.9544
-5.6631 14.5551 -1.8992 0.9390
-5.8938 14.6108 -1.9158 0.9385
-6.2477 14.6962 -1.9419 0.9377
-6.4891 14.7544 -1.9600 0.9371
-6.7350 14.8137 -1.9788 0.9365
-7.3714 14.9672 -2.0288 0.9350
-7.5026 14.9988 -2.0394 0.9347
-7.6352 15.0308 -2.0501 0.9343
-7.7691 15.0631 -2.0610 0.9340
-7.1054 13.1707 -1.8198 0.9415
-7.2492 12.8603 -1.7952 0.9422
-7.3525 12.8569 -1.8010 0.9421
-7.6943 12.8937 -1.8259 0.9413
-7.5410 12.4610 -1.7712 0.9430
-7.4053 11.7393 -1.6878 0.9456
-7.5560 11.6561 -1.6892 0.9456
-7.6375 11.6239 -1.6913 0.9455
-7.8106 11.5728 -1.6978 0.9453
-8.0101 11.5575 -1.7100 0.9449
-8.8904 11.8622 -1.8027 0.9420
-11.9894 15.3935 -2.3727 0.9244
-12.1065 15.3472 -2.3770 0.9243
-11.1566 13.7888 -2.1569 0.9310
-10.8638 13.0925 -2.0688 0.9337
-12.7389 14.7852 -2.3732 0.9244
-12.9146 14.6195 -2.3721 0.9244
-11.5129 12.8715 -2.1000 0.9328
-7.4265 8.0990 -1.3362 0.9567
-7.3733 7.9418 -1.3178 0.9573
-7.4582 7.9343 -1.3242 0.9571
-7.6585 7.7538 -1.3253 0.9570
-7.9374 7.9373 -1.3650 0.9558
-8.0013 7.9030 -1.3676 0.9557
-7.9964 7.8010 -1.3585 0.9560
-8.1306 7.7380 -1.3649 0.9558
-8.1074 7.6209 -1.3531 0.9562
-8.0488 7.4726 -1.3356 0.9567
-8.1031 7.4302 -1.3369 0.9567
-8.3886 7.5971 -1.3762 0.9554
-8.5661 7.6619 -1.3976 0.9547
-8.6604 7.6504 -1.4052 0.9545
-8.8346 7.7075 -1.4257 0.9539
-8.9172 7.5874 -1.4238 0.9539
-9.1009 7.6472 -1.4455 0.9532
-9.6192 7.6849 -1.4972 0.9516
-9.4471 7.3579 -1.4561 0.9529
-10.3271 7.7398 -1.5694 0.9493
-10.4232 7.7116 -1.5767 0.9491
-10.8470 7.6174 -1.6118 0.9480
-11.4650 7.9460 -1.6963 0.9453
-11.9723 8.0802 -1.7564 0.9435
-12.1012 8.0587 -1.7680 0.9431
-12.3314 8.1024 -1.7943 0.9423
-12.5154 8.1129 -1.8137 0.9417
-14.2500 8.2665 -2.0033 0.9358
-14.5481 8.3196 -2.0379 0.9347
-15.4737 8.7223 -2.1600 0.9309
-15.7148 8.7306 -2.1861 0.9301
-15.9846 8.7516 -2.2161 0.9292
-16.8649 8.9643 -2.3225 0.9259
-16.9603 8.8809 -2.3281 0.9258
-17.0571 8.6644 -2.3265 0.9258
-17.1970 8.3378 -2.3241 0.9259
-17.3736 7.8989 -2.3208 0.9260
-17.4575 7.6779 -2.3191 0.9260
-17.4985 7.5671 -2.3183 0.9261
-17.5387 7.4561 -2.3175 0.9261
-17.5781 7.3448 -2.3167 0.9261
-17.6169 7.2334 -2.3158 0.9261
-19.0066 7.1256 -2.4684 0.9215
-19.0433 7.0054 -2.4675 0.9215
-19.1489 6.6436 -2.4647 0.9216
-19.2155 6.4015 -2.4629 0.9216
-19.2476 6.2802 -2.4620 0.9217
-19.2788 6.1588 -2.4611 0.9217
-19.3094 6.0372 -2.4602 0.9217
-19.3391 5.9155 -2.4593 0.9217
-19.3963 5.6716 -2.4574 0.9218
-19.4237 5.5494 -2.4565 0.9218
-19.4762 5.3048 -2.4547 0.9219
-19.5256 5.0597 -2.4528 0.9219
-19.5491 4.9370 -2.4519 0.9220
-19.5718 4.8141 -2.4509 0.9220
-19.5938 4.6912 -2.4500 0.9220
-19.6149 4.5682 -2.4491 0.9221
-19.6353 4.4451 -2.4481 0.9221
-19.7412 3.7051 -2.4425 0.9223
-19.8554 2.4684 -2.4331 0.9225
-19.8625 2.3446 -2.4321 0.9226
-19.8689 2.2209 -2.4312 0.9226
-19.8793 1.9734 -2.4293 0.9227
-19.8834 1.8497 -2.4283 0.9227
-19.8866 1.7261 -2.4274 0.9227
-19.8891 1.6024 -2.4264 0.9227
-19.8909 1.4788 -2.4255 0.9228
-19.8920 1.2317 -2.4236 0.9228
-19.8914 1.1082 -2.4226 0.9229
-19.8880 0.8615 -2.4207 0.9229
-19.8851 0.7382 -2.4198 0.9229
-19.8660 0.2457 -2.4160 0.9231
-19.8593 0.1228 -2.4150 0.9231
-18.6712 -0.2310 -2.4115 0.9275
-18.6625 -0.3463 -2.4106 0.9275
-18.6429 -0.5767 -2.4088 0.9275
-18.6321 -0.6917 -2.4079 0.9276
-18.6205 -0.8066 -2.4070 0.9276
-18.5817 -1.1506 -2.4043 0.9277
-18.5673 -1.2650 -2.4034 0.9277
-18.5365 -1.4935 -2.4017 0.9277
-18.4274 -2.1753 -2.3963 0.9279
-18.3636 -2.5140 -2.3937 0.9280
-18.3409 -2.6265 -2.3928 0.9280
-18.2935 -2.8510 -2.3910 0.9280
-18.2434 -3.0748 -2.3893 0.9281
-18.2174 -3.1864 -2.3884 0.9281
-18.1906 -3.2978 -2.3875 0.9281
-18.1633 -3.4090 -2.3867 0.9282
-18.0771 -3.7413 -2.3840 0.9283
-18.0470 -3.8516 -2.3832 0.9283
-18.0162 -3.9616 -2.3823 0.9283
-17.8527 -4.5085 -2.3780 0.9284
-17.6728 -5.0492 -2.3737 0.9286
-17.6349 -5.1566 -2.3728 0.9286
-17.5174 -5.4770 -2.3703 0.9286
-17.4770 -5.5832 -2.3694 0.9287
-17.4359 -5.6891 -2.3686 0.9287
-17.3942 -5.7948 -2.3677 0.9287
-17.3089 -6.0052 -2.3661 0.9288
-17.2653 -6.1100 -2.3652 0.9288
-17.1763 -6.3186 -2.3636 0.9288
-17.0382 -6.6292 -2.3611 0.9289
-16.9909 -6.7321 -2.3603 0.9289
-16.9431 -6.8346 -2.3594 0.9290
-16.8946 -6.9369 -2.3586 0.9290
-16.7456 -7.2416 -2.3562 0.9291
-16.6433 -7.4430 -2.3545 0.9291
-16.5386 -7.6430 -2.3529 0.9292
-16.4316 -7.8417 -2.3513 0.9292
-16.2668 -8.1369 -2.3489 0.9293
-16.0968 -8.4288 -2.3466 0.9293
-16.0390 -8.5253 -2.3458 0.9294
-15.9807 -8.6215 -2.3450 0.9294
-15.9218 -8.7172 -2.3442 0.9294
-15.8023 -8.9076 -2.3427 0.9294
-15.7417 -9.0022 -2.3419 0.9295
-15.6806 -9.0964 -2.3411 0.9295
-15.6190 -9.1902 -2.3404 0.9295
-15.5568 -9.2836 -2.3396 0.9295
-15.2378 -9.7444 -2.3359 0.9296
-15.1724 -9.8353 -2.3351 0.9297
-15.0400 -10.0158 -2.3336 0.9297
-14.9730 -10.1054 -2.3329 0.9297
-14.8376 -10.2834 -2.3314 0.9298
-14.6306 -10.5471 -2.3293 0.9298
-14.4192 -10.8067 -2.3271 0.9299
-14.2757 -10.9776 -2.3257 0.9299
-14.1303 -11.1466 -2.3243 0.9300
-13.9087 -11.3966 -2.3222 0.9300
-13.6828 -11.6424 -2.3202 0.9301
-13.5299 -11.8039 -2.3188 0.9301
-13.4527 -11.8839 -2.3182 0.9302
-13.2971 -12.0424 -2.3168 0.9302
-13.1397 -12.1991 -2.3155 0.9302
-12.5750 -12.7315 -2.3110 0.9304
-12.4099 -12.8791 -2.3098 0.9304
-12.3267 -12.9522 -2.3092 0.9304
-12.2431 -13.0247 -2.3085 0.9304
-12.1591 -13.0967 -2.3079 0.9305
-12.0747 -13.1681 -2.3073 0.9305
-11.9046 -13.3095 -2.3061 0.9305
-11.8191 -13.3794 -2.3055 0.9305
-11.7331 -13.4488 -2.3049 0.9305
-11.4728 -13.6537 -2.3032 0.9306
-11.2974 -13.7877 -2.3020 0.9306
-11.2091 -13.8539 -2.3014 0.9306
-11.0315 -13.9846 -2.3003 0.9307
-10.9422 -14.0491 -2.2998 0.9307
-10.8525 -14.1131 -2.2992 0.9307
-10.7624 -14.1766 -2.2987 0.9307
-10.3987 -14.4249 -2.2965 0.9308
-10.3069 -14.4855 -2.2960 0.9308
-10.1223 -14.6053 -2.2949 0.9308
-10.0295 -14.6642 -2.2944 0.9309
-9.9364 -14.7227 -2.2939 0.9309
-9.8430 -14.7806 -2.2934 0.9309
-9.7493 -14.8379 -2.2929 0.9309
-9.6552 -14.8947 -2.2924 0.9309
-9.5608 -14.9508 -2.2919 0.9309
-9.3712 -15.0615 -2.2909 0.9310
-9.2759 -15.1159 -2.2904 0.9310
-9.0844 -15.2231 -2.2894 0.9310
-8.9883 -15.2759 -2.2890 0.9310
-8.7950 -15.3796 -2.2880 0.9310
-8.5032 -15.5309 -2.2867 0.9311
-8.4053 -15.5801 -2.2862 0.9311
-8.3072 -15.6287 -2.2858 0.9311
-8.1102 -15.7243 -2.2849 0.9311
-7.8127 -15.8632 -2.2836 0.9312
-7.6131 -15.9529 -2.2828 0.9312
-7.5130 -15.9968 -2.2824 0.9312
-7.4126 -16.0401 -2.2820 0.9312
-7.3120 -16.0829 -2.2816 0.9312
-7.2112 -16.1250 -2.2812 0.9312
-7.0088 -16.2074 -2.2804 0.9313
-6.4991 -16.4030 -2.2786 0.9313
-6.3965 -16.4403 -2.2782 0.9313
-6.2938 -16.4770 -2.2779 0.9313
-6.1908 -16.5131 -2.2775 0.9313
-6.0876 -16.5485 -2.2772 0.9314
-5.8807 -16.6176 -2.2765 0.9314
-5.6731 -16.6843 -2.2758 0.9314
-5.5690 -16.7167 -2.2755 0.9314
-5.3604 -16.7797 -2.2749 0.9314
-4.9411 -16.8982 -2.2737 0.9315
-4.7305 -16.9537 -2.2731 0.9315
-4.6250 -16.9806 -2.2728 0.9315
-4.5194 -17.0068 -2.2726 0.9315
-4.4136 -17.0325 -2.2723 0.9315
-4.3077 -17.0574 -2.2720 0.9315
-4.0954 -17.1055 -2.2715 0.9315
-3.8827 -17.1511 -2.2710 0.9315
-3.6695 -17.1942 -2.2705 0.9315
-3.5627 -17.2148 -2.2703 0.9316
-3.4559 -17.2348 -2.2701 0.9316
-3.2418 -17.2728 -2.2696 0.9316
-3.1347 -17.2909 -2.2694 0.9316
-3.0274 -17.3084 -2.2692 0.9316
-2.9200 -17.3252 -2.2690 0.9316
-2.7051 -17.3571 -2.2686 0.9316
-2.5974 -17.3720 -2.2684 0.9316
-2.2742 -17.4130 -2.2679 0.9316
-2.1663 -17.4255 -2.2677 0.9316
-2.0583 -17.4373 -2.2676 0.9316
-1.9503 -17.4485 -2.2674 0.9316
-1.8423 -17.4590 -2.2673 0.9316
-1.7341 -17.4689 -2.2671 0.9316
-1.6260 -17.4782 -2.2670 0.9317
-1.5177 -17.4868 -2.2668 0.9317
-1.4095 -17.4948 -2.2667 0.9317
-1.3012 -17.5022 -2.2666 0.9317
-0.9761 -17.5205 -2.2662 0.9317
-0.8677 -17.5253 -2.2661 0.9317
-0.7593 -17.5295 -2.2660 0.9317
-0.5423 -17.5360 -2.2658 0.9317
-0.4339 -17.5383 -2.2657 0.9317
-0.3254 -17.5400 -2.2656 0.9317
-0.2169 -17.5411 -2.2655 0.9317
0.0001 -17.5412 -2.2654 0.9317
0.5423 -17.5306 -2.2651 0.9317
0.6507 -17.5266 -2.2650 0.9317
0.7590 -17.5219 -2.2650 0.9317
1.0839 -17.5041 -2.2649 0.9317
1.1921 -17.4970 -2.2649 0.9317
1.4084 -17.4807 -2.2649 0.9317
1.5165 -17.4716 -2.2649 0.9317
1.9482 -17.4290 -2.2649 0.9317
2.2713 -17.3905 -2.2650 0.9317
2.3788 -17.3764 -2.2650 0.9317
2.8081 -17.3137 -2.2652 0.9317
3.0222 -17.2786 -2.2653 0.9317
3.1291 -17.2600 -2.2654 0.9317
3.2359 -17.2409 -2.2655 0.9317
3.4492 -17.2008 -2.2656 0.9317
3.5556 -17.1799 -2.2657 0.9317
3.6619 -17.1582 -2.2658 0.9317
3.9801 -17.0897 -2.2661 0.9317
4.0859 -17.0656 -2.2662 0.9317
4.1916 -17.0409 -2.2663 0.9317
4.4025 -16.9896 -2.2666 0.9317
4.6129 -16.9359 -2.2669 0.9317
4.7179 -16.9081 -2.2670 0.9316
5.2401 -16.7599 -2.2678 0.9316
5.3441 -16.7284 -2.2680 0.9316
5.8611 -16.5620 -2.2689 0.9316
6.0666 -16.4912 -2.2693 0.9316
6.2713 -16.4180 -2.2697 0.9316
6.4751 -16.3424 -2.2702 0.9316
6.7793 -16.2244 -2.2709 0.9315
6.8802 -16.1839 -2.2711 0.9315
7.0814 -16.1011 -2.2716 0.9315
7.4809 -15.9285 -2.2727 0.9315
7.6792 -15.8386 -2.2732 0.9315
7.7780 -15.7927 -2.2735 0.9315
7.9748 -15.6994 -2.2741 0.9314
8.0728 -15.6518 -2.2744 0.9314
8.1706 -15.6037 -2.2747 0.9314
8.2680 -15.5550 -2.2750 0.9314
8.3652 -15.5057 -2.2753 0.9314
8.5588 -15.4054 -2.2759 0.9314
8.6551 -15.3543 -2.2763 0.9314
8.8469 -15.2506 -2.2769 0.9314
9.1325 -15.0907 -2.2780 0.9313
9.2271 -15.0363 -2.2783 0.9313
9.4153 -14.9257 -2.2790 0.9313
9.8804 -14.6396 -2.2809 0.9312
10.0642 -14.5213 -2.2817 0.9312
10.2466 -14.4007 -2.2825 0.9312
10.3373 -14.3397 -2.2829 0.9312
10.4277 -14.2780 -2.2833 0.9312
10.5178 -14.2159 -2.2838 0.9312
10.6074 -14.1532 -2.2842 0.9311
10.7857 -14.0261 -2.2850 0.9311
10.8743 -13.9619 -2.2855 0.9311
10.9625 -13.8970 -2.2859 0.9311
11.1379 -13.7657 -2.2868 0.9311
11.3982 -13.5648 -2.2882 0.9310
11.4842 -13.4968 -2.2886 0.9310
11.5698 -13.4283 -2.2891 0.9310
11.6551 -13.3593 -2.2896 0.9310
11.7399 -13.2897 -2.2901 0.9310
11.8243 -13.2196 -2.2905 0.9310
11.9920 -13.0779 -2.2915 0.9309
12.8850 -12.2628 -2.2972 0.9308
12.9637 -12.1857 -2.2977 0.9308
13.1196 -12.0302 -2.2988 0.9307
13.1969 -11.9517 -2.2994 0.9307
13.5017 -11.6329 -2.3016 0.9306
13.6513 -11.4708 -2.3028 0.9306
13.7992 -11.3068 -2.3039 0.9306
13.8723 -11.2241 -2.3045 0.9306
14.0173 -11.0573 -2.3057 0.9305
14.0890 -10.9733 -2.3063 0.9305
14.2311 -10.8038 -2.3075 0.9305
14.3015 -10.7185 -2.3081 0.9305
14.5094 -10.4597 -2.3100 0.9304
14.5778 -10.3725 -2.3106 0.9304
14.6456 -10.2850 -2.3112 0.9304
14.9773 -9.8408 -2.3144 0.9303
15.0421 -9.7508 -2.3150 0.9303
15.1063 -9.6603 -2.3157 0.9302
15.1701 -9.5694 -2.3164 0.9302
15.2333 -9.4781 -2.3170 0.9302
15.2960 -9.3864 -2.3177 0.9302
15.4198 -9.2018 -2.3190 0.9301
15.5415 -9.0156 -2.3204 0.9301
15.6015 -8.9220 -2.3210 0.9301
15.6610 -8.8279 -2.3217 0.9301
15.7784 -8.6387 -2.3231 0.9300
15.8935 -8.4479 -2.3245 0.9300
16.0064 -8.2557 -2.3259 0.9299
16.0620 -8.1590 -2.3266 0.9299
16.1171 -8.0620 -2.3273 0.9299
16.1716 -7.9646 -2.3280 0.9299
16.3839 -7.5715 -2.3309 0.9298
16.4866 -7.3729 -2.3324 0.9297
16.5371 -7.2731 -2.3331 0.9297
16.5870 -7.1730 -2.3338 0.9297
16.7332 -6.8705 -2.3361 0.9296
16.7807 -6.7691 -2.3368 0.9296
16.8277 -6.6673 -2.3376 0.9296
16.9198 -6.4629 -2.3391 0.9296
17.0095 -6.2572 -2.3406 0.9295
17.0968 -6.0503 -2.3421 0.9295
17.1395 -5.9464 -2.3429 0.9294
17.3043 -5.5280 -2.3460 0.9294
17.3830 -5.3171 -2.3476 0.9293
17.4591 -5.1051 -2.3492 0.9293
17.4963 -4.9987 -2.3500 0.9292
17.5328 -4.8921 -2.3508 0.9292
17.5687 -4.7852 -2.3516 0.9292
17.6039 -4.6781 -2.3524 0.9292
17.7059 -4.3551 -2.3548 0.9291
17.7385 -4.2470 -2.3556 0.9291
17.7706 -4.1387 -2.3564 0.9291
17.8328 -3.9213 -2.3580 0.9290
17.8629 -3.8123 -2.3588 0.9290
17.9211 -3.5935 -2.3605 0.9289
17.9493 -3.4839 -2.3613 0.9289
17.9768 -3.3740 -2.3621 0.9289
18.0037 -3.2639 -2.3630 0.9289
18.0298 -3.1536 -2.3638 0.9288
18.0553 -3.0431 -2.3646 0.9288
18.1508 -2.5992 -2.3680 0.9287
18.1730 -2.4879 -2.3688 0.9287
18.2355 -2.1526 -2.3714 0.9286
18.2550 -2.0405 -2.3722 0.9286
18.2739 -1.9283 -2.3731 0.9286
18.2920 -1.8159 -2.3739 0.9285
18.3095 -1.7033 -2.3748 0.9285
18.3578 -1.3649 -2.3774 0.9284
18.3866 -1.1385 -2.3791 0.9284
18.4126 -0.9117 -2.3808 0.9283
18.4465 -0.5706 -2.3834 0.9283
18.4656 -0.3426 -2.3852 0.9282
18.4742 -0.2285 -2.3860 0.9282
18.4892 0.0000 -2.3878 0.9281
18.5013 0.2288 -2.3895 0.9281
18.5064 0.3434 -2.3904 0.9281
18.5107 0.4580 -2.3913 0.9280
18.5172 0.6874 -2.3931 0.9280
18.5213 1.2619 -2.3975 0.9279
18.5200 1.3769 -2.3984 0.9278
18.5153 1.6071 -2.4001 0.9278
18.5077 1.8373 -2.4019 0.9277
18.5028 1.9525 -2.4028 0.9277
18.4839 2.2979 -2.4055 0.9276
18.4762 2.4131 -2.4064 0.9276
18.4678 2.5282 -2.4073 0.9276
18.4382 2.8736 -2.4099 0.9275
18.4149 3.1037 -2.4117 0.9274
18.3746 3.4486 -2.4144 0.9274
18.3597 3.5635 -2.4153 0.9273
18.3441 3.6784 -2.4162 0.9273
18.3278 3.7931 -2.4171 0.9273
18.3108 3.9079 -2.4180 0.9273
18.1715 4.7088 -2.4243 0.9271
18.1487 4.8229 -2.4252 0.9271
18.0504 5.2781 -2.4287 0.9270
18.0241 5.3915 -2.4296 0.9269
17.9970 5.5049 -2.4305 0.9269
17.9692 5.6182 -2.4314 0.9269
17.9406 5.7313 -2.4323 0.9269
17.8815 5.9571 -2.4341 0.9268
17.8508 6.0698 -2.4350 0.9268
17.8194 6.1823 -2.4359 0.9267
17.7873 6.2947 -2.4367 0.9267
17.7545 6.4069 -2.4376 0.9267
17.6867 6.6308 -2.4394 0.9266
17.6518 6.7425 -2.4403 0.9266
17.5798 6.9653 -2.4420 0.9266
17.5427 7.0765 -2.4429 0.9265
17.5049 7.1874 -2.4438 0.9265
17.4272 7.4087 -2.4456 0.9265
17.3466 7.6292 -2.4473 0.9264
17.3053 7.7390 -2.4482 0.9264
17.2206 7.9581 -2.4499 0.9263
17.1771 8.0674 -2.4508 0.9263
16.9494 8.6097 -2.4551 0.9262
16.8534 8.8249 -2.4569 0.9261
16.8044 8.9321 -2.4577 0.9261
16.7547 9.0390 -2.4586 0.9261
16.7043 9.1456 -2.4594 0.9261
16.6532 9.2520 -2.4603 0.9260
16.5489 9.4638 -2.4620 0.9260
16.4419 9.6744 -2.4637 0.9259
16.3322 9.8837 -2.4654 0.9259
16.2763 9.9880 -2.4662 0.9259
16.1625 10.1954 -2.4679 0.9258
16.1046 10.2987 -2.4687 0.9258
16.0460 10.4016 -2.4696 0.9258
15.9268 10.6064 -2.4712 0.9257
15.8662 10.7083 -2.4720 0.9257
15.6804 11.0117 -2.4745 0.9256
15.6172 11.1121 -2.4753 0.9256
15.5533 11.2122 -2.4761 0.9256
15.4887 11.3119 -2.4770 0.9256
15.4235 11.4112 -2.4778 0.9255
15.0187 11.9987 -2.4826 0.9254
14.8786 12.1913 -2.4841 0.9254
14.8076 12.2869 -2.4849 0.9253
14.5908 12.5713 -2.4873 0.9253
14.3684 12.8518 -2.4896 0.9252
14.2931 12.9444 -2.4903 0.9252
13.3144 12.2088 -2.3329 0.9297
13.1704 12.3801 -2.3344 0.9297
13.0241 12.5496 -2.3358 0.9297
12.9501 12.6336 -2.3365 0.9296
12.7248 12.8832 -2.3385 0.9296
12.4946 13.1285 -2.3406 0.9295
12.4167 13.2093 -2.3413 0.9295
12.2594 13.3696 -2.3426 0.9295
12.0194 13.6062 -2.3446 0.9294
11.9384 13.6841 -2.3453 0.9294
11.8568 13.7615 -2.3459 0.9294
11.7748 13.8384 -2.3466 0.9293
11.6922 13.9148 -2.3472 0.9293
11.5255 14.0660 -2.3485 0.9293
11.4414 14.1408 -2.3491 0.9293
11.3567 14.2151 -2.3497 0.9292
7.2676 9.6970 -1.5650 0.9523
7.2252 9.7657 -1.5688 0.9522
7.1825 9.8347 -1.5728 0.9521
7.1619 9.9348 -1.5817 0.9518
10.5731 14.8596 -2.3552 0.9291
10.4836 14.9284 -2.3558 0.9291
8.3197 12.0043 -1.8862 0.9428
7.9126 11.5690 -1.8101 0.9450
7.8629 11.6503 -1.8152 0.9449
7.5561 11.5000 -1.7771 0.9460
7.4560 11.5019 -1.7702 0.9462
7.1343 11.3097 -1.7269 0.9475
6.7668 11.3394 -1.7054 0.9481
6.6763 11.3467 -1.7002 0.9483
6.5933 11.3658 -1.6969 0.9484
6.5111 11.3857 -1.6939 0.9485
6.3475 11.4253 -1.6879 0.9487
6.1042 11.4841 -1.6796 0.9489
6.0236 11.5037 -1.6770 0.9490
5.9433 11.5231 -1.6744 0.9491
5.6302 11.6125 -1.6667 0.9493
5.5914 11.7163 -1.6766 0.9490
5.3530 11.7740 -1.6703 0.9492
5.1705 11.7563 -1.6586 0.9495
4.8812 11.8881 -1.6597 0.9495
4.8031 11.9071 -1.6581 0.9495
4.5481 11.9069 -1.6461 0.9499
4.4147 12.0010 -1.6514 0.9497
4.2602 12.0384 -1.6492 0.9498
4.1831 12.0570 -1.6482 0.9498
4.0554 11.9266 -1.6269 0.9505
3.6154 12.0862 -1.6292 0.9504
3.5395 12.1046 -1.6287 0.9504
3.4636 12.1230 -1.6283 0.9504
3.2362 12.1779 -1.6273 0.9504
3.0089 12.2329 -1.6269 0.9505
2.9332 12.2512 -1.6269 0.9505
2.7060 12.3061 -1.6272 0.9505
2.6302 12.3244 -1.6275 0.9504
2.5544 12.3427 -1.6278 0.9504
2.4786 12.3611 -1.6281 0.9504
2.2509 12.4161 -1.6296 0.9504
2.1749 12.4345 -1.6302 0.9504
2.0988 12.4529 -1.6309 0.9503
2.0144 12.4200 -1.6249 0.9505
1.8858 12.6124 -1.6469 0.9499
1.8088 12.6311 -1.6479 0.9498
1.7317 12.6497 -1.6489 0.9498
1.5772 12.6870 -1.6511 0.9497
1.4223 12.7245 -1.6535 0.9497
1.3447 12.7432 -1.6549 0.9496
1.2669 12.7620 -1.6563 0.9496
1.1109 12.7997 -1.6592 0.9495
1.0328 12.8186 -1.6608 0.9495
0.7184 12.8945 -1.6678 0.9492
0.6394 12.9136 -1.6698 0.9492
0.5602 12.9328 -1.6718 0.9491
0.3187 12.8830 -1.6643 0.9494
0.2394 12.9022 -1.6665 0.9493
0.1598 12.9214 -1.6689 0.9492
0.0800 12.9407 -1.6713 0.9491
-0.0000 12.8977 -1.6657 0.9493
-0.0778 12.5764 -1.6242 0.9505
-0.1551 12.5380 -1.6193 0.9507
-0.2330 12.5568 -1.6219 0.9506
-0.3896 12.5946 -1.6273 0.9504
-0.4683 12.6136 -1.6301 0.9504
-0.4919 8.8285 -1.1419 0.9650
-0.7858 12.6903 -1.6420 0.9500
-0.8659 12.7097 -1.6452 0.9499
-1.1082 12.7682 -1.6551 0.9496
-1.1897 12.7878 -1.6586 0.9495
-1.3413 13.5113 -1.7535 0.9467
-1.4279 13.5323 -1.7573 0.9466
-1.5150 13.5533 -1.7612 0.9465
-1.6024 13.5744 -1.7652 0.9464
-1.7784 13.6169 -1.7735 0.9461
-1.9561 13.6598 -1.7821 0.9459
-2.1269 12.1599 -1.5942 0.9514
-2.2079 12.1790 -1.5985 0.9513
-2.0907 11.1391 -1.4637 0.9553
-2.1904 10.9238 -1.4388 0.9561
-2.1480 10.3785 -1.3687 0.9582
-2.2728 10.3358 -1.3667 0.9582
-2.5251 10.2659 -1.3653 0.9583
-2.7262 10.5205 -1.4035 0.9571
-2.7133 10.2103 -1.3644 0.9583
-2.8589 10.4961 -1.4049 0.9571
-2.9295 10.4990 -1.4077 0.9570
-3.1437 10.5094 -1.4167 0.9567
-3.4895 10.6944 -1.4528 0.9556
-4.8851 14.3666 -1.9597 0.9406
-3.8034 10.5397 -1.4471 0.9558
-4.0224 10.7291 -1.4798 0.9548
-5.6627 14.5542 -2.0169 0.9390
-5.7776 14.5818 -2.0256 0.9387
-6.1282 14.6665 -2.0528 0.9379
-6.3674 14.7241 -2.0717 0.9373
-6.4886 14.7534 -2.0815 0.9371
-7.1125 14.9038 -2.1327 0.9356
-7.2411 14.9348 -2.1435 0.9352
-7.5021 14.9977 -2.1657 0.9346
-7.7686 15.0620 -2.1887 0.9339
-7.9040 15.0947 -2.2005 0.9336
-8.3192 15.1948 -2.2372 0.9325
-7.1414 12.8542 -1.8990 0.9424
-8.6038 15.2634 -2.2628 0.9318
-9.1933 15.4055 -2.3169 0.9302
-7.8040 11.5631 -1.8016 0.9453
-7.8870 11.5316 -1.8043 0.9452
-7.9743 11.5058 -1.8079 0.9451
-8.6157 12.1086 -1.9192 0.9418
-9.0734 12.5864 -2.0038 0.9393
-10.3593 14.1844 -2.2684 0.9316
-10.9218 14.7621 -2.3715 0.9286
-11.0107 14.6913 -2.3710 0.9286
-11.2745 14.4757 -2.3696 0.9287
-11.3614 14.4027 -2.3691 0.9287
-6.2829 7.7653 -1.2900 0.9605
-6.3295 7.7246 -1.2897 0.9605
-10.8540 13.0806 -2.1952 0.9337
-6.5090 7.6497 -1.2971 0.9603
-11.9561 13.8766 -2.3655 0.9288
-6.7711 7.7612 -1.3302 0.9593
-6.9600 7.5902 -1.3300 0.9593
-6.9659 7.3193 -1.3049 0.9601
-7.6338 7.5400 -1.3857 0.9576
-7.6908 7.5029 -1.3876 0.9576
-7.9054 7.4310 -1.4012 0.9572
-8.0026 7.4297 -1.4102 0.9569
-8.3021 7.4258 -1.4385 0.9561
-8.4255 7.4429 -1.4519 0.9557
-8.7087 7.5034 -1.4846 0.9547
-8.6995 7.2186 -1.4599 0.9554
-9.7712 7.6103 -1.5995 0.9513
-10.1473 7.7035 -1.6453 0.9499
-10.9140 7.8677 -1.7375 0.9472
-11.0031 7.8290 -1.7440 0.9470
-10.8456 7.6164 -1.7115 0.9480
-11.3690 7.8794 -1.7864 0.9457
-11.6290 7.9536 -1.8195 0.9448
-11.4730 7.7432 -1.7876 0.9457
-12.2373 8.0405 -1.8910 0.9427
-12.3321 7.9942 -1.8980 0.9424
-13.3266 8.2917 -2.0270 0.9387
-14.9917 8.5732 -2.2303 0.9327
-14.8357 8.3627 -2.1994 0.9336
-15.7245 8.7360 -2.3231 0.9300
-16.0284 8.1419 -2.3217 0.9301
-16.1174 7.9379 -2.3202 0.9301
-16.2037 7.7329 -2.3187 0.9301
-16.4078 7.2162 -2.3149 0.9303
-16.4466 7.1122 -2.3141 0.9303
-16.4921 7.0112 -2.3144 0.9303
-16.9139 7.0673 -2.3674 0.9287
-17.4045 7.1462 -2.4298 0.9269
-17.7202 7.1481 -2.4677 0.9258
-17.7580 7.0360 -2.4668 0.9259
-17.8315 6.8112 -2.4651 0.9259
-17.9364 6.4725 -2.4626 0.9260
-17.9698 6.3593 -2.4617 0.9260
-18.0346 6.1323 -2.4600 0.9260
-18.0659 6.0186 -2.4592 0.9261
-18.0965 5.9047 -2.4583 0.9261
-18.1263 5.7906 -2.4575 0.9261
-18.2646 5.2183 -2.4532 0.9262
-18.3148 4.9884 -2.4514 0.9263
-18.3387 4.8733 -2.4506 0.9263
-18.3620 4.7581 -2.4497 0.9263
-18.3845 4.6429 -2.4488 0.9264
-18.4063 4.5275 -2.4479 0.9264
-18.4477 4.2964 -2.4462 0.9265
-18.4673 4.1807 -2.4453 0.9265
-18.4862 4.0650 -2.4444 0.9265
-18.5694 3.4852 -2.4400 0.9266
-18.5839 3.3691 -2.4391 0.9267
-18.5976 3.2529 -2.4383 0.9267
-18.6106 3.1367 -2.4374 0.9267
-18.6229 3.0204 -2.4365 0.9267
-18.6452 2.7878 -2.4347 0.9268
-18.6646 2.5552 -2.4329 0.9268
-18.6883 2.2060 -2.4303 0.9269
-18.6947 2.0896 -2.4294 0.9269
-18.7053 1.8569 -2.4276 0.9270
-18.7096 1.7405 -2.4267 0.9270
-18.7131 1.6242 -2.4258 0.9270
-18.7159 1.5079 -2.4249 0.9271
-18.7179 1.3916 -2.4240 0.9271
-18.7199 1.1591 -2.4222 0.9271
-18.7190 0.9268 -2.4204 0.9272
-18.7152 0.6947 -2.4186 0.9272
-18.7040 0.3470 -2.4159 0.9273
-18.6989 0.2313 -2.4151 0.9274
-18.6930 0.1156 -2.4142 0.9274
-17.6484 -0.0000 -2.4126 0.9312
-17.6419 -0.1091 -2.4117 0.9313
-17.6091 -0.5447 -2.4083 0.9313
-17.5775 -0.8703 -2.4058 0.9314
-17.5531 -1.0869 -2.4041 0.9315
-17.5398 -1.1950 -2.4033 0.9315
-17.5260 -1.3030 -2.4024 0.9315
-17.4805 -1.6262 -2.3999 0.9316
-17.4468 -1.8410 -2.3982 0.9316
-17.4290 -1.9482 -2.3974 0.9316
-17.3512 -2.3754 -2.3941 0.9317
-17.3302 -2.4818 -2.3932 0.9318
-17.2631 -2.7999 -2.3907 0.9318
-17.2395 -2.9056 -2.3899 0.9319
-17.2152 -3.0111 -2.3891 0.9319
-17.1648 -3.2216 -2.3874 0.9319
-17.1118 -3.4313 -2.3858 0.9320
-17.0275 -3.7443 -2.3833 0.9320
-16.9982 -3.8481 -2.3825 0.9321
-16.9376 -4.0553 -2.3808 0.9321
-16.8747 -4.2616 -2.3792 0.9321
-16.7755 -4.5692 -2.3768 0.9322
-16.7412 -4.6713 -2.3760 0.9322
-16.7063 -4.7731 -2.3751 0.9323
-16.5980 -5.0770 -2.3727 0.9323
-16.5607 -5.1778 -2.3719 0.9323
-16.4843 -5.3786 -2.3703 0.9324
-16.3242 -5.7770 -2.3672 0.9325
-16.1981 -6.0727 -2.3648 0.9325
-16.1110 -6.2685 -2.3632 0.9326
-15.9762 -6.5598 -2.3609 0.9327
-15.9301 -6.6563 -2.3601 0.9327
-15.8834 -6.7524 -2.3593 0.9327
-15.8362 -6.8483 -2.3586 0.9327
-15.7400 -7.0390 -2.3570 0.9328
-15.6911 -7.1339 -2.3563 0.9328
-15.5916 -7.3227 -2.3547 0.9328
-15.4898 -7.5102 -2.3532 0.9329
-15.3331 -7.7888 -2.3510 0.9329
-15.1716 -8.0642 -2.3487 0.9330
-15.1167 -8.1554 -2.3480 0.9330
-15.0612 -8.2461 -2.3473 0.9330
-15.0052 -8.3364 -2.3465 0.9330
-14.9487 -8.4265 -2.3458 0.9331
-14.8342 -8.6054 -2.3443 0.9331
-14.7761 -8.6942 -2.3436 0.9331
-14.7175 -8.7827 -2.3429 0.9331
-14.5988 -8.9586 -2.3415 0.9332
-14.5387 -9.0460 -2.3408 0.9332
-14.4781 -9.1330 -2.3400 0.9332
-14.3553 -9.3056 -2.3386 0.9333
-14.1039 -9.6463 -2.3358 0.9333
-13.9753 -9.8142 -2.3344 0.9334
-13.8446 -9.9805 -2.3331 0.9334
-13.7786 -10.0630 -2.3324 0.9334
-13.7122 -10.1450 -2.3317 0.9335
-13.6452 -10.2267 -2.3310 0.9335
-13.4416 -10.4691 -2.3290 0.9335
-13.3727 -10.5490 -2.3284 0.9335
-13.3035 -10.6285 -2.3277 0.9336
-13.1636 -10.7861 -2.3264 0.9336
-13.0930 -10.8643 -2.3258 0.9336
-13.0220 -10.9420 -2.3251 0.9336
-12.8061 -11.1724 -2.3232 0.9337
-12.7333 -11.2483 -2.3226 0.9337
-12.6601 -11.3238 -2.3219 0.9337
-12.5863 -11.3988 -2.3213 0.9337
-12.5123 -11.4733 -2.3207 0.9338
-12.3628 -11.6210 -2.3194 0.9338
-12.2874 -11.6941 -2.3188 0.9338
-12.2117 -11.7668 -2.3182 0.9338
-12.1355 -11.8390 -2.3176 0.9338
-11.8267 -12.1229 -2.3152 0.9339
-11.5909 -12.3309 -2.3134 0.9340
-11.3516 -12.5344 -2.3117 0.9340
-11.2711 -12.6013 -2.3111 0.9340
-10.9453 -12.8637 -2.3089 0.9341
-10.7803 -12.9919 -2.3078 0.9341
-10.6972 -13.0552 -2.3072 0.9341
-10.4459 -13.2421 -2.3056 0.9342
-10.3614 -13.3034 -2.3051 0.9342
-10.1059 -13.4842 -2.3035 0.9342
-9.8475 -13.6602 -2.3020 0.9343
-9.7607 -13.7179 -2.3015 0.9343
-9.6736 -13.7750 -2.3010 0.9343
-9.5861 -13.8316 -2.3005 0.9343
-9.4984 -13.8876 -2.3000 0.9343
-9.4103 -13.9432 -2.2995 0.9343
-9.3220 -13.9981 -2.2990 0.9344
-9.2333 -14.0526 -2.2986 0.9344
-9.1443 -14.1065 -2.2981 0.9344
-8.8756 -14.2650 -2.2967 0.9344
-8.7854 -14.3167 -2.2962 0.9344
-8.6950 -14.3679 -2.2958 0.9344
-8.6043 -14.4186 -2.2953 0.9345
-8.5133 -14.4687 -2.2949 0.9345
-8.3305 -14.5672 -2.2940 0.9345
-8.2387 -14.6157 -2.2935 0.9345
-8.1466 -14.6636 -2.2931 0.9345
-8.0542 -14.7110 -2.2927 0.9345
-7.9617 -14.7578 -2.2923 0.9345
-7.8688 -14.8040 -2.2918 0.9346
-7.7757 -14.8497 -2.2914 0.9346
-7.6823 -14.8948 -2.2910 0.9346
-7.5887 -14.9394 -2.2906 0.9346
-7.3064 -15.0697 -2.2894 0.9346
-7.1171 -15.1538 -2.2886 0.9346
-7.0220 -15.1950 -2.2882 0.9347
-6.8313 -15.2757 -2.2875 0.9347
-6.6398 -15.3540 -2.2868 0.9347
-6.4473 -15.4301 -2.2860 0.9347
-6.3508 -15.4673 -2.2857 0.9347
-6.2541 -15.5040 -2.2853 0.9347
-6.1571 -15.5400 -2.2850 0.9347
-6.0600 -15.5754 -2.2847 0.9348
-5.7675 -15.6784 -2.2837 0.9348
-5.3750 -15.8075 -2.2824 0.9348
-4.9798 -15.9273 -2.2812 0.9348
-4.6816 -16.0110 -2.2804 0.9349
-4.5820 -16.0377 -2.2801 0.9349
-4.1820 -16.1386 -2.2790 0.9349
-3.9812 -16.1856 -2.2785 0.9349
-3.7799 -16.2302 -2.2780 0.9349
-3.6791 -16.2515 -2.2778 0.9349
-3.4771 -16.2925 -2.2774 0.9350
-3.2747 -16.3312 -2.2769 0.9350
-3.1733 -16.3496 -2.2767 0.9350
-3.0719 -16.3674 -2.2765 0.9350
-2.9704 -16.3846 -2.2763 0.9350
-2.8687 -16.4013 -2.2761 0.9350
-2.5633 -16.4476 -2.2755 0.9350
-2.2572 -16.4885 -2.2750 0.9350
-2.0528 -16.5128 -2.2747 0.9350
-1.9505 -16.5240 -2.2745 0.9350
-1.5408 -16.5630 -2.2739 0.9350
-1.4383 -16.5713 -2.2738 0.9351
-1.2331 -16.5859 -2.2736 0.9351
-1.1304 -16.5924 -2.2734 0.9351
-0.8223 -16.6080 -2.2731 0.9351
-0.4112 -16.6206 -2.2727 0.9351
-0.3084 -16.6221 -2.2726 0.9351
-0.2056 -16.6232 -2.2726 0.9351
0.0000 -16.6234 -2.2724 0.9351
0.1028 -16.6226 -2.2724 0.9351
0.4112 -16.6166 -2.2722 0.9351
0.8220 -16.6002 -2.2720 0.9351
0.9246 -16.5946 -2.2720 0.9351
1.1298 -16.5816 -2.2720 0.9351
1.2323 -16.5742 -2.2720 0.9351
1.5396 -16.5485 -2.2720 0.9351
1.9484 -16.5056 -2.2720 0.9351
2.0505 -16.4935 -2.2720 0.9351
2.2544 -16.4673 -2.2721 0.9351
2.4580 -16.4387 -2.2722 0.9351
2.8641 -16.3745 -2.2724 0.9351
3.1677 -16.3201 -2.2726 0.9351
3.3695 -16.2808 -2.2728 0.9351
3.5709 -16.2392 -2.2729 0.9351
3.6714 -16.2175 -2.2730 0.9351
3.7718 -16.1952 -2.2731 0.9351
3.8721 -16.1723 -2.2732 0.9351
3.9722 -16.1489 -2.2734 0.9351
4.0722 -16.1248 -2.2735 0.9351
4.5701 -15.9958 -2.2741 0.9350
4.6692 -15.9682 -2.2743 0.9350
4.8670 -15.9113 -2.2746 0.9350
5.1625 -15.8217 -2.2751 0.9350
5.5540 -15.6941 -2.2758 0.9350
5.8457 -15.5924 -2.2764 0.9350
5.9425 -15.5573 -2.2766 0.9350
6.0392 -15.5217 -2.2768 0.9350
6.4237 -15.3735 -2.2777 0.9349
6.7099 -15.2564 -2.2784 0.9349
7.0883 -15.0924 -2.2794 0.9349
7.1824 -15.0501 -2.2796 0.9349
7.2761 -15.0071 -2.2799 0.9349
7.3697 -14.9636 -2.2802 0.9349
7.4630 -14.9195 -2.2804 0.9349
7.5560 -14.8749 -2.2807 0.9349
7.8337 -14.7378 -2.2816 0.9348
7.9257 -14.6910 -2.2819 0.9348
8.1089 -14.5957 -2.2825 0.9348
8.2911 -14.4983 -2.2831 0.9348
8.3818 -14.4487 -2.2834 0.9348
8.4721 -14.3987 -2.2838 0.9348
8.7417 -14.2452 -2.2848 0.9348
8.8309 -14.1930 -2.2851 0.9347
8.9198 -14.1403 -2.2854 0.9347
9.2726 -13.9240 -2.2869 0.9347
9.4472 -13.8127 -2.2876 0.9347
9.5340 -13.7563 -2.2880 0.9347
9.6205 -13.6993 -2.2884 0.9347
9.8780 -13.5254 -2.2895 0.9346
9.9632 -13.4663 -2.2899 0.9346
10.1325 -13.3467 -2.2907 0.9346
10.3840 -13.1636 -2.2920 0.9346
10.5499 -13.0390 -2.2928 0.9345
10.6323 -12.9759 -2.2932 0.9345
10.7144 -12.9124 -2.2937 0.9345
10.7961 -12.8483 -2.2941 0.9345
11.1192 -12.5871 -2.2959 0.9344
11.2786 -12.4536 -2.2968 0.9344
11.4364 -12.3182 -2.2977 0.9344
11.6702 -12.1115 -2.2992 0.9344
11.7474 -12.0416 -2.2997 0.9343
11.9005 -11.9005 -2.3006 0.9343
11.9765 -11.8292 -2.3011 0.9343
12.0520 -11.7575 -2.3016 0.9343
12.2762 -11.5395 -2.3032 0.9342
12.5692 -11.2425 -2.3053 0.9342
12.6414 -11.1671 -2.3058 0.9342
12.7131 -11.0913 -2.3063 0.9342
12.9959 -10.7836 -2.3085 0.9341
13.1346 -10.6272 -2.3096 0.9341
13.2032 -10.5483 -2.3102 0.9340
13.2715 -10.4690 -2.3107 0.9340
13.4734 -10.2286 -2.3124 0.9340
13.5398 -10.1476 -2.3130 0.9340
13.6056 -10.0662 -2.3136 0.9340
13.7361 -9.9022 -2.3148 0.9339
13.8646 -9.7365 -2.3160 0.9339
13.9912 -9.5692 -2.3172 0.9339
14.1159 -9.4004 -2.3184 0.9338
14.1776 -9.3154 -2.3190 0.9338
14.2993 -9.1442 -2.3202 0.9338
14.4781 -8.8845 -2.3221 0.9337
14.5368 -8.7972 -2.3227 0.9337
14.5949 -8.7095 -2.3234 0.9337
14.7096 -8.5331 -2.3247 0.9336
14.7662 -8.4443 -2.3253 0.9336
14.9874 -8.0855 -2.3279 0.9336
15.0948 -7.9040 -2.3292 0.9335
15.1477 -7.8128 -2.3299 0.9335
15.2001 -7.7212 -2.3306 0.9335
15.2520 -7.6292 -2.3312 0.9335
15.3033 -7.5369 -2.3319 0.9334
15.3541 -7.4443 -2.3326 0.9334
15.4043 -7.3514 -2.3333 0.9334
15.5518 -7.0706 -2.3353 0.9334
15.7407 -6.6917 -2.3381 0.9333
15.7865 -6.5962 -2.3388 0.9333
15.8765 -6.4043 -2.3402 0.9332
15.9206 -6.3080 -2.3410 0.9332
16.0072 -6.1143 -2.3424 0.9332
16.1735 -5.7236 -2.3453 0.9331
16.2137 -5.6252 -2.3460 0.9331
16.2921 -5.4276 -2.3475 0.9330
16.3683 -5.2290 -2.3490 0.9330
16.4055 -5.1293 -2.3497 0.9330
16.4782 -4.9291 -2.3512 0.9329
16.5136 -4.8286 -2.3519 0.9329
16.5827 -4.6270 -2.3535 0.9329
16.6493 -4.4244 -2.3550 0.9328
16.7136 -4.2208 -2.3565 0.9328
16.8054 -3.9139 -2.3588 0.9327
16.9462 -3.3980 -2.3627 0.9326
16.9981 -3.1903 -2.3642 0.9326
17.0477 -2.9818 -2.3658 0.9325
17.0715 -2.8773 -2.3666 0.9325
17.0946 -2.7726 -2.3674 0.9325
17.1172 -2.6677 -2.3682 0.9324
17.1391 -2.5627 -2.3690 0.9324
17.1604 -2.4574 -2.3698 0.9324
17.2010 -2.2465 -2.3714 0.9324
17.2392 -2.0350 -2.3730 0.9323
17.2747 -1.8228 -2.3746 0.9323
17.3077 -1.6101 -2.3762 0.9322
17.3232 -1.5036 -2.3770 0.9322
17.3660 -1.1832 -2.3794 0.9321
17.3789 -1.0761 -2.3803 0.9321
17.4028 -0.8617 -2.3819 0.9321
17.4138 -0.7543 -2.3827 0.9320
17.4241 -0.6468 -2.3835 0.9320
17.4512 -0.3238 -2.3860 0.9320
17.4780 0.1081 -2.3893 0.9319
17.4831 0.2163 -2.3901 0.9318
17.4913 0.4328 -2.3918 0.9318
17.4943 0.5411 -2.3926 0.9318
17.4967 0.6495 -2.3935 0.9318
17.4985 0.7580 -2.3943 0.9317
17.4995 0.8665 -2.3951 0.9317
17.4997 1.0836 -2.3968 0.9317
17.4988 1.1922 -2.3976 0.9316
17.4972 1.3009 -2.3985 0.9316
17.4949 1.4095 -2.3993 0.9316
17.4920 1.5182 -2.4002 0.9316
17.4884 1.6270 -2.4010 0.9315
17.4791 1.8444 -2.4027 0.9315
17.4526 2.2794 -2.4060 0.9314
17.4443 2.3881 -2.4069 0.9314
17.3926 2.9314 -2.4111 0.9313
17.3802 3.0400 -2.4120 0.9312
17.3390 3.3654 -2.4145 0.9312
17.2917 3.6904 -2.4170 0.9311
17.2568 3.9067 -2.4187 0.9311
17.2383 4.0147 -2.4196 0.9310
17.1577 4.4461 -2.4229 0.9309
17.1358 4.5537 -2.4238 0.9309
17.0662 4.8759 -2.4263 0.9309
17.0416 4.9831 -2.4271 0.9308
16.9904 5.1971 -2.4288 0.9308
16.9638 5.3039 -2.4297 0.9308
16.8507 5.7297 -2.4330 0.9307
16.7588 6.0476 -2.4355 0.9306
16.7268 6.1532 -2.4364 0.9306
16.6942 6.2587 -2.4372 0.9306
16.6268 6.4691 -2.4389 0.9305
16.5922 6.5740 -2.4397 0.9305
16.4842 6.8878 -2.4422 0.9304
16.3702 7.1997 -2.4447 0.9303
16.3308 7.3032 -2.4455 0.9303
16.2909 7.4066 -2.4463 0.9303
16.2502 7.5097 -2.4471 0.9303
16.2088 7.6127 -2.4480 0.9303
16.1669 7.7153 -2.4488 0.9302
16.1243 7.8177 -2.4496 0.9302
16.0810 7.9199 -2.4504 0.9302
16.0370 8.0219 -2.4512 0.9302
15.7596 8.6284 -2.4561 0.9300
15.6121 8.9280 -2.4585 0.9300
15.5105 9.1264 -2.4601 0.9299
15.3535 9.4217 -2.4625 0.9299
15.2455 9.6170 -2.4641 0.9298
15.0788 9.9076 -2.4664 0.9297
15.0220 10.0038 -2.4672 0.9297
14.9646 10.0997 -2.4680 0.9297
14.8478 10.2905 -2.4695 0.9297
14.6069 10.6679 -2.4726 0.9296
14.4828 10.8544 -2.4741 0.9295
14.4198 10.9471 -2.4749 0.9295
14.3562 11.0394 -2.4756 0.9295
14.2920 11.1314 -2.4764 0.9295
14.2271 11.2229 -2.4771 0.9295
14.0291 11.4953 -2.4794 0.9294
13.9619 11.5853 -2.4801 0.9294
13.8941 11.6748 -2.4808 0.9294
13.8258 11.7641 -2.4816 0.9293
13.7568 11.8528 -2.4823 0.9293
13.6873 11.9411 -2.4830 0.9293
12.6196 11.4288 -2.3274 0.9336
12.5523 11.5100 -2.3281 0.9336
12.4845 11.5907 -2.3288 0.9335
12.1373 11.9881 -2.3321 0.9334
12.0663 12.0663 -2.3327 0.9334
11.7771 12.3747 -2.3353 0.9334
11.6295 12.5262 -2.3365 0.9333
11.5549 12.6013 -2.3372 0.9333
11.4043 12.7500 -2.3384 0.9333
11.3282 12.8237 -2.3390 0.9333
11.1746 12.9697 -2.3403 0.9332
11.0971 13.0419 -2.3409 0.9332
10.9405 13.1850 -2.3421 0.9332
10.7023 13.3959 -2.3439 0.9331
7.3470 9.5544 -1.6476 0.9525
7.3026 9.6192 -1.6510 0.9524
7.2604 9.6875 -1.6549 0.9523
7.1754 9.8250 -1.6631 0.9521
9.9624 14.0013 -2.3491 0.9330
8.3193 12.0037 -1.9965 0.9427
7.4144 11.4379 -1.8633 0.9465
7.2089 11.2730 -1.8292 0.9474
6.8574 11.3313 -1.8106 0.9479
6.5929 11.3651 -1.7961 0.9483
6.5107 11.3850 -1.7929 0.9484
6.4288 11.4048 -1.7897 0.9485
6.1847 11.4639 -1.7806 0.9488
6.1038 11.4835 -1.7778 0.9489
5.9429 11.5224 -1.7723 0.9490
5.8629 11.5418 -1.7697 0.9491
5.7830 11.5611 -1.7671 0.9492
5.5910 11.7157 -1.7746 0.9489
5.5114 11.7349 -1.7723 0.9490
5.3527 11.7734 -1.7680 0.9491
5.0375 11.8496 -1.7601 0.9493
4.6471 11.9440 -1.7520 0.9496
4.4919 11.9816 -1.7492 0.9497
4.4145 12.0003 -1.7479 0.9497
4.3372 12.0190 -1.7467 0.9497
4.1828 12.0563 -1.7445 0.9498
3.9193 12.0120 -1.7272 0.9503
3.8432 12.0304 -1.7264 0.9503
3.6911 12.0672 -1.7250 0.9503
3.6151 12.0856 -1.7244 0.9503
3.3117 12.1590 -1.7227 0.9504
3.2360 12.1773 -1.7224 0.9504
3.1602 12.1956 -1.7222 0.9504
3.0845 12.2139 -1.7221 0.9504
2.9330 12.2505 -1.7220 0.9504
2.7816 12.2871 -1.7222 0.9504
2.6301 12.3238 -1.7226 0.9504
2.5543 12.3421 -1.7229 0.9504
2.4026 12.3788 -1.7238 0.9504
2.0987 12.4522 -1.7262 0.9503
1.9626 12.5932 -1.7423 0.9498
1.8857 12.6117 -1.7432 0.9498
1.8087 12.6304 -1.7442 0.9498
1.7316 12.6490 -1.7453 0.9498
1.5771 12.6863 -1.7476 0.9497
1.3446 12.7425 -1.7516 0.9496
1.1889 12.7801 -1.7546 0.9495
1.0327 12.8179 -1.7579 0.9494
0.8717 12.7949 -1.7531 0.9495
0.7972 12.8748 -1.7634 0.9493
0.5602 12.9320 -1.7695 0.9491
0.4807 12.9512 -1.7717 0.9490
0.3962 12.8103 -1.7520 0.9496
0.3187 12.8823 -1.7616 0.9493
0.0800 12.9399 -1.7689 0.9491
-0.0000 12.8967 -1.7630 0.9493
-0.2330 12.5561 -1.7167 0.9506
-0.5472 12.6320 -1.7284 0.9502
-0.4357 8.7979 -1.2041 0.9651
-0.4919 8.8280 -1.2087 0.9649
-0.7858 12.6896 -1.7380 0.9500
-0.8659 12.7089 -1.7413 0.9499
-1.0271 12.7478 -1.7483 0.9497
-1.5149 13.5525 -1.8642 0.9464
-1.6023 13.5736 -1.8684 0.9463
-1.7783 13.6161 -1.8771 0.9461
-1.7937 11.9959 -1.6581 0.9522
-2.1355 13.7023 -1.8957 0.9456
-1.8958 11.6887 -1.6187 0.9533
-2.2876 12.1886 -1.6953 0.9512
-2.4295 12.1157 -1.6892 0.9513
-2.1558 10.4164 -1.4541 0.9580
-2.2130 10.3692 -1.4494 0.9581
-2.2753 10.3473 -1.4483 0.9581
-3.1579 13.9490 -1.9551 0.9439
-2.4022 10.3145 -1.4477 0.9581
-2.4650 10.2956 -1.4472 0.9582
-2.5277 10.2763 -1.4466 0.9582
-3.1015 12.2809 -1.7315 0.9501
-3.4794 12.4697 -1.7697 0.9491
-3.0584 10.7048 -1.5219 0.9560
-3.7203 12.4368 -1.7745 0.9489
-3.5100 11.4752 -1.6404 0.9527
-4.5646 14.2884 -2.0505 0.9412
-4.6705 14.3139 -2.0583 0.9410
-4.7772 14.3397 -2.0662 0.9408
-3.8321 11.2700 -1.6272 0.9531
-3.8892 11.2098 -1.6220 0.9532
-3.9461 11.1509 -1.6170 0.9534
-4.0369 10.7678 -1.5720 0.9546
-5.6623 14.5532 -2.1347 0.9389
-5.8930 14.6088 -2.1534 0.9384
-6.1278 14.6654 -2.1727 0.9378
-6.3670 14.7231 -2.1928 0.9373
-6.4882 14.7523 -2.2031 0.9370
-6.8588 14.8417 -2.2350 0.9361
-7.1120 14.9028 -2.2573 0.9355
-7.2405 14.9337 -2.2687 0.9352
-7.3704 14.9650 -2.2804 0.9349
-7.0620 13.2861 -2.0568 0.9411
-8.1787 15.1599 -2.3547 0.9328
-8.4288 15.1715 -2.3725 0.9323
-8.5212 15.1169 -2.3722 0.9323
-8.7963 14.9496 -2.3711 0.9324
-8.8872 14.8926 -2.3708 0.9324
-7.5404 12.4600 -1.9909 0.9429
-8.9459 13.8004 -2.2482 0.9358
-9.6876 14.3540 -2.3673 0.9325
-9.7745 14.2914 -2.3669 0.9325
-9.9470 14.1644 -2.3660 0.9325
-10.2025 13.9698 -2.3648 0.9325
-10.3707 13.8374 -2.3639 0.9326
-8.9313 11.7645 -2.0192 0.9421
-9.4040 12.2294 -2.1089 0.9396
-6.1266 7.8661 -1.3630 0.9605
-6.1911 7.8483 -1.3665 0.9604
-6.1347 7.6787 -1.3435 0.9611
-6.1922 7.4625 -1.3256 0.9616
-6.5441 7.5009 -1.3608 0.9606
-6.4575 7.3100 -1.3333 0.9614
-6.8129 7.5226 -1.3874 0.9599
-6.8726 7.4949 -1.3901 0.9598
-6.8646 7.2129 -1.3612 0.9606
-6.9483 7.2110 -1.3689 0.9604
-6.9990 7.1743 -1.3701 0.9603
-7.3432 7.4346 -1.4285 0.9587
-7.1614 7.1613 -1.3845 0.9599
-7.6340 7.4474 -1.4579 0.9579
-8.0305 7.0940 -1.4648 0.9577
-8.8768 7.2735 -1.5688 0.9547
-9.7238 7.6705 -1.6930 0.9512
-10.1542 7.7088 -1.7428 0.9498
-10.2915 7.7131 -1.7581 0.9494
-10.1222 7.4889 -1.7212 0.9504
-10.8861 7.8477 -1.8345 0.9473
-10.9884 7.8186 -1.8436 0.9470
-10.8441 7.6154 -1.8114 0.9479
-11.3602 7.8733 -1.8895 0.9457
-11.4648 7.7377 -1.8908 0.9457
-12.1538 8.0938 -1.9961 0.9428
-12.6981 8.2313 -2.0686 0.9407
-13.3574 8.3109 -2.1506 0.9385
-14.5095 8.5374 -2.3013 0.9343
-14.7524 8.4364 -2.3231 0.9337
-14.8468 8.2484 -2.3218 0.9337
-14.8930 8.1539 -2.3211 0.9337
-15.0719 7.7737 -2.3182 0.9338
-15.2815 7.2928 -2.3147 0.9339
-15.3216 7.1959 -2.3140 0.9339
-15.3610 7.0988 -2.3133 0.9340
-15.3998 7.0015 -2.3125 0.9340
-15.4380 6.9040 -2.3118 0.9340
-15.9108 6.8805 -2.3697 0.9324
-16.3491 6.9504 -2.4285 0.9308
-16.6408 6.9532 -2.4654 0.9298
-16.6782 6.8480 -2.4646 0.9298
-16.7149 6.7425 -2.4638 0.9298
-16.7862 6.5311 -2.4623 0.9299
-16.8881 6.2126 -2.4599 0.9299
-16.9207 6.1060 -2.4591 0.9300
-17.0735 5.5709 -2.4551 0.9301
-17.1020 5.4634 -2.4543 0.9301
-17.1298 5.3557 -2.4534 0.9301
-17.1569 5.2480 -2.4526 0.9301
-17.1833 5.1401 -2.4518 0.9301
-17.2091 5.0320 -2.4510 0.9302
-17.2585 4.8156 -2.4494 0.9302
-17.3051 4.5987 -2.4477 0.9303
-17.3275 4.4901 -2.4469 0.9303
-17.4285 3.9455 -2.4428 0.9304
-17.4467 3.8364 -2.4420 0.9304
-17.4970 3.5085 -2.4395 0.9305
-17.5124 3.3991 -2.4386 0.9305
-17.5271 3.2895 -2.4378 0.9305
-17.5411 3.1800 -2.4370 0.9306
-17.5789 2.8511 -2.4345 0.9306
-17.6106 2.5219 -2.4319 0.9307
-17.6283 2.3023 -2.4303 0.9307
-17.6648 1.6433 -2.4252 0.9309
-17.6685 1.5335 -2.4244 0.9309
-17.6738 1.3140 -2.4227 0.9310
-17.6754 1.2042 -2.4218 0.9310
-17.6764 1.0945 -2.4210 0.9310
-17.6766 0.9848 -2.4202 0.9310
-17.6733 0.6561 -2.4176 0.9311
-17.6677 0.4371 -2.4159 0.9311
-17.6639 0.3277 -2.4151 0.9312
-17.6543 0.1092 -2.4134 0.9312
-16.7178 -0.0000 -2.4119 0.9347
-16.7119 -0.1034 -2.4111 0.9347
-16.6821 -0.5160 -2.4079 0.9348
-16.6731 -0.6190 -2.4071 0.9348
-16.6634 -0.7218 -2.4063 0.9348
-16.6306 -1.0298 -2.4039 0.9349
-16.5480 -1.6428 -2.3991 0.9350
-16.5155 -1.8461 -2.3976 0.9350
-16.4983 -1.9476 -2.3968 0.9351
-16.4620 -2.1500 -2.3952 0.9351
-16.4430 -2.2510 -2.3944 0.9351
-16.3386 -2.7538 -2.3904 0.9352
-16.3159 -2.8538 -2.3897 0.9353
-16.2190 -3.2522 -2.3865 0.9353
-16.1933 -3.3514 -2.3857 0.9354
-16.1669 -3.4503 -2.3850 0.9354
-16.0844 -3.7460 -2.3826 0.9354
-16.0264 -3.9421 -2.3811 0.9355
-15.9965 -4.0398 -2.3803 0.9355
-15.8711 -4.4285 -2.3772 0.9356
-15.7365 -4.8135 -2.3742 0.9357
-15.5927 -5.1946 -2.3711 0.9357
-15.5553 -5.2893 -2.3704 0.9358
-15.5173 -5.3837 -2.3696 0.9358
-15.2780 -5.9443 -2.3651 0.9359
-15.2362 -6.0368 -2.3644 0.9359
-15.1938 -6.1290 -2.3637 0.9359
-15.1509 -6.2209 -2.3629 0.9360
-14.9737 -6.5856 -2.3600 0.9360
-14.8820 -6.7661 -2.3585 0.9361
-14.8354 -6.8559 -2.3578 0.9361
-14.7404 -7.0345 -2.3564 0.9361
-14.6922 -7.1234 -2.3557 0.9361
-14.6433 -7.2119 -2.3549 0.9362
-14.5442 -7.3880 -2.3535 0.9362
-14.4939 -7.4756 -2.3528 0.9362
-14.4430 -7.5628 -2.3521 0.9362
-14.2346 -7.9083 -2.3493 0.9363
-14.1273 -8.0790 -2.3479 0.9363
-13.9628 -8.3324 -2.3459 0.9364
-13.9069 -8.4161 -2.3452 0.9364
-13.8505 -8.4995 -2.3445 0.9364
-13.4428 -9.0727 -2.3398 0.9366
-13.2610 -9.3126 -2.3378 0.9366
-13.1994 -9.3919 -2.3372 0.9366
-13.1374 -9.4707 -2.3365 0.9366
-13.0750 -9.5491 -2.3359 0.9367
-13.0121 -9.6271 -2.3352 0.9367
-12.9488 -9.7048 -2.3346 0.9367
-12.7561 -9.9352 -2.3327 0.9367
-12.6254 -10.0867 -2.3314 0.9368
-12.5594 -10.1619 -2.3308 0.9368
-12.4931 -10.2367 -2.3302 0.9368
-12.3589 -10.3849 -2.3289 0.9368
-11.8058 -10.9607 -2.3241 0.9370
-11.5917 -11.1694 -2.3224 0.9370
-11.5195 -11.2380 -2.3218 0.9370
-11.4470 -11.3062 -2.3212 0.9370
-11.2270 -11.5082 -2.3195 0.9371
-11.0784 -11.6405 -2.3184 0.9371
-11.0036 -11.7060 -2.3178 0.9371
-10.9284 -11.7711 -2.3173 0.9371
-10.8528 -11.8356 -2.3167 0.9372
-10.6239 -12.0265 -2.3151 0.9372
-10.4695 -12.1513 -2.3140 0.9372
-10.1565 -12.3953 -2.3120 0.9373
-10.0774 -12.4551 -2.3114 0.9373
-9.9980 -12.5145 -2.3109 0.9373
-9.9182 -12.5733 -2.3104 0.9373
-9.7578 -12.6895 -2.3094 0.9374
-9.5145 -12.8601 -2.3079 0.9374
-9.4329 -12.9159 -2.3074 0.9374
-9.2685 -13.0262 -2.3065 0.9374
-9.1029 -13.1344 -2.3055 0.9375
-8.5991 -13.4470 -2.3028 0.9375
-8.5142 -13.4973 -2.3023 0.9375
-8.4289 -13.5471 -2.3019 0.9376
-8.3434 -13.5964 -2.3015 0.9376
-8.2576 -13.6452 -2.3010 0.9376
-8.1715 -13.6934 -2.3006 0.9376
-8.0852 -13.7411 -2.3002 0.9376
-7.8246 -13.8811 -2.2989 0.9376
-7.5617 -14.0165 -2.2977 0.9377
-7.0294 -14.2728 -2.2954 0.9377
-6.7601 -14.3937 -2.2942 0.9378
-6.2158 -14.6211 -2.2921 0.9378
-6.0326 -14.6925 -2.2914 0.9378
-5.9408 -14.7274 -2.2911 0.9378
-5.7566 -14.7955 -2.2905 0.9379
-5.6642 -14.8288 -2.2901 0.9379
-5.5716 -14.8615 -2.2898 0.9379
-5.3859 -14.9252 -2.2892 0.9379
-5.2928 -14.9563 -2.2889 0.9379
-5.1995 -14.9868 -2.2886 0.9379
-5.1061 -15.0167 -2.2883 0.9379
-5.0125 -15.0461 -2.2880 0.9379
-4.7307 -15.1309 -2.2872 0.9379
-4.3530 -15.2361 -2.2861 0.9380
-4.2582 -15.2610 -2.2858 0.9380
-3.8778 -15.3551 -2.2849 0.9380
-3.7823 -15.3772 -2.2846 0.9380
-3.6868 -15.3987 -2.2844 0.9380
-3.5911 -15.4197 -2.2842 0.9380
-3.4954 -15.4401 -2.2839 0.9380
-3.3035 -15.4792 -2.2835 0.9380
-3.1112 -15.5161 -2.2831 0.9380
-3.0150 -15.5337 -2.2829 0.9381
-2.9186 -15.5506 -2.2827 0.9381
-2.7256 -15.5829 -2.2823 0.9381
-2.6289 -15.5983 -2.2821 0.9381
-2.5322 -15.6130 -2.2819 0.9381
-2.2417 -15.6537 -2.2814 0.9381
-2.1447 -15.6662 -2.2813 0.9381
-2.0476 -15.6781 -2.2811 0.9381
-1.7560 -15.7103 -2.2807 0.9381
-1.6587 -15.7199 -2.2805 0.9381
-1.5614 -15.7289 -2.2804 0.9381
-1.3666 -15.7452 -2.2801 0.9381
-1.2691 -15.7525 -2.2800 0.9381
-1.0741 -15.7654 -2.2798 0.9381
-0.8789 -15.7760 -2.2796 0.9381
-0.7813 -15.7804 -2.2795 0.9381
-0.4883 -15.7903 -2.2792 0.9381
-0.1953 -15.7949 -2.2789 0.9382
-0.0976 -15.7954 -2.2789 0.9382
0.0000 -15.7952 -2.2788 0.9382
0.0977 -15.7945 -2.2787 0.9382
0.1954 -15.7932 -2.2787 0.9382
0.2931 -15.7913 -2.2786 0.9382
0.3907 -15.7889 -2.2786 0.9382
0.4883 -15.7859 -2.2785 0.9382
0.5859 -15.7823 -2.2785 0.9382
0.6835 -15.7781 -2.2785 0.9382
0.8786 -15.7681 -2.2784 0.9382
0.9760 -15.7622 -2.2784 0.9382
1.0735 -15.7557 -2.2784 0.9382
1.1709 -15.7487 -2.2784 0.9382
1.2683 -15.7411 -2.2784 0.9382
1.7544 -15.6945 -2.2784 0.9382
1.9483 -15.6719 -2.2784 0.9382
2.0452 -15.6598 -2.2784 0.9382
2.1421 -15.6470 -2.2785 0.9382
2.2389 -15.6337 -2.2785 0.9382
2.5286 -15.5904 -2.2787 0.9382
2.6251 -15.5748 -2.2787 0.9382
2.7214 -15.5587 -2.2788 0.9382
2.9138 -15.5247 -2.2789 0.9382
3.1058 -15.4885 -2.2790 0.9382
3.2016 -15.4696 -2.2791 0.9382
3.3930 -15.4300 -2.2793 0.9381
3.4884 -15.4093 -2.2794 0.9381
3.6791 -15.3663 -2.2796 0.9381
3.8692 -15.3211 -2.2798 0.9381
4.0589 -15.2737 -2.2800 0.9381
4.2480 -15.2240 -2.2803 0.9381
4.5305 -15.1453 -2.2807 0.9381
4.9050 -15.0327 -2.2813 0.9381
5.0913 -14.9730 -2.2816 0.9381
5.4618 -14.8471 -2.2824 0.9381
5.5540 -14.8144 -2.2826 0.9381
5.7377 -14.7470 -2.2829 0.9381
6.0120 -14.6420 -2.2836 0.9380
6.1030 -14.6060 -2.2838 0.9380
6.1938 -14.5694 -2.2840 0.9380
6.3748 -14.4945 -2.2845 0.9380
6.7342 -14.3384 -2.2854 0.9380
6.9125 -14.2572 -2.2859 0.9380
7.0013 -14.2157 -2.2862 0.9380
7.0899 -14.1737 -2.2864 0.9380
7.1783 -14.1313 -2.2867 0.9380
7.5293 -13.9562 -2.2878 0.9379
7.7899 -13.8194 -2.2887 0.9379
7.9623 -13.7256 -2.2893 0.9379
8.0481 -13.6779 -2.2896 0.9379
8.1336 -13.6298 -2.2899 0.9379
8.2189 -13.5811 -2.2902 0.9379
8.5572 -13.3813 -2.2915 0.9378
8.7246 -13.2783 -2.2922 0.9378
8.9735 -13.1202 -2.2933 0.9378
9.2197 -12.9576 -2.2943 0.9378
9.3012 -12.9024 -2.2947 0.9377
9.6239 -12.6767 -2.2962 0.9377
9.7037 -12.6191 -2.2966 0.9377
9.7833 -12.5610 -2.2970 0.9377
9.8624 -12.5024 -2.2974 0.9377
10.1759 -12.2634 -2.2990 0.9376
10.2534 -12.2024 -2.2994 0.9376
10.4837 -12.0167 -2.3007 0.9376
10.5598 -11.9539 -2.3012 0.9376
10.7110 -11.8269 -2.3020 0.9375
10.8606 -11.6980 -2.3029 0.9375
10.9349 -11.6329 -2.3034 0.9375
11.1555 -11.4349 -2.3047 0.9375
11.3006 -11.3006 -2.3057 0.9375
11.4443 -11.1646 -2.3066 0.9374
11.5863 -11.0268 -2.3076 0.9374
11.6567 -10.9572 -2.3081 0.9374
11.7268 -10.8873 -2.3086 0.9374
11.8656 -10.7460 -2.3096 0.9374
12.2056 -10.3854 -2.3121 0.9373
12.2724 -10.3121 -2.3126 0.9373
12.3386 -10.2380 -2.3131 0.9373
12.5997 -9.9391 -2.3153 0.9372
12.7909 -9.7105 -2.3169 0.9372
12.9162 -9.5561 -2.3180 0.9371
12.9782 -9.4783 -2.3186 0.9371
13.1007 -9.3216 -2.3197 0.9371
13.1613 -9.2426 -2.3202 0.9371
13.2812 -9.0836 -2.3214 0.9370
13.3992 -8.9231 -2.3225 0.9370
13.5153 -8.7611 -2.3237 0.9370
13.6296 -8.5976 -2.3249 0.9369
13.7419 -8.4327 -2.3261 0.9369
13.9608 -8.0987 -2.3285 0.9369
14.2234 -7.6734 -2.3316 0.9368
14.2744 -7.5873 -2.3322 0.9368
14.3249 -7.5009 -2.3329 0.9367
14.3749 -7.4142 -2.3335 0.9367
14.4735 -7.2399 -2.3348 0.9367
14.5700 -7.0642 -2.3361 0.9367
14.7107 -6.7983 -2.3380 0.9366
14.8020 -6.6195 -2.3393 0.9366
14.8469 -6.5297 -2.3400 0.9366
15.0631 -6.0763 -2.3433 0.9365
15.1048 -5.9847 -2.3440 0.9364
15.1865 -5.8008 -2.3454 0.9364
15.2660 -5.6158 -2.3467 0.9364
15.3049 -5.5229 -2.3474 0.9364
15.3432 -5.4298 -2.3481 0.9363
15.3811 -5.3363 -2.3488 0.9363
15.4912 -5.0546 -2.3509 0.9363
15.5964 -4.7706 -2.3530 0.9362
15.6636 -4.5801 -2.3544 0.9362
15.6964 -4.4845 -2.3552 0.9362
15.7603 -4.2927 -2.3566 0.9361
15.8218 -4.0999 -2.3580 0.9361
15.8811 -3.9063 -2.3595 0.9360
15.9380 -3.7119 -2.3609 0.9360
15.9926 -3.5167 -2.3624 0.9360
16.0191 -3.4188 -2.3631 0.9359
16.0449 -3.3206 -2.3639 0.9359
16.0948 -3.1239 -2.3654 0.9359
16.1189 -3.0253 -2.3661 0.9359
16.2093 -2.6290 -2.3691 0.9358
16.2304 -2.5295 -2.3698 0.9358
16.2509 -2.4298 -2.3706 0.9358
16.2708 -2.3300 -2.3714 0.9357
