ply
format ascii 1.0
element vertex 1526
property float32 x
property float32 y
property float32 z
property float32 I
end_header
-22.8701 -15.0270 -2.0965 0.8960
-22.7576 -15.1553 -2.0947 0.8961
-22.6334 -15.2755 -2.0919 0.8962
-22.5083 -15.3945 -2.0891 0.8964
-22.3829 -15.5128 -2.0864 0.8965
-22.0027 -15.8615 -2.0780 0.8969
-21.7775 -16.1123 -2.0754 0.8970
-21.6642 -16.2366 -2.0741 0.8971
-21.4359 -16.4835 -2.0716 0.8972
-21.3210 -16.6060 -2.0704 0.8973
-21.0897 -16.8490 -2.0680 0.8974
-20.9734 -16.9696 -2.0669 0.8974
-20.6213 -17.3275 -2.0635 0.8976
-20.5030 -17.4456 -2.0624 0.8976
-20.2649 -17.6797 -2.0603 0.8977
-20.1451 -17.7958 -2.0593 0.8978
-20.0249 -17.9113 -2.0583 0.8978
-19.9042 -18.0261 -2.0573 0.8979
-19.7830 -18.1403 -2.0563 0.8979
-19.6613 -18.2539 -2.0554 0.8980
-19.4166 -18.4790 -2.0535 0.8980
-18.7968 -19.0307 -2.0492 0.8982
-18.6715 -19.1392 -2.0484 0.8983
-18.4194 -19.3541 -2.0469 0.8984
-18.2927 -19.4605 -2.0462 0.8984
-17.9100 -19.7761 -2.0440 0.8985
-17.6527 -19.9832 -2.0427 0.8986
-17.5233 -20.0858 -2.0421 0.8986
-17.1328 -20.3896 -2.0403 0.8987
-16.8703 -20.5889 -2.0392 0.8987
-16.7383 -20.6876 -2.0387 0.8987
-16.6060 -20.7856 -2.0382 0.8988
-16.4733 -20.8830 -2.0377 0.8988
-15.6478 -21.4257 -2.0326 0.8990
-15.5089 -21.5137 -2.0318 0.8991
-15.0881 -21.7703 -2.0293 0.8992
-14.5215 -22.1009 -2.0260 0.8993
-13.9486 -22.4184 -2.0228 0.8995
-13.8044 -22.4956 -2.0220 0.8995
-13.3698 -22.7225 -2.0198 0.8996
-13.0783 -22.8696 -2.0183 0.8997
-12.7854 -23.0133 -2.0169 0.8998
-12.1956 -23.2907 -2.0141 0.8999
-12.0473 -23.3579 -2.0135 0.8999
-11.8987 -23.4243 -2.0128 0.9000
-11.7499 -23.4898 -2.0122 0.9000
-11.4512 -23.6184 -2.0109 0.9001
-10.8503 -23.8653 -2.0084 0.9002
-9.9406 -24.2102 -2.0050 0.9003
-9.6352 -24.3183 -2.0040 0.9004
-9.4822 -24.3711 -2.0034 0.9004
-9.3289 -24.4229 -2.0029 0.9004
-9.0216 -24.5242 -2.0019 0.9005
-7.4716 -20.7051 -1.6864 0.9155
-7.1947 -20.7375 -1.6816 0.9157
-7.0555 -20.7497 -1.6790 0.9158
-6.9430 -21.2789 -1.7148 0.9141
-7.6278 -24.9372 -1.9978 0.9007
-7.2805 -24.3389 -1.9463 0.9031
-7.1208 -24.3525 -1.9438 0.9032
-6.8026 -24.3797 -1.9391 0.9034
-6.6441 -24.3933 -1.9369 0.9035
-6.4859 -24.4069 -1.9347 0.9037
-6.3281 -24.4204 -1.9327 0.9037
-6.1706 -24.4338 -1.9307 0.9038
-6.0134 -24.4473 -1.9288 0.9039
-5.6999 -24.4741 -1.9252 0.9041
-5.0762 -24.5274 -1.9189 0.9044
-4.9209 -24.5408 -1.9175 0.9045
-4.7658 -24.5540 -1.9162 0.9045
-4.4562 -24.5805 -1.9138 0.9046
-3.8391 -24.6334 -1.9100 0.9048
-3.6852 -24.6465 -1.9092 0.9049
-3.3777 -24.6729 -1.9079 0.9049
-3.2241 -24.6861 -1.9073 0.9050
-3.0706 -24.6992 -1.9068 0.9050
-2.9172 -24.7123 -1.9064 0.9050
-2.3039 -24.7649 -1.9055 0.9050
-1.6908 -24.8174 -1.9057 0.9050
-1.2308 -24.8568 -1.9066 0.9050
-0.9627 -25.9333 -1.9882 0.9011
-0.8023 -25.9383 -1.9881 0.9011
-0.6418 -25.9423 -1.9881 0.9011
-0.1605 -25.9491 -1.9880 0.9011
0.1606 -25.9493 -1.9880 0.9011
0.4815 -25.9460 -1.9881 0.9011
0.9628 -25.9343 -1.9882 0.9011
1.1232 -25.9288 -1.9883 0.9011
1.6042 -25.9066 -1.9885 0.9011
2.0849 -25.8766 -1.9889 0.9011
2.4051 -25.8521 -1.9891 0.9011
2.8524 -25.5186 -1.9672 0.9021
2.9767 -25.2171 -1.9453 0.9032
3.1367 -25.2308 -1.9478 0.9030
3.4579 -25.2584 -1.9531 0.9028
3.6191 -25.2722 -1.9559 0.9027
4.2712 -25.3415 -1.9688 0.9020
4.4350 -25.3556 -1.9720 0.9019
4.8440 -24.9567 -1.9477 0.9030
5.0071 -24.9707 -1.9511 0.9029
5.1709 -24.9848 -1.9547 0.9027
5.3352 -24.9989 -1.9583 0.9025
5.5887 -25.4155 -1.9936 0.9009
5.9045 -25.3526 -1.9943 0.9008
6.0622 -25.3199 -1.9946 0.9008
6.3350 -25.0848 -1.9821 0.9014
6.5040 -25.0993 -1.9864 0.9012
6.8444 -25.1286 -1.9953 0.9008
7.0050 -25.1051 -1.9968 0.9007
7.1616 -25.0663 -1.9972 0.9007
7.3180 -25.0266 -1.9976 0.9007
7.4741 -24.9860 -1.9980 0.9007
7.9415 -24.8591 -1.9993 0.9006
7.4575 -21.9319 -1.7747 0.9113
7.7585 -21.5001 -1.7511 0.9124
8.0343 -21.4303 -1.7534 0.9123
8.1322 -21.2899 -1.7460 0.9126
8.2293 -21.1507 -1.7387 0.9130
8.3377 -20.6692 -1.7075 0.9145
8.5245 -20.4013 -1.6939 0.9151
8.7084 -20.1375 -1.6808 0.9157
8.8446 -19.7774 -1.6598 0.9168
8.6816 -18.7860 -1.5855 0.9203
8.9146 -18.9809 -1.6065 0.9193
9.0022 -18.8635 -1.6013 0.9196
9.3168 -19.2161 -1.6361 0.9179
9.4485 -19.1846 -1.6383 0.9178
9.9593 -19.6061 -1.6847 0.9156
10.6045 -20.5604 -1.7723 0.9114
11.3870 -21.1069 -1.8373 0.9083
11.6607 -21.2980 -1.8602 0.9072
11.9414 -21.4940 -1.8838 0.9061
12.5247 -21.9015 -1.9329 0.9037
12.8279 -22.1132 -1.9585 0.9025
13.3696 -22.4038 -1.9988 0.9006
13.9562 -22.4305 -2.0239 0.8994
14.1002 -22.3525 -2.0247 0.8994
14.3869 -22.1939 -2.0263 0.8993
14.5297 -22.1134 -2.0271 0.8993
14.8142 -21.9499 -2.0288 0.8992
14.9558 -21.8669 -2.0296 0.8992
15.0971 -21.7831 -2.0304 0.8991
15.2379 -21.6984 -2.0313 0.8991
15.5183 -21.5266 -2.0330 0.8990
15.9358 -21.2628 -2.0357 0.8989
14.2848 -18.5766 -1.7953 0.9103
14.3046 -18.3661 -1.7835 0.9108
14.5872 -18.2586 -1.7904 0.9105
14.7293 -18.2044 -1.7940 0.9103
16.8948 -20.6188 -2.0422 0.8986
17.1647 -20.4276 -2.0441 0.8985
17.6989 -20.0354 -2.0481 0.8983
17.8312 -19.9354 -2.0491 0.8983
17.9631 -19.8346 -2.0501 0.8982
18.4854 -19.4234 -2.0542 0.8980
19.1268 -18.8917 -2.0596 0.8978
19.5053 -18.5634 -2.0629 0.8976
19.7548 -18.3406 -2.0651 0.8975
19.8788 -18.2281 -2.0663 0.8974
20.1250 -18.0008 -2.0686 0.8973
20.2472 -17.8859 -2.0697 0.8973
20.4900 -17.6541 -2.0721 0.8972
20.8497 -17.3006 -2.0756 0.8970
20.9684 -17.1812 -2.0768 0.8970
21.3209 -16.8188 -2.0805 0.8968
21.6679 -16.4496 -2.0842 0.8966
22.3446 -15.6917 -2.0918 0.8962
22.7827 -15.1721 -2.0970 0.8960
22.8906 -15.0403 -2.0984 0.8959
23.1041 -14.7748 -2.1010 0.8958
23.2099 -14.6410 -2.1024 0.8958
23.3150 -14.5065 -2.1037 0.8957
23.4195 -14.3714 -2.1051 0.8956
23.6261 -14.0990 -2.1078 0.8955
23.7283 -13.9617 -2.1092 0.8954
23.9307 -13.6852 -2.1120 0.8953
24.0308 -13.5459 -2.1134 0.8952
24.3267 -13.1240 -2.1176 0.8950
24.4238 -12.9821 -2.1190 0.8950
24.7107 -12.5522 -2.1234 0.8948
24.8048 -12.4077 -2.1248 0.8947
24.8982 -12.2625 -2.1263 0.8946
24.9907 -12.1166 -2.1277 0.8946
25.0825 -11.9701 -2.1292 0.8945
25.3532 -11.5268 -2.1337 0.8943
25.4419 -11.3778 -2.1352 0.8942
25.5296 -11.2281 -2.1367 0.8941
25.7883 -10.7754 -2.1412 0.8939
26.0397 -10.3173 -2.1458 0.8937
26.2835 -9.8538 -2.1505 0.8935
26.5197 -9.3850 -2.1552 0.8933
26.5967 -9.2275 -2.1568 0.8932
26.8961 -8.5922 -2.1631 0.8929
26.9688 -8.4320 -2.1647 0.8928
27.0406 -8.2712 -2.1664 0.8928
27.1815 -7.9480 -2.1696 0.8926
27.3187 -7.6227 -2.1729 0.8925
27.7580 -7.0101 -2.1933 0.8915
28.0495 -6.7158 -2.2096 0.8907
28.3349 -6.4146 -2.2257 0.8900
28.7689 -5.9540 -2.2507 0.8888
28.9106 -5.7972 -2.2590 0.8884
29.1972 -5.4799 -2.2759 0.8877
30.0522 -4.4935 -2.3279 0.8852
30.4730 -3.9799 -2.3544 0.8840
30.6642 -3.6197 -2.3655 0.8835
30.7103 -3.4328 -2.3674 0.8834
30.7554 -3.2454 -2.3693 0.8833
30.7993 -3.0575 -2.3712 0.8832
30.8840 -2.6806 -2.3750 0.8831
30.7337 -2.4762 -2.3622 0.8836
31.0399 -1.9221 -2.3826 0.8827
29.3483 -1.6351 -2.2519 0.8888
31.2696 -0.5802 -2.3960 0.8821
31.2980 -0.3871 -2.3980 0.8820
31.3250 -0.1937 -2.3999 0.8819
31.3510 -0.0000 -2.4018 0.8818
30.9334 0.3826 -2.3700 0.8833
30.9692 0.5746 -2.3730 0.8831
31.4431 0.7779 -2.4096 0.8815
31.4822 1.1687 -2.4136 0.8813
31.5000 1.3644 -2.4155 0.8812
31.5591 2.1502 -2.4234 0.8808
31.5709 2.3472 -2.4254 0.8807
31.5909 2.7420 -2.4293 0.8805
31.5992 2.9397 -2.4313 0.8805
31.6061 3.1376 -2.4333 0.8804
31.6119 3.3357 -2.4353 0.8803
31.6197 3.7325 -2.4392 0.8801
31.6224 4.3291 -2.4452 0.8798
31.6208 4.5282 -2.4472 0.8797
31.6139 4.9270 -2.4512 0.8795
31.6086 5.1266 -2.4532 0.8794
31.5851 5.7261 -2.4592 0.8792
31.5749 5.9261 -2.4612 0.8791
31.5633 6.1263 -2.4632 0.8790
31.5505 6.3265 -2.4652 0.8789
31.5211 6.7271 -2.4693 0.8787
31.4865 7.1281 -2.4733 0.8785
31.4470 7.5292 -2.4773 0.8783
31.4253 7.7297 -2.4793 0.8782
31.3781 8.1310 -2.4833 0.8781
31.3256 8.5322 -2.4873 0.8779
31.2682 8.9334 -2.4913 0.8777
31.2375 9.1340 -2.4934 0.8776
31.2055 9.3345 -2.4954 0.8775
31.1722 9.5350 -2.4974 0.8774
31.1377 9.7354 -2.4994 0.8773
31.0647 10.1360 -2.5034 0.8771
30.9865 10.5363 -2.5074 0.8770
30.9454 10.7363 -2.5094 0.8769
30.9030 10.9361 -2.5114 0.8768
30.8593 11.1359 -2.5134 0.8767
30.8144 11.3355 -2.5154 0.8766
30.7205 11.7344 -2.5194 0.8764
30.6716 11.9336 -2.5214 0.8763
30.6214 12.1326 -2.5234 0.8762
30.5699 12.3315 -2.5254 0.8761
30.5171 12.5301 -2.5274 0.8760
30.4075 12.9269 -2.5313 0.8759
30.3506 13.1250 -2.5333 0.8758
30.2332 13.5204 -2.5373 0.8756
30.1104 13.9149 -2.5412 0.8754
29.9824 14.3084 -2.5452 0.8752
29.9164 14.5048 -2.5471 0.8751
29.7105 15.0920 -2.5530 0.8749
29.6393 15.2871 -2.5549 0.8748
29.3411 16.0643 -2.5627 0.8744
29.2633 16.2577 -2.5647 0.8743
29.1036 16.6434 -2.5685 0.8742
29.0218 16.8356 -2.5704 0.8741
28.6816 17.6004 -2.5781 0.8737
28.5934 17.7907 -2.5800 0.8736
28.4128 18.1697 -2.5838 0.8735
28.3206 18.3584 -2.5857 0.8734
28.2270 18.5467 -2.5875 0.8733
28.0360 18.9217 -2.5913 0.8731
15.7604 10.7793 -1.4628 0.9263
15.5504 10.9204 -1.4558 0.9266
15.4462 10.9905 -1.4523 0.9268
15.3425 11.0602 -1.4490 0.9269
15.2392 11.1296 -1.4457 0.9271
15.0340 11.2675 -1.4394 0.9274
14.9321 11.3360 -1.4363 0.9275
14.8307 11.4043 -1.4333 0.9277
14.7296 11.4722 -1.4303 0.9278
14.6289 11.5399 -1.4275 0.9280
14.4288 11.6744 -1.4219 0.9282
14.2302 11.8079 -1.4166 0.9285
14.1315 11.8742 -1.4141 0.9286
13.9350 12.0063 -1.4092 0.9289
13.8373 12.0720 -1.4068 0.9290
13.7398 12.1375 -1.4045 0.9291
13.3533 12.3973 -1.3959 0.9295
13.2701 12.4738 -1.3953 0.9295
13.5614 12.9065 -1.4343 0.9276
13.8694 13.3641 -1.4756 0.9256
15.1082 15.1082 -1.6369 0.9179
17.8351 19.2104 -2.0082 0.9002
23.1551 25.8875 -2.6609 0.8699
21.4087 24.5392 -2.4949 0.8775
21.1282 24.8311 -2.4978 0.8774
20.9864 24.9757 -2.4992 0.8773
15.2901 18.4269 -1.8344 0.9084
13.0678 15.9483 -1.5796 0.9206
12.9790 16.0413 -1.5808 0.9206
12.6763 16.2756 -1.5805 0.9206
12.5716 16.3487 -1.5800 0.9206
12.3356 16.4591 -1.5758 0.9208
14.1973 19.1893 -1.8287 0.9087
19.3741 26.5279 -2.5166 0.8765
19.0638 26.7926 -2.5192 0.8764
18.4316 27.3098 -2.5242 0.8762
12.7195 19.6217 -1.7915 0.9105
12.4818 19.7869 -1.7923 0.9104
12.3628 19.8696 -1.7928 0.9104
12.2438 19.9524 -1.7934 0.9104
12.1248 20.0353 -1.7941 0.9103
10.3292 18.0624 -1.5941 0.9199
6.7798 12.5669 -1.0939 0.9443
5.9311 11.4994 -0.9913 0.9494
5.7942 11.4065 -0.9801 0.9500
5.6139 11.5787 -0.9858 0.9497
5.5477 11.6247 -0.9868 0.9496
4.5216 9.6274 -0.8149 0.9582
4.4124 9.5479 -0.8058 0.9587
4.2479 9.3431 -0.7863 0.9597
4.0024 9.2553 -0.7725 0.9604
3.9147 9.2085 -0.7666 0.9607
3.7248 9.0718 -0.7513 0.9614
3.6398 9.1864 -0.7570 0.9611
3.5737 9.1851 -0.7551 0.9612
3.4426 9.1827 -0.7513 0.9614
3.3775 9.1814 -0.7495 0.9615
2.5489 7.4961 -0.6066 0.9687
2.8934 9.0571 -0.7284 0.9626
2.8498 9.1147 -0.7316 0.9624
2.6883 9.1938 -0.7338 0.9623
2.6342 9.2201 -0.7346 0.9623
2.5257 9.2728 -0.7363 0.9622
2.4712 9.2992 -0.7372 0.9621
2.4172 9.3280 -0.7382 0.9621
2.3649 9.3644 -0.7399 0.9620
2.3124 9.4010 -0.7417 0.9619
2.1534 9.5119 -0.7472 0.9616
2.0460 9.5868 -0.7510 0.9614
1.9919 9.6245 -0.7530 0.9613
1.9375 9.6624 -0.7550 0.9612
1.7169 9.8162 -0.7634 0.9608
1.6610 9.8552 -0.7657 0.9607
1.6048 9.8944 -0.7679 0.9606
1.5482 9.9338 -0.7702 0.9605
1.4913 9.9735 -0.7726 0.9604
1.3763 10.0536 -0.7774 0.9601
1.2599 10.1348 -0.7824 0.9599
1.0225 10.3003 -0.7930 0.9593
0.8962 10.3257 -0.7940 0.9593
0.8329 10.3377 -0.7946 0.9592
0.5271 10.6456 -0.8166 0.9581
0.4631 10.6902 -0.8198 0.9580
0.2679 10.8263 -0.8297 0.9575
0.2017 10.8724 -0.8331 0.9573
0.0678 10.9658 -0.8401 0.9570
-0.1374 11.1088 -0.8511 0.9564
-0.2070 11.1573 -0.8549 0.9562
-0.3481 11.2557 -0.8627 0.9558
-0.4197 11.3055 -0.8667 0.9556
-0.4919 11.3559 -0.8708 0.9554
-0.7127 11.5097 -0.8835 0.9548
-0.8635 11.6149 -0.8923 0.9544
-1.1746 11.8317 -0.9109 0.9534
-1.3350 11.9435 -0.9207 0.9529
-1.7520 12.2341 -0.9468 0.9516
-1.8382 12.2942 -0.9523 0.9514
-2.1032 12.4788 -0.9695 0.9505
-2.1937 12.5419 -0.9754 0.9502
-2.2853 12.6057 -0.9815 0.9499
-2.3781 12.6704 -0.9876 0.9496
-2.4720 12.7358 -0.9939 0.9493
-2.5671 12.8021 -1.0003 0.9490
-2.9602 13.0761 -1.0271 0.9476
-3.0618 13.1469 -1.0342 0.9473
-3.1649 13.2187 -1.0413 0.9469
-3.2373 13.1613 -1.0384 0.9471
-3.3008 13.0704 -1.0328 0.9474
-3.4258 12.8913 -1.0219 0.9479
-3.5193 12.9211 -1.0260 0.9477
-3.8444 13.1476 -1.0494 0.9465
-3.9561 13.2254 -1.0576 0.9461
-4.0696 13.3045 -1.0659 0.9457
-4.1848 13.3848 -1.0744 0.9453
-4.3020 13.4664 -1.0830 0.9449
-4.8952 14.6940 -1.1866 0.9398
-5.2998 14.9759 -1.2171 0.9383
-5.4393 15.0731 -1.2277 0.9377
-5.5813 15.1721 -1.2385 0.9372
-5.7258 15.2727 -1.2496 0.9367
-5.8730 15.3753 -1.2609 0.9361
-6.0228 15.4797 -1.2725 0.9355
-6.1754 15.5860 -1.2844 0.9350
-6.4894 15.8048 -1.3089 0.9338
-6.6509 15.9173 -1.3216 0.9331
-6.8156 16.0321 -1.3346 0.9325
-6.9836 16.1492 -1.3479 0.9318
-7.1550 16.2686 -1.3616 0.9312
-7.3299 16.3904 -1.3755 0.9305
-6.3517 13.9706 -1.1757 0.9403
-6.4780 14.0176 -1.1830 0.9399
-6.6365 14.1305 -1.1960 0.9393
-8.2615 17.0395 -1.4508 0.9268
-8.4603 17.1780 -1.4670 0.9261
-6.5013 12.7986 -1.0998 0.9440
-9.3020 17.7644 -1.5362 0.9227
-5.0693 9.5371 -0.8274 0.9576
-9.9876 18.2422 -1.5933 0.9200
-10.2277 18.4094 -1.6134 0.9190
-10.4738 18.5809 -1.6341 0.9180
-10.7264 18.7569 -1.6554 0.9170
-10.9857 18.9375 -1.6773 0.9159
-11.2519 19.1230 -1.6998 0.9148
-9.6925 16.2420 -1.4490 0.9269
-7.7773 12.6738 -1.1392 0.9421
-10.4036 16.2687 -1.4794 0.9255
-10.4988 16.1960 -1.4787 0.9255
-10.8742 15.8991 -1.4757 0.9256
-10.9666 15.8234 -1.4749 0.9257
-10.7466 14.7148 -1.3960 0.9295
-10.8986 14.7307 -1.4038 0.9291
-20.4290 25.5708 -2.5074 0.8770
-13.5310 16.7235 -1.6481 0.9173
-13.7077 16.7292 -1.6569 0.9169
-21.0073 25.0006 -2.5017 0.8772
-14.7654 17.3532 -1.7456 0.9126
-21.7063 24.2678 -2.4944 0.8776
-21.9783 23.9686 -2.4914 0.8777
-22.6391 23.2062 -2.4837 0.8780
-23.0222 22.7392 -2.4791 0.8783
-23.2720 22.4242 -2.4759 0.8784
-23.3952 22.2654 -2.4743 0.8785
-23.6381 21.9459 -2.4711 0.8786
-13.5787 11.9951 -1.3881 0.9299
-13.6375 11.8977 -1.3865 0.9300
-13.7696 11.8638 -1.3925 0.9297
-13.8143 11.7543 -1.3896 0.9298
-14.4635 12.1533 -1.4473 0.9270
-15.7007 12.8649 -1.5551 0.9218
-20.5390 15.5926 -1.9756 0.9017
-24.7144 18.2850 -2.3553 0.8840
-25.7618 18.5714 -2.4330 0.8804
-25.8577 18.3986 -2.4313 0.8805
-25.9524 18.2253 -2.4295 0.8805
-26.2292 17.7023 -2.4243 0.8808
-26.3191 17.5270 -2.4225 0.8809
-28.2913 18.3395 -2.5830 0.8735
-28.4741 17.9617 -2.5792 0.8737
-28.5636 17.7721 -2.5773 0.8738
-28.6517 17.5822 -2.5754 0.8738
-28.8241 17.2008 -2.5716 0.8740
-28.9083 17.0095 -2.5696 0.8741
-29.2320 16.2404 -2.5619 0.8745
-29.4611 15.6596 -2.5561 0.8747
-29.5348 15.4653 -2.5541 0.8748
-29.6072 15.2706 -2.5522 0.8749
-29.6784 15.0757 -2.5502 0.8750
-29.8166 14.6848 -2.5463 0.8752
-29.9496 14.2928 -2.5424 0.8754
-30.0142 14.0964 -2.5404 0.8754
-30.1998 13.5056 -2.5345 0.8757
-30.2591 13.3081 -2.5325 0.8758
-30.3171 13.1104 -2.5305 0.8759
-30.4291 12.7145 -2.5265 0.8761
-30.5358 12.3177 -2.5226 0.8763
-30.5872 12.1191 -2.5206 0.8764
-30.6374 11.9203 -2.5186 0.8764
-30.6861 11.7213 -2.5166 0.8765
-30.7336 11.5221 -2.5146 0.8766
-30.8682 10.9238 -2.5086 0.8769
-30.9105 10.7241 -2.5066 0.8770
-30.9514 10.5244 -2.5046 0.8771
-30.9911 10.3245 -2.5026 0.8772
-31.0666 9.9245 -2.4986 0.8774
-31.1024 9.7243 -2.4965 0.8775
-31.1701 9.3239 -2.4925 0.8776
-31.2899 8.5225 -2.4845 0.8780
-31.3167 8.3221 -2.4825 0.8781
-31.3421 8.1217 -2.4805 0.8782
-31.3893 7.7209 -2.4765 0.8784
-31.4109 7.5205 -2.4744 0.8785
-31.4313 7.3202 -2.4724 0.8786
-31.4504 7.1199 -2.4704 0.8787
-31.4682 6.9196 -2.4684 0.8787
-31.4849 6.7194 -2.4664 0.8788
-31.5001 6.5193 -2.4644 0.8789
-31.5142 6.3192 -2.4624 0.8790
-31.5385 5.9193 -2.4584 0.8792
-31.5488 5.7195 -2.4564 0.8793
-31.5578 5.5198 -2.4544 0.8794
-31.5721 5.1207 -2.4504 0.8796
-31.5774 4.9213 -2.4484 0.8797
-31.5854 3.9267 -2.4384 0.8801
-31.5754 3.3319 -2.4325 0.8804
-31.5697 3.1340 -2.4305 0.8805
-31.5452 2.5415 -2.4246 0.8808
-31.5228 2.1477 -2.4206 0.8810
-31.5099 1.9511 -2.4186 0.8810
-31.4804 1.5587 -2.4147 0.8812
-31.4638 1.3629 -2.4127 0.8813
-31.4461 1.1673 -2.4108 0.8814
-31.4272 0.9721 -2.4088 0.8815
-31.4071 0.7770 -2.4069 0.8816
-31.3858 0.5823 -2.4049 0.8817
-31.3634 0.3879 -2.4030 0.8818
-28.5336 0.0000 -2.3992 0.8918
-28.4410 -0.7037 -2.3922 0.8921
-28.3607 -1.2285 -2.3869 0.8923
-28.3019 -1.5769 -2.3834 0.8925
-28.2710 -1.7506 -2.3817 0.8925
-28.1720 -2.2698 -2.3765 0.8927
-28.1369 -2.4422 -2.3748 0.8928
-28.1009 -2.6142 -2.3730 0.8929
-28.0639 -2.7860 -2.3713 0.8930
-27.9867 -3.1283 -2.3679 0.8931
-27.9057 -3.4692 -2.3645 0.8933
-27.8636 -3.6391 -2.3628 0.8933
-27.8206 -3.8086 -2.3611 0.8934
-27.7766 -3.9778 -2.3594 0.8935
-27.7316 -4.1465 -2.3577 0.8935
-27.6856 -4.3148 -2.3560 0.8936
-27.5908 -4.6503 -2.3527 0.8938
-27.4412 -5.1504 -2.3477 0.8940
-27.3368 -5.4816 -2.3443 0.8941
-27.2285 -5.8111 -2.3410 0.8943
-27.1166 -6.1388 -2.3378 0.8944
-27.0592 -6.3020 -2.3361 0.8945
-26.9416 -6.6270 -2.3329 0.8946
-26.8815 -6.7887 -2.3313 0.8947
-26.8204 -6.9500 -2.3297 0.8947
-26.7584 -7.1108 -2.3280 0.8948
-26.6317 -7.4310 -2.3248 0.8950
-26.4350 -7.9076 -2.3201 0.8952
-26.2994 -8.2227 -2.3169 0.8953
-26.0894 -8.6916 -2.3122 0.8955
-26.0177 -8.8468 -2.3107 0.8956
-25.9450 -9.0015 -2.3091 0.8956
-25.8716 -9.1557 -2.3076 0.8957
-25.7973 -9.3093 -2.3061 0.8958
-25.6462 -9.6149 -2.3030 0.8959
-25.5694 -9.7668 -2.3015 0.8959
-25.4917 -9.9183 -2.3000 0.8960
-25.3339 -10.2194 -2.2970 0.8961
-25.1728 -10.5182 -2.2940 0.8963
-25.0910 -10.6668 -2.2925 0.8963
-25.0084 -10.8147 -2.2910 0.8964
-24.9250 -10.9621 -2.2895 0.8965
-24.6689 -11.4003 -2.2850 0.8967
-24.3312 -11.6115 -2.2669 0.8974
-24.1643 -11.7159 -2.2581 0.8978
-23.9987 -11.8195 -2.2494 0.8982
-23.6712 -12.0243 -2.2324 0.8989
-23.5093 -12.1254 -2.2242 0.8993
-23.1889 -12.3257 -2.2081 0.9000
-23.0304 -12.4247 -2.2003 0.9003
-22.8730 -12.5230 -2.1926 0.9006
-22.7167 -12.6206 -2.1851 0.9009
-22.5614 -12.7176 -2.1777 0.9013
-22.4071 -12.8139 -2.1704 0.9016
-22.2527 -12.9089 -2.1631 0.9019
-21.9451 -13.0958 -2.1488 0.9025
-21.6414 -13.2803 -2.1350 0.9031
-21.4906 -13.3715 -2.1282 0.9034
-21.0602 -13.6520 -2.1103 0.9042
-20.9633 -13.7740 -2.1091 0.9042
-20.7675 -14.0162 -2.1067 0.9043
-20.5692 -14.2558 -2.1043 0.9044
-20.3683 -14.4928 -2.1019 0.9045
-20.2670 -14.6103 -2.1008 0.9046
-20.1650 -14.7272 -2.0996 0.9046
-19.9593 -14.9589 -2.0973 0.9047
-19.8556 -15.0738 -2.0961 0.9048
-19.5408 -15.4146 -2.0927 0.9049
-19.3280 -15.6383 -2.0905 0.9050
-19.2207 -15.7493 -2.0894 0.9051
-18.8955 -16.0778 -2.0861 0.9052
-18.7861 -16.1860 -2.0850 0.9053
-18.5654 -16.4003 -2.0829 0.9053
-18.4542 -16.5064 -2.0819 0.9054
-18.3425 -16.6118 -2.0808 0.9054
-18.2303 -16.7165 -2.0798 0.9055
-17.7761 -17.1285 -2.0756 0.9057
-17.6612 -17.2297 -2.0746 0.9057
-17.4299 -17.4300 -2.0726 0.9058
-17.3136 -17.5291 -2.0717 0.9058
-17.1967 -17.6275 -2.0707 0.9059
-17.0793 -17.7251 -2.0697 0.9059
-16.9614 -17.8221 -2.0687 0.9060
-16.7242 -18.0139 -2.0668 0.9060
-16.6049 -18.1087 -2.0659 0.9061
-16.3649 -18.2961 -2.0640 0.9062
-15.8792 -18.6622 -2.0604 0.9063
-15.7567 -18.7519 -2.0595 0.9064
-15.3864 -19.0166 -2.0568 0.9065
-15.1373 -19.1894 -2.0551 0.9065
-14.5073 -19.6084 -2.0509 0.9067
-14.3801 -19.6899 -2.0501 0.9068
-14.2525 -19.7707 -2.0493 0.9068
-14.1244 -19.8508 -2.0485 0.9068
-13.9960 -19.9301 -2.0477 0.9069
-13.7380 -20.0863 -2.0462 0.9069
-13.4785 -20.2397 -2.0447 0.9070
-13.3481 -20.3152 -2.0439 0.9070
-13.2174 -20.3899 -2.0432 0.9071
-13.0864 -20.4639 -2.0424 0.9071
-12.5586 -20.7521 -2.0396 0.9072
-12.2926 -20.8917 -2.0382 0.9073
-12.1591 -20.9603 -2.0375 0.9073
-12.0252 -21.0281 -2.0368 0.9073
-11.6218 -21.2270 -2.0348 0.9074
-11.3512 -21.3557 -2.0336 0.9075
-10.9431 -21.5429 -2.0317 0.9076
-10.6695 -21.6638 -2.0305 0.9076
-10.3947 -21.7816 -2.0293 0.9077
-10.2569 -21.8393 -2.0288 0.9077
-10.1189 -21.8962 -2.0282 0.9077
-9.9805 -21.9524 -2.0277 0.9077
-9.7031 -22.0622 -2.0266 0.9078
-9.5639 -22.1160 -2.0260 0.9078
-9.4245 -22.1690 -2.0255 0.9078
-9.1450 -22.2726 -2.0245 0.9079
-9.0048 -22.3232 -2.0240 0.9079
-8.8645 -22.3730 -2.0235 0.9079
-8.5830 -22.4702 -2.0225 0.9080
-8.3006 -22.5644 -2.0216 0.9080
-7.3082 -20.6513 -1.8420 0.9158
-7.0301 -20.6751 -1.8362 0.9161
-7.3054 -22.8683 -2.0186 0.9081
-7.1625 -22.9086 -2.0182 0.9081
-7.0193 -22.9480 -2.0178 0.9082
-6.8760 -22.9867 -2.0174 0.9082
-6.7324 -23.0245 -2.0171 0.9082
-6.5887 -23.0615 -2.0167 0.9082
-6.4448 -23.0977 -2.0163 0.9082
-6.0122 -23.2015 -2.0153 0.9083
-5.8676 -23.2345 -2.0150 0.9083
-5.5781 -23.2981 -2.0144 0.9083
-5.4331 -23.3287 -2.0141 0.9083
-4.2683 -23.5442 -2.0120 0.9084
-3.8295 -23.6116 -2.0113 0.9084
-3.6831 -23.6324 -2.0111 0.9085
-3.3899 -23.6717 -2.0107 0.9085
-3.2431 -23.6901 -2.0105 0.9085
-2.6553 -23.7557 -2.0099 0.9085
-2.5082 -23.7700 -2.0098 0.9085
-2.0664 -23.8081 -2.0094 0.9085
-1.7716 -23.8295 -2.0092 0.9085
-1.4766 -23.8476 -2.0090 0.9085
-1.0339 -23.8686 -2.0088 0.9086
-0.7385 -23.8785 -2.0088 0.9086
-0.4431 -23.8852 -2.0087 0.9086
-0.2954 -23.8873 -2.0087 0.9086
0.1478 -23.8887 -2.0087 0.9086
0.2955 -23.8875 -2.0087 0.9086
0.4432 -23.8856 -2.0087 0.9086
0.7387 -23.8792 -2.0088 0.9086
0.8863 -23.8748 -2.0089 0.9086
1.1816 -23.8635 -2.0090 0.9085
1.3292 -23.8566 -2.0091 0.9085
1.4768 -23.8489 -2.0092 0.9085
1.7718 -23.8311 -2.0093 0.9085
1.9192 -23.8210 -2.0094 0.9085
2.0667 -23.8100 -2.0096 0.9085
2.2140 -23.7983 -2.0097 0.9085
2.8028 -23.7431 -2.0103 0.9085
2.9498 -23.7272 -2.0104 0.9085
3.2436 -23.6931 -2.0108 0.9085
3.3904 -23.6748 -2.0110 0.9085
3.5371 -23.6557 -2.0112 0.9085
3.6836 -23.6358 -2.0114 0.9084
3.8302 -23.6151 -2.0116 0.9084
3.9766 -23.5936 -2.0118 0.9084
4.2691 -23.5481 -2.0123 0.9084
4.4152 -23.5241 -2.0125 0.9084
5.1438 -23.3921 -2.0139 0.9083
5.2891 -23.3633 -2.0142 0.9083
5.5794 -23.3032 -2.0148 0.9083
5.8691 -23.2399 -2.0154 0.9083
6.0137 -23.2070 -2.0158 0.9083
6.1581 -23.1733 -2.0161 0.9082
6.7343 -23.0305 -2.0176 0.9082
7.1646 -22.9150 -2.0188 0.9081
7.4504 -22.8339 -2.0196 0.9081
7.7589 -21.5012 -1.9220 0.9123
7.8575 -21.3597 -1.9137 0.9127
8.1326 -21.2910 -1.9164 0.9126
8.2297 -21.1518 -1.9084 0.9129
8.5249 -20.4023 -1.8592 0.9151
8.7088 -20.1385 -1.8449 0.9157
8.8913 -20.2164 -1.8570 0.9152
8.8450 -19.7784 -1.8218 0.9167
8.6550 -18.7283 -1.7348 0.9205
9.0783 -19.0229 -1.7723 0.9189
9.1889 -18.9524 -1.7710 0.9189
9.4078 -19.1020 -1.7904 0.9181
9.6608 -19.3133 -1.8158 0.9170
10.6059 -20.5631 -1.9455 0.9113
11.1214 -20.9231 -1.9924 0.9093
11.3885 -21.1097 -2.0168 0.9082
11.6271 -21.2366 -2.0358 0.9074
11.8966 -21.1049 -2.0371 0.9073
12.1649 -20.9702 -2.0385 0.9073
12.2985 -20.9017 -2.0392 0.9072
12.5648 -20.7623 -2.0406 0.9072
12.8296 -20.6199 -2.0420 0.9071
13.3551 -20.3257 -2.0450 0.9070
13.4856 -20.2503 -2.0457 0.9070
13.6157 -20.1741 -2.0465 0.9069
14.0037 -19.9409 -2.0489 0.9068
14.3882 -19.7010 -2.0513 0.9067
14.5156 -19.6195 -2.0521 0.9067
14.6426 -19.5372 -2.0529 0.9066
14.7691 -19.4542 -2.0538 0.9066
14.2716 -18.5594 -1.9686 0.9103
14.2957 -18.3548 -1.9562 0.9108
14.4380 -18.3028 -1.9602 0.9107
14.5808 -18.2506 -1.9642 0.9105
14.7242 -18.1981 -1.9683 0.9103
14.8943 -18.1773 -1.9760 0.9100
16.0114 -18.5834 -2.0625 0.9062
16.1332 -18.4922 -2.0635 0.9062
16.2545 -18.4003 -2.0644 0.9061
16.7352 -18.0256 -2.0682 0.9060
16.8542 -17.9301 -2.0691 0.9059
17.2082 -17.6392 -2.0721 0.9058
17.4418 -17.4418 -2.0740 0.9057
17.5578 -17.3420 -2.0751 0.9057
17.6734 -17.2415 -2.0761 0.9056
17.7884 -17.1403 -2.0771 0.9056
17.9029 -17.0384 -2.0781 0.9056
18.0169 -16.9358 -2.0791 0.9055
18.3557 -16.6237 -2.0823 0.9054
18.4675 -16.5183 -2.0833 0.9053
18.5788 -16.4121 -2.0844 0.9053
18.6896 -16.3054 -2.0855 0.9052
18.7998 -16.1978 -2.0866 0.9052
19.5557 -15.4263 -2.0943 0.9049
19.6614 -15.3134 -2.0955 0.9048
19.8710 -15.0855 -2.0978 0.9047
19.9749 -14.9705 -2.0989 0.9047
20.0782 -14.8550 -2.1001 0.9046
20.1809 -14.7387 -2.1013 0.9046
20.2831 -14.6218 -2.1024 0.9045
20.3846 -14.5042 -2.1036 0.9045
20.4854 -14.3860 -2.1048 0.9044
20.7843 -14.0275 -2.1084 0.9042
20.9805 -13.7853 -2.1108 0.9041
21.1740 -13.5405 -2.1133 0.9040
21.3650 -13.2932 -2.1158 0.9039
21.4594 -13.1687 -2.1170 0.9039
21.6464 -12.9176 -2.1196 0.9038
21.7389 -12.7911 -2.1208 0.9037
21.9219 -12.5364 -2.1234 0.9036
22.0124 -12.4081 -2.1247 0.9035
22.1022 -12.2792 -2.1260 0.9035
22.2796 -12.0197 -2.1286 0.9034
22.4543 -11.7577 -2.1312 0.9033
22.6262 -11.4934 -2.1339 0.9031
22.9492 -11.1268 -2.1445 0.9027
23.0871 -11.0178 -2.1510 0.9024
23.2279 -10.9092 -2.1578 0.9021
23.8050 -10.4696 -2.1867 0.9009
24.2381 -10.1277 -2.2088 0.8999
24.8160 -9.6553 -2.2390 0.8986
25.1081 -9.4131 -2.2547 0.8980
25.3963 -9.1645 -2.2702 0.8973
25.9781 -8.6545 -2.3024 0.8959
26.1217 -8.5232 -2.3104 0.8956
26.2554 -8.3875 -2.3176 0.8953
26.3247 -8.2306 -2.3191 0.8952
26.4605 -7.9152 -2.3223 0.8951
26.5271 -7.7567 -2.3239 0.8950
26.5928 -7.5977 -2.3255 0.8949
26.6576 -7.4382 -2.3271 0.8949
26.7216 -7.2783 -2.3287 0.8948
26.7846 -7.1178 -2.3303 0.8947
26.8467 -6.9568 -2.3319 0.8946
26.9078 -6.7954 -2.3336 0.8946
27.0275 -6.4711 -2.3368 0.8944
27.3104 -5.6522 -2.3450 0.8941
27.3641 -5.4871 -2.3467 0.8940
27.4169 -5.3215 -2.3483 0.8939
27.4688 -5.1555 -2.3500 0.8939
27.5196 -4.9891 -2.3517 0.8938
27.6186 -4.6550 -2.3550 0.8937
27.7136 -4.3192 -2.3584 0.8935
27.7597 -4.1507 -2.3601 0.8934
27.9342 -3.4728 -2.3669 0.8932
28.0545 -2.9604 -2.3720 0.8929
28.0927 -2.7888 -2.3737 0.8929
28.2010 -2.2721 -2.3789 0.8926
28.2351 -2.0992 -2.3807 0.8926
28.2681 -1.9260 -2.3824 0.8925
28.3001 -1.7524 -2.3841 0.8924
28.3312 -1.5785 -2.3859 0.8923
28.3611 -1.4043 -2.3876 0.8923
28.3901 -1.2298 -2.3894 0.8922
28.4448 -0.8798 -2.3929 0.8920
28.4707 -0.7044 -2.3947 0.8920
28.4954 -0.5287 -2.3964 0.8919
28.5191 -0.3528 -2.3982 0.8918
28.5633 0.0000 -2.4017 0.8917
28.6553 0.8863 -2.4106 0.8913
28.6976 1.4209 -2.4160 0.8911
28.7301 1.9574 -2.4213 0.8908
28.7527 2.4956 -2.4267 0.8906
28.7655 3.0353 -2.4321 0.8904
28.7675 3.2156 -2.4339 0.8903
28.7669 3.7571 -2.4394 0.8901
28.7434 4.6619 -2.4484 0.8897
28.7042 5.3873 -2.4557 0.8894
28.6778 5.7505 -2.4593 0.8892
28.6629 5.9321 -2.4612 0.8891
28.6296 6.2954 -2.4648 0.8890
28.6112 6.4771 -2.4666 0.8889
28.5917 6.6589 -2.4684 0.8888
28.5710 6.8406 -2.4703 0.8888
28.5492 7.0223 -2.4721 0.8887
28.5262 7.2040 -2.4739 0.8886
28.4226 7.9307 -2.4812 0.8883
28.3938 8.1122 -2.4830 0.8882
28.3638 8.2937 -2.4848 0.8881
28.3328 8.4752 -2.4866 0.8881
28.3005 8.6565 -2.4884 0.8880
28.2670 8.8379 -2.4903 0.8879
28.2323 9.0190 -2.4921 0.8878
28.1595 9.3812 -2.4957 0.8877
28.1214 9.5621 -2.4975 0.8876
28.0820 9.7428 -2.4993 0.8875
28.0411 9.9229 -2.5011 0.8875
27.9998 10.1040 -2.5029 0.8874
27.9129 10.4646 -2.5065 0.8872
27.8677 10.6447 -2.5083 0.8871
27.8213 10.8246 -2.5101 0.8871
27.7737 11.0043 -2.5119 0.8870
27.6750 11.3632 -2.5155 0.8868
27.4634 12.0785 -2.5227 0.8865
27.3505 12.4348 -2.5263 0.8864
27.2328 12.7901 -2.5298 0.8862
27.1723 12.9674 -2.5316 0.8862
26.9181 13.6735 -2.5387 0.8859
26.8517 13.8494 -2.5404 0.8858
26.7840 14.0248 -2.5422 0.8857
26.7152 14.2000 -2.5439 0.8856
26.6451 14.3748 -2.5457 0.8856
26.5739 14.5493 -2.5474 0.8855
26.3533 15.0705 -2.5526 0.8853
25.9621 15.9316 -2.5612 0.8849
25.8803 16.1026 -2.5629 0.8848
25.6280 16.6130 -2.5681 0.8846
15.7593 10.7785 -1.6054 0.9262
15.4452 10.9897 -1.5939 0.9267
15.2382 11.1289 -1.5866 0.9271
15.1354 11.1980 -1.5831 0.9272
15.0330 11.2668 -1.5796 0.9274
14.8297 11.4035 -1.5730 0.9277
14.6280 11.5391 -1.5666 0.9279
14.5277 11.6065 -1.5635 0.9281
14.3284 11.7405 -1.5576 0.9283
14.2293 11.8071 -1.5547 0.9285
14.1305 11.8735 -1.5519 0.9286
13.8363 12.0712 -1.5439 0.9289
13.5451 12.2670 -1.5366 0.9293
13.2726 12.4762 -1.5317 0.9295
14.7394 14.5582 -1.7420 0.9202
15.1114 15.1114 -1.7969 0.9178
15.3054 15.4959 -1.8314 0.9163
17.8748 18.7818 -2.1801 0.9012
17.7395 18.8720 -2.1778 0.9013
17.8399 19.2155 -2.2047 0.9001
21.0286 23.2195 -2.6340 0.8818
19.5844 21.8954 -2.4701 0.8888
19.3176 22.1424 -2.4708 0.8887
19.1905 22.2731 -2.4721 0.8887
19.0624 22.4032 -2.4734 0.8886
18.9333 22.5323 -2.4747 0.8886
12.9776 16.0395 -1.7348 0.9205
12.8852 16.1283 -1.7358 0.9205
12.7804 16.2015 -1.7351 0.9205
12.5708 16.3477 -1.7340 0.9206
17.4646 23.9133 -2.4899 0.8879
17.1831 24.1495 -2.4922 0.8878
17.0412 24.2662 -2.4933 0.8878
16.4647 24.7239 -2.4977 0.8876
12.7189 19.6207 -1.9661 0.9104
12.5998 19.7029 -1.9665 0.9104
12.3620 19.8683 -1.9676 0.9103
12.2430 19.9511 -1.9682 0.9103
12.1240 20.0339 -1.9690 0.9103
8.0910 13.9475 -1.3558 0.9373
7.2397 12.6598 -1.2263 0.9431
6.8521 12.5152 -1.1997 0.9443
6.1160 11.3366 -1.0831 0.9496
5.8593 11.3603 -1.0748 0.9500
5.7456 11.4862 -1.0799 0.9498
5.5473 11.6241 -1.0830 0.9496
4.5208 9.6258 -0.8942 0.9582
4.3816 9.4812 -0.8782 0.9589
4.2472 9.3417 -0.8629 0.9596
4.0020 9.2543 -0.8478 0.9603
3.9143 9.2076 -0.8413 0.9606
3.7245 9.0710 -0.8245 0.9614
3.6541 9.0584 -0.8213 0.9616
3.5148 9.0337 -0.8151 0.9618
3.3102 8.9985 -0.8062 0.9622
2.6468 7.4793 -0.6671 0.9687
2.5949 7.4793 -0.6657 0.9687
2.5076 7.5271 -0.6671 0.9687
2.8931 9.0564 -0.7994 0.9626
2.7421 9.1670 -0.8045 0.9623
2.5798 9.2458 -0.8071 0.9622
2.4710 9.2986 -0.8090 0.9621
2.4170 9.3274 -0.8102 0.9621
2.3647 9.3638 -0.8121 0.9620
2.3123 9.4004 -0.8140 0.9619
2.2595 9.4372 -0.8159 0.9618
2.2065 9.4741 -0.8179 0.9617
2.1532 9.5113 -0.8200 0.9616
2.0997 9.5486 -0.8221 0.9615
2.0458 9.5861 -0.8242 0.9614
1.9918 9.6238 -0.8264 0.9613
1.9374 9.6618 -0.8286 0.9612
1.7724 9.7767 -0.8355 0.9609
1.7168 9.8155 -0.8379 0.9608
1.6609 9.8545 -0.8403 0.9607
1.6047 9.8937 -0.8428 0.9606
1.5481 9.9331 -0.8453 0.9604
1.4911 9.9728 -0.8479 0.9603
1.4339 10.0128 -0.8505 0.9602
1.3762 10.0529 -0.8532 0.9601
1.2599 10.1341 -0.8587 0.9598
1.2011 10.1750 -0.8615 0.9597
1.1420 10.2162 -0.8644 0.9596
1.0225 10.2995 -0.8703 0.9593
0.9621 10.3416 -0.8733 0.9592
0.7784 10.4697 -0.8828 0.9587
0.6537 10.5566 -0.8893 0.9584
0.2678 10.8255 -0.9105 0.9575
0.2017 10.8716 -0.9143 0.9573
0.0678 10.9649 -0.9220 0.9569
-0.0000 11.0122 -0.9259 0.9568
-0.0684 11.0599 -0.9300 0.9566
-0.1374 11.1079 -0.9341 0.9564
-0.2070 11.1565 -0.9382 0.9562
-0.2772 11.2054 -0.9425 0.9560
-0.3481 11.2548 -0.9468 0.9558
-0.4918 11.3550 -0.9557 0.9554
-0.5648 11.4058 -0.9602 0.9552
-0.7126 11.5088 -0.9696 0.9548
-0.7877 11.5611 -0.9744 0.9545
-0.8635 11.6140 -0.9792 0.9543
-0.9400 11.6673 -0.9842 0.9541
-1.1745 11.8307 -0.9997 0.9534
-1.2543 11.8863 -1.0050 0.9532
-1.3349 11.9425 -1.0104 0.9529
-1.5822 12.1149 -1.0273 0.9521
-1.7518 12.2330 -1.0391 0.9516
-1.9254 12.3539 -1.0513 0.9510
-2.0137 12.4155 -1.0576 0.9508
-2.1030 12.4778 -1.0640 0.9505
-2.1935 12.5408 -1.0705 0.9502
-2.3779 12.6693 -1.0839 0.9496
-2.4717 12.7347 -1.0908 0.9493
-2.5669 12.8010 -1.0978 0.9489
-2.7608 12.9361 -1.1122 0.9483
-2.8597 13.0050 -1.1196 0.9480
-2.9600 13.0749 -1.1272 0.9476
-3.2371 13.1606 -1.1396 0.9471
-3.3006 13.0696 -1.1334 0.9473
-3.3634 12.9797 -1.1274 0.9476
-3.4256 12.8906 -1.1215 0.9479
-3.5190 12.9198 -1.1259 0.9477
-3.6257 12.9941 -1.1343 0.9473
-4.1844 13.3834 -1.1790 0.9453
-4.3015 13.4650 -1.1886 0.9448
-4.7643 14.6017 -1.2915 0.9402
-4.8947 14.6925 -1.3022 0.9397
-5.0273 14.7849 -1.3131 0.9392
-5.1621 14.8788 -1.3242 0.9387
-5.2992 14.9743 -1.3356 0.9382
-5.7252 15.2711 -1.3713 0.9366
-5.8723 15.3736 -1.3838 0.9361
-6.0221 15.4780 -1.3965 0.9355
-5.3320 13.2180 -1.1984 0.9444
-5.4634 13.3062 -1.2095 0.9439
-6.9828 16.1473 -1.4792 0.9318
-6.6276 14.1116 -1.3109 0.9393
-8.2605 17.0374 -1.5921 0.9268
-6.5009 12.7978 -1.2069 0.9440
-9.0830 17.6104 -1.6661 0.9235
-9.3007 17.7621 -1.6859 0.9227
-5.0690 9.5365 -0.9081 0.9576
-5.1453 9.5374 -0.9112 0.9574
-6.3491 11.5964 -1.1117 0.9483
-6.5462 11.6132 -1.1209 0.9479
-10.7249 18.7542 -1.8166 0.9169
-7.7409 12.6145 -1.2445 0.9423
-12.3909 19.9148 -1.9722 0.9101
-10.7494 16.8094 -1.6777 0.9230
-10.6163 16.3773 -1.6411 0.9246
-11.2821 17.1707 -1.7276 0.9208
-13.2066 19.8313 -2.0034 0.9088
-10.4642 15.5045 -1.5728 0.9277
-11.5358 16.8664 -1.7182 0.9212
-11.4225 16.2655 -1.6712 0.9233
-12.9582 18.2117 -1.8794 0.9142
-10.7789 14.7590 -1.5367 0.9293
-11.0631 14.7613 -1.5511 0.9286
-12.1466 15.9998 -1.6891 0.9225
-12.0484 15.4694 -1.6487 0.9243
-13.8510 17.3372 -1.8659 0.9148
-13.9800 16.8479 -1.8408 0.9159
-14.6522 17.4375 -1.9151 0.9126
-14.7621 17.3493 -1.9154 0.9126
-19.3337 22.1608 -2.4728 0.8887
-19.5853 21.8965 -2.4702 0.8888
-19.7097 21.7632 -2.4688 0.8888
-20.1975 21.2223 -2.4634 0.8890
-17.6453 18.3126 -2.1383 0.9030
-20.4355 20.9474 -2.4607 0.8892
-20.8997 20.3890 -2.4551 0.8894
-12.0029 11.0062 -1.3693 0.9367
-12.7419 11.1164 -1.4218 0.9344
-13.8225 11.6147 -1.5181 0.9301
-14.2076 11.7891 -1.5523 0.9286
-13.8447 11.3441 -1.5050 0.9307
-16.4910 13.0087 -1.7661 0.9191
-17.3933 13.5468 -1.8537 0.9153
-19.4935 14.9899 -2.0677 0.9060
-19.9341 15.1334 -2.1044 0.9044
-22.7774 17.0709 -2.3934 0.8920
-23.1221 17.1070 -2.4185 0.8910
-23.2126 16.9528 -2.4169 0.8910
-23.3903 16.6429 -2.4138 0.8912
-23.5637 16.3312 -2.4107 0.8913
-25.6040 16.5975 -2.5657 0.8847
-25.6891 16.4279 -2.5640 0.8848
-25.7731 16.2579 -2.5622 0.8849
-25.9374 15.9165 -2.5588 0.8850
-26.1752 15.4014 -2.5536 0.8852
-26.2522 15.2289 -2.5519 0.8853
-26.4025 14.8828 -2.5484 0.8854
-26.4759 14.7091 -2.5467 0.8855
-26.5482 14.5352 -2.5449 0.8856
-26.6192 14.3608 -2.5432 0.8857
-26.6891 14.1862 -2.5414 0.8857
-26.9569 13.4842 -2.5344 0.8860
-27.0209 13.3079 -2.5326 0.8861
-27.0837 13.1313 -2.5309 0.8862
-27.1454 12.9545 -2.5291 0.8863
-27.2058 12.7774 -2.5273 0.8863
-27.2651 12.6000 -2.5255 0.8864
-27.3231 12.4225 -2.5237 0.8865
-27.3801 12.2446 -2.5220 0.8866
-27.4359 12.0664 -2.5202 0.8866
-27.6471 11.3517 -2.5130 0.8869
-27.7456 10.9932 -2.5094 0.8871
-27.9284 10.2739 -2.5022 0.8874
-27.9713 10.0937 -2.5004 0.8875
-28.0128 9.9133 -2.4986 0.8876
-28.0533 9.7329 -2.4968 0.8876
-28.0925 9.5523 -2.4950 0.8877
-28.1307 9.3715 -2.4931 0.8878
-28.1675 9.1907 -2.4913 0.8879
-28.2032 9.0097 -2.4895 0.8879
-28.2379 8.8287 -2.4877 0.8880
-28.2712 8.6476 -2.4859 0.8881
-28.3345 8.2851 -2.4822 0.8883
-28.3932 7.9225 -2.4786 0.8884
-28.4208 7.7410 -2.4768 0.8885
-28.4472 7.5596 -2.4750 0.8886
-28.4725 7.3781 -2.4731 0.8886
-28.5195 7.0150 -2.4695 0.8888
-28.5413 6.8335 -2.4677 0.8889
-28.5619 6.6519 -2.4659 0.8889
-28.6615 5.5631 -2.4550 0.8894
-28.6856 5.2004 -2.4513 0.8896
-28.7052 4.8381 -2.4477 0.8897
-28.7132 4.6571 -2.4459 0.8898
-28.7202 4.4760 -2.4441 0.8899
-28.7342 3.9337 -2.4386 0.8901
-28.7367 3.7531 -2.4368 0.8902
-28.7373 3.2122 -2.4314 0.8904
-28.7279 2.6725 -2.4260 0.8906
-28.7161 2.3136 -2.4224 0.8908
-28.7086 2.1344 -2.4206 0.8909
-28.7000 1.9554 -2.4188 0.8909
-28.6903 1.7765 -2.4170 0.8910
-28.6794 1.5979 -2.4152 0.8911
-28.6675 1.4194 -2.4134 0.8912
-28.6546 1.2412 -2.4116 0.8912
-28.6405 1.0632 -2.4099 0.8913
-28.6254 0.8854 -2.4081 0.8914
-28.6091 0.7078 -2.4063 0.8915
-28.5735 0.3534 -2.4028 0.8916
-26.2032 -0.0000 -2.3993 0.9001
-26.1456 -0.4852 -2.3945 0.9003
-26.1245 -0.6464 -2.3928 0.9004
-26.1024 -0.8074 -2.3912 0.9004
-26.0793 -0.9681 -2.3896 0.9005
-26.0553 -1.1287 -2.3880 0.9005
-26.0044 -1.4489 -2.3848 0.9007
-25.9775 -1.6086 -2.3832 0.9007
-25.9497 -1.7680 -2.3816 0.9008
-25.9209 -1.9272 -2.3800 0.9009
-25.8605 -2.2446 -2.3768 0.9010
-25.8289 -2.4029 -2.3753 0.9010
-25.7629 -2.7186 -2.3721 0.9012
-25.6197 -3.3461 -2.3658 0.9014
-25.5817 -3.5021 -2.3643 0.9015
-25.5028 -3.8132 -2.3611 0.9016
-25.4620 -3.9682 -2.3596 0.9017
-25.3776 -4.2772 -2.3565 0.9018
-25.3341 -4.4312 -2.3550 0.9019
-25.2897 -4.5848 -2.3534 0.9019
-25.2444 -4.7380 -2.3519 0.9020
-25.1982 -4.8909 -2.3504 0.9020
-25.1511 -5.0433 -2.3488 0.9021
-25.0544 -5.3471 -2.3458 0.9022
-25.0047 -5.4984 -2.3443 0.9023
-24.9027 -5.7997 -2.3413 0.9024
-24.8504 -5.9498 -2.3398 0.9025
-24.6327 -6.5459 -2.3338 0.9027
-24.4014 -7.1352 -2.3279 0.9029
-24.3416 -7.2813 -2.3264 0.9030
-24.2809 -7.4271 -2.3250 0.9030
-24.2193 -7.5724 -2.3235 0.9031
-23.9650 -8.1488 -2.3178 0.9033
-23.8994 -8.2918 -2.3163 0.9034
-23.8330 -8.4342 -2.3149 0.9034
-23.7658 -8.5762 -2.3135 0.9035
-23.4180 -9.2786 -2.3065 0.9038
-23.2000 -9.6939 -2.3023 0.9039
-23.0508 -9.9683 -2.2996 0.9040
-22.6648 -10.6447 -2.2928 0.9043
-22.3427 -11.1761 -2.2875 0.9045
-22.2604 -11.3076 -2.2862 0.9046
-21.9239 -11.8278 -2.2810 0.9048
-21.8380 -11.9564 -2.2797 0.9048
-21.7514 -12.0844 -2.2784 0.9049
-21.5762 -12.3388 -2.2759 0.9050
-21.3983 -12.5907 -2.2734 0.9051
-21.3083 -12.7158 -2.2721 0.9051
-21.2177 -12.8403 -2.2709 0.9052
-21.1263 -12.9642 -2.2696 0.9052
-21.0343 -13.0876 -2.2684 0.9053
-20.8483 -13.3323 -2.2660 0.9054
-20.5645 -13.6948 -2.2623 0.9055
-20.4686 -13.8145 -2.2611 0.9056
-20.3721 -13.9335 -2.2600 0.9056
-20.2508 -14.0351 -2.2561 0.9058
-20.1014 -14.1164 -2.2491 0.9060
-19.8053 -14.2774 -2.2356 0.9066
-19.5061 -14.4317 -2.2218 0.9071
-19.0632 -14.6590 -2.2019 0.9079
-18.6214 -14.8771 -2.1824 0.9087
-18.1837 -15.0884 -2.1636 0.9095
-18.0394 -15.1580 -2.1575 0.9097
-17.6022 -15.3566 -2.1389 0.9104
-17.0278 -15.6138 -2.1154 0.9114
-16.6015 -15.7999 -2.0985 0.9121
-16.3243 -15.9254 -2.0882 0.9125
-16.1084 -16.1085 -2.0859 0.9126
-16.0015 -16.2007 -2.0850 0.9126
-15.7861 -16.3830 -2.0832 0.9127
-15.6777 -16.4732 -2.0823 0.9127
-15.5689 -16.5628 -2.0814 0.9127
-15.4595 -16.6516 -2.0805 0.9128
-15.2396 -16.8274 -2.0788 0.9128
-15.1289 -16.9143 -2.0779 0.9129
-14.9063 -17.0860 -2.0762 0.9129
-14.7943 -17.1709 -2.0754 0.9130
-14.4558 -17.4214 -2.0729 0.9131
-14.3421 -17.5036 -2.0720 0.9131
-14.2280 -17.5851 -2.0712 0.9131
-13.9986 -17.7459 -2.0696 0.9132
-13.8833 -17.8254 -2.0688 0.9132
-13.6514 -17.9821 -2.0673 0.9133
-13.4180 -18.1361 -2.0657 0.9134
-13.3008 -18.2120 -2.0650 0.9134
-13.0651 -18.3619 -2.0635 0.9135
-12.7087 -18.5815 -2.0613 0.9135
-12.3491 -18.7947 -2.0592 0.9136
-12.1075 -18.9333 -2.0578 0.9137
-11.8647 -19.0691 -2.0565 0.9137
-11.6204 -19.2020 -2.0551 0.9138
-11.4978 -19.2674 -2.0545 0.9138
-11.1281 -19.4594 -2.0526 0.9139
-11.0042 -19.5219 -2.0520 0.9139
-10.8800 -19.5837 -2.0513 0.9139
-10.7555 -19.6448 -2.0507 0.9140
-10.6307 -19.7052 -2.0501 0.9140
-10.5056 -19.7648 -2.0496 0.9140
-10.3802 -19.8237 -2.0490 0.9140
-10.2545 -19.8819 -2.0484 0.9141
-9.4945 -20.2159 -2.0451 0.9142
-9.1109 -20.3731 -2.0435 0.9143
-8.8539 -20.4741 -2.0425 0.9143
-8.4665 -20.6203 -2.0411 0.9144
-8.2071 -20.7140 -2.0401 0.9144
-8.0771 -20.7597 -2.0397 0.9144
-7.9468 -20.8047 -2.0392 0.9144
-7.8163 -20.8490 -2.0388 0.9144
-7.6856 -20.8925 -2.0384 0.9145
-7.4485 -20.6410 -2.0093 0.9156
-7.3088 -20.6529 -2.0060 0.9158
-7.1695 -20.6648 -2.0028 0.9159
-7.0306 -20.6767 -1.9997 0.9160
-6.8939 -20.6935 -1.9972 0.9161
-6.8512 -20.9975 -2.0224 0.9151
-6.7649 -21.1764 -2.0356 0.9146
-6.6327 -21.2139 -2.0352 0.9146
-6.5002 -21.2508 -2.0348 0.9146
-6.2347 -21.3222 -2.0341 0.9146
-5.8352 -21.4236 -2.0331 0.9147
-5.7017 -21.4560 -2.0328 0.9147
-5.5680 -21.4875 -2.0325 0.9147
-5.4342 -21.5183 -2.0322 0.9147
-5.3003 -21.5484 -2.0319 0.9147
-5.0320 -21.6062 -2.0313 0.9147
-4.4937 -21.7129 -2.0303 0.9148
-3.9535 -21.8075 -2.0294 0.9148
-3.8181 -21.8293 -2.0292 0.9148
-3.2758 -21.9087 -2.0284 0.9149
-2.8681 -21.9603 -2.0279 0.9149
-2.7320 -21.9760 -2.0277 0.9149
-2.0506 -22.0429 -2.0271 0.9149
-1.9142 -22.0540 -2.0270 0.9149
-1.7776 -22.0644 -2.0269 0.9149
-1.6411 -22.0740 -2.0268 0.9149
-1.3679 -22.0909 -2.0266 0.9149
-1.2312 -22.0982 -2.0266 0.9149
-0.6842 -22.1197 -2.0264 0.9149
-0.2737 -22.1280 -2.0263 0.9149
0.0001 -22.1296 -2.0263 0.9149
0.1369 -22.1293 -2.0263 0.9149
0.4106 -22.1263 -2.0264 0.9149
0.5474 -22.1237 -2.0264 0.9149
0.8210 -22.1162 -2.0265 0.9149
0.9578 -22.1113 -2.0265 0.9149
1.3680 -22.0921 -2.0267 0.9149
1.5047 -22.0841 -2.0268 0.9149
1.7778 -22.0660 -2.0270 0.9149
1.9144 -22.0557 -2.0271 0.9149
2.0508 -22.0447 -2.0273 0.9149
2.1873 -22.0329 -2.0274 0.9149
2.8684 -21.9627 -2.0281 0.9149
3.1404 -21.9293 -2.0285 0.9149
3.2763 -21.9115 -2.0286 0.9149
3.4120 -21.8928 -2.0288 0.9148
3.5477 -21.8735 -2.0290 0.9148
3.6832 -21.8534 -2.0292 0.9148
3.9541 -21.8109 -2.0297 0.9148
4.8986 -21.6382 -2.0315 0.9147
5.3014 -21.5528 -2.0323 0.9147
5.4354 -21.5229 -2.0326 0.9147
5.5693 -21.4921 -2.0329 0.9147
5.7030 -21.4607 -2.0333 0.9147
6.1032 -21.3618 -2.0343 0.9146
6.6344 -21.2194 -2.0357 0.9146
6.7668 -21.1819 -2.0361 0.9146
7.0309 -21.1047 -2.0369 0.9145
7.1628 -21.0651 -2.0373 0.9145
7.5569 -20.9413 -2.0386 0.9145
7.8187 -20.8553 -2.0394 0.9144
8.0797 -20.7663 -2.0403 0.9144
8.2098 -20.7206 -2.0408 0.9144
8.4323 -20.5368 -2.0328 0.9147
8.6177 -20.2710 -2.0169 0.9153
8.7092 -20.1396 -2.0091 0.9156
8.8923 -20.2188 -2.0225 0.9151
8.8455 -19.7793 -1.9840 0.9166
8.9345 -19.6515 -1.9767 0.9169
8.8476 -18.8384 -1.9057 0.9198
9.3437 -19.5791 -1.9865 0.9165
9.6454 -19.8939 -2.0244 0.9150
10.1326 -19.9473 -2.0486 0.9141
10.2587 -19.8899 -2.0492 0.9140
10.3845 -19.8317 -2.0498 0.9140
10.5100 -19.7729 -2.0504 0.9140
10.6352 -19.7133 -2.0510 0.9140
11.1330 -19.4678 -2.0535 0.9139
11.3800 -19.3406 -2.0548 0.9138
11.5030 -19.2760 -2.0554 0.9138
11.6258 -19.2107 -2.0561 0.9138
11.7482 -19.1447 -2.0567 0.9137
12.1133 -18.9422 -2.0588 0.9136
12.2344 -18.8733 -2.0595 0.9136
12.3550 -18.8037 -2.0602 0.9136
12.5954 -18.6624 -2.0616 0.9135
12.8343 -18.5182 -2.0631 0.9135
13.0718 -18.3713 -2.0645 0.9134
13.6587 -17.9917 -2.0684 0.9133
13.8908 -17.8350 -2.0700 0.9132
14.2360 -17.5947 -2.0724 0.9131
14.3502 -17.5133 -2.0732 0.9131
15.4689 -16.6617 -2.0818 0.9127
15.6873 -16.4833 -2.0836 0.9127
16.1185 -16.1186 -2.0873 0.9125
16.3313 -15.9323 -2.0891 0.9124
16.4370 -15.8382 -2.0901 0.9124
16.5422 -15.7434 -2.0910 0.9124
16.6469 -15.6480 -2.0920 0.9123
16.7511 -15.5519 -2.0930 0.9123
17.0607 -15.2599 -2.0959 0.9122
17.1629 -15.1613 -2.0969 0.9121
17.4662 -14.8616 -2.0999 0.9120
17.6659 -14.6587 -2.1019 0.9119
17.9613 -14.3497 -2.1051 0.9118
18.1555 -14.1405 -2.1072 0.9117
18.2840 -14.0597 -2.1119 0.9115
18.5525 -13.9045 -2.1229 0.9111
18.6899 -13.8278 -2.1288 0.9108
18.8271 -13.7499 -2.1347 0.9106
18.9639 -13.6709 -2.1406 0.9104
19.3792 -13.4310 -2.1590 0.9096
19.5192 -13.3501 -2.1653 0.9094
19.6579 -13.2673 -2.1716 0.9091
19.9349 -13.0983 -2.1841 0.9086
20.0746 -13.0131 -2.1906 0.9084
20.4963 -12.7528 -2.2104 0.9076
21.9088 -11.8196 -2.2794 0.9048
22.1114 -11.5781 -2.2854 0.9046
22.1953 -11.4477 -2.2867 0.9046
22.4427 -11.0532 -2.2907 0.9044
22.5237 -10.9205 -2.2920 0.9043
22.6040 -10.7873 -2.2934 0.9043
23.1454 -9.8396 -2.3029 0.9039
23.2197 -9.7021 -2.3043 0.9039
23.2932 -9.5641 -2.3056 0.9038
23.3660 -9.4255 -2.3070 0.9037
23.5798 -9.0068 -2.3112 0.9036
23.6494 -8.8663 -2.3127 0.9035
23.7183 -8.7252 -2.3141 0.9035
23.8538 -8.4415 -2.3169 0.9034
23.9860 -8.1559 -2.3198 0.9032
24.0509 -8.0124 -2.3212 0.9032
24.1150 -7.8684 -2.3227 0.9031
24.1783 -7.7240 -2.3241 0.9031
24.2408 -7.5790 -2.3256 0.9030
24.4824 -6.9948 -2.3314 0.9028
24.5407 -6.8475 -2.3329 0.9027
24.5982 -6.6999 -2.3344 0.9027
24.6549 -6.5518 -2.3359 0.9026
24.7657 -6.2544 -2.3389 0.9025
24.8197 -6.1050 -2.3404 0.9024
24.8730 -5.9552 -2.3419 0.9024
24.9769 -5.6544 -2.3449 0.9022
25.0275 -5.5034 -2.3464 0.9022
25.1262 -5.2002 -2.3495 0.9021
25.2214 -4.8954 -2.3525 0.9019
25.2677 -4.7424 -2.3541 0.9019
25.3575 -4.4353 -2.3571 0.9018
25.4438 -4.1267 -2.3602 0.9016
25.5265 -3.8167 -2.3633 0.9015
25.5665 -3.6612 -2.3649 0.9015
25.6056 -3.5054 -2.3665 0.9014
25.6808 -3.1925 -2.3696 0.9013
25.8207 -2.5633 -2.3759 0.9010
25.8533 -2.4052 -2.3775 0.9010
25.8849 -2.2467 -2.3791 0.9009
25.9157 -2.0880 -2.3807 0.9008
25.9455 -1.9290 -2.3823 0.9008
26.0551 -1.2901 -2.3887 0.9005
26.0801 -1.1297 -2.3903 0.9005
26.1273 -0.8082 -2.3935 0.9003
26.1495 -0.6470 -2.3951 0.9003
26.2101 -0.1621 -2.4000 0.9001
26.2618 0.3248 -2.4049 0.8999
26.2772 0.4875 -2.4065 0.8998
26.2915 0.6505 -2.4081 0.8998
26.3048 0.8136 -2.4098 0.8997
26.3388 1.3041 -2.4147 0.8995
26.3481 1.4680 -2.4163 0.8994
26.3868 2.9495 -2.4312 0.8988
26.3860 3.1147 -2.4328 0.8988
26.3842 3.2801 -2.4345 0.8987
26.3775 3.6110 -2.4378 0.8986
26.3597 4.1081 -2.4428 0.8984
26.3426 4.4399 -2.4461 0.8983
26.3215 4.7718 -2.4494 0.8981
26.3093 4.9379 -2.4511 0.8981
26.2961 5.1039 -2.4528 0.8980
26.2819 5.2700 -2.4544 0.8979
26.2666 5.4361 -2.4561 0.8979
26.2144 5.9345 -2.4611 0.8977
26.1949 6.1006 -2.4627 0.8976
26.1743 6.2667 -2.4644 0.8975
26.1527 6.4328 -2.4661 0.8975
26.1063 6.7649 -2.4694 0.8973
26.0812 6.9304 -2.4711 0.8973
26.0287 7.2627 -2.4744 0.8971
26.0007 7.4285 -2.4760 0.8971
25.8782 8.0910 -2.4827 0.8968
25.7751 8.5868 -2.4876 0.8966
25.7385 8.7518 -2.4893 0.8966
25.7009 8.9167 -2.4909 0.8965
25.6623 9.0815 -2.4926 0.8964
25.5818 9.4106 -2.4959 0.8963
25.5399 9.5750 -2.4975 0.8962
25.4970 9.7391 -2.4992 0.8962
25.4529 9.9031 -2.5008 0.8961
25.3145 10.3940 -2.5057 0.8959
25.1663 10.8831 -2.5106 0.8957
25.0086 11.3701 -2.5155 0.8955
24.9539 11.5319 -2.5171 0.8955
24.8412 11.8549 -2.5203 0.8953
24.7832 12.0160 -2.5220 0.8953
24.7241 12.1767 -2.5236 0.8952
24.6029 12.4975 -2.5268 0.8951
24.5407 12.6574 -2.5284 0.8950
24.4774 12.8171 -2.5300 0.8950
24.3476 13.1353 -2.5331 0.8948
24.2811 13.2939 -2.5347 0.8948
24.2135 13.4522 -2.5363 0.8947
24.0752 13.7678 -2.5395 0.8946
24.0045 13.9251 -2.5410 0.8945
23.8598 14.2384 -2.5442 0.8944
23.7109 14.5502 -2.5473 0.8943
23.6349 14.7055 -2.5489 0.8942
23.5578 14.8605 -2.5504 0.8942
23.4004 15.1690 -2.5535 0.8940
23.3202 15.3226 -2.5550 0.8940
23.2389 15.4758 -2.5566 0.8939
15.7583 10.7778 -1.7481 0.9262
15.5483 10.9189 -1.7397 0.9265
15.4441 10.9890 -1.7356 0.9267
15.3404 11.0587 -1.7316 0.9269
15.1344 11.1972 -1.7238 0.9272
15.0321 11.2661 -1.7201 0.9273
14.9302 11.3346 -1.7164 0.9275
14.8287 11.4028 -1.7128 0.9276
14.7276 11.4707 -1.7093 0.9278
14.4269 11.6728 -1.6993 0.9282
14.3275 11.7397 -1.6961 0.9283
13.7381 12.1359 -1.6785 0.9290
13.6410 12.2012 -1.6758 0.9291
13.4477 12.3311 -1.6707 0.9293
13.3515 12.3957 -1.6682 0.9294
13.2751 12.4785 -1.6683 0.9294
13.5666 12.9115 -1.7149 0.9275
19.8697 20.3674 -2.6054 0.8920
19.7534 20.5003 -2.6067 0.8919
17.9634 18.8749 -2.3859 0.9006
17.8262 18.9642 -2.3832 0.9007
17.8446 19.2206 -2.4015 0.9000
18.0549 19.6898 -2.4461 0.8983
17.5967 20.1698 -2.4509 0.8981
17.4800 20.2880 -2.4521 0.8980
17.2443 20.5222 -2.4544 0.8979
15.2882 18.4246 -2.1922 0.9083
16.8842 20.8678 -2.4579 0.8978
16.7625 20.9815 -2.4590 0.8977
12.9575 16.4260 -1.9157 0.9194
12.7818 16.4111 -1.9047 0.9198
12.8617 16.7261 -1.9320 0.9187
15.6385 21.9787 -2.4699 0.8973
15.5087 22.0840 -2.4710 0.8973
15.3780 22.1885 -2.4720 0.8972
15.2467 22.2922 -2.4730 0.8972
12.4801 19.7843 -2.1419 0.9103
12.3611 19.8670 -2.1425 0.9103
8.4025 13.6927 -1.4710 0.9375
12.0040 20.1155 -2.1449 0.9102
8.0913 13.7514 -1.4610 0.9379
7.9481 13.8986 -1.4660 0.9377
6.9244 12.4636 -1.3055 0.9443
6.7973 12.5995 -1.3109 0.9441
5.9897 11.2687 -1.1685 0.9500
5.9244 11.3141 -1.1694 0.9500
5.8767 11.3940 -1.1739 0.9498
5.5470 11.6233 -1.1793 0.9496
3.9140 9.2066 -0.9160 0.9606
3.8277 9.1606 -0.9091 0.9609
3.5145 9.0329 -0.8875 0.9618
3.3100 8.9978 -0.8779 0.9622
2.5073 7.5263 -0.7264 0.9686
2.4735 7.5808 -0.7302 0.9685
2.8496 9.1141 -0.8744 0.9624
2.7958 9.1402 -0.8752 0.9623
2.6879 9.1926 -0.8770 0.9623
2.6339 9.2188 -0.8779 0.9622
2.5253 9.2715 -0.8799 0.9621
2.4169 9.3268 -0.8822 0.9620
2.3646 9.3632 -0.8843 0.9620
2.1531 9.5106 -0.8929 0.9616
2.0995 9.5480 -0.8952 0.9615
1.9916 9.6232 -0.8998 0.9613
1.8276 9.7376 -0.9072 0.9610
1.6046 9.8930 -0.9177 0.9605
1.5480 9.9325 -0.9205 0.9604
1.4338 10.0121 -0.9261 0.9602
1.3761 10.0522 -0.9290 0.9601
1.3182 10.0927 -0.9320 0.9599
1.2598 10.1334 -0.9350 0.9598
1.2010 10.1743 -0.9381 0.9597
1.1419 10.2155 -0.9412 0.9596
0.9620 10.3409 -0.9510 0.9591
0.9012 10.3833 -0.9543 0.9590
0.8400 10.4259 -0.9578 0.9589
0.7783 10.4689 -0.9612 0.9587
0.7162 10.5122 -0.9648 0.9586
0.6536 10.5558 -0.9684 0.9584
0.3334 10.7790 -0.9875 0.9576
0.2678 10.8247 -0.9915 0.9574
0.2017 10.8708 -0.9956 0.9573
0.1350 10.9173 -0.9997 0.9571
-0.0684 11.0590 -1.0126 0.9566
-0.2070 11.1556 -1.0216 0.9562
-0.3481 11.2540 -1.0310 0.9558
-0.4918 11.3541 -1.0406 0.9554
-0.7126 11.5079 -1.0558 0.9547
-1.0172 11.7203 -1.0772 0.9538
-1.0954 11.7747 -1.0828 0.9536
-1.1744 11.8297 -1.0885 0.9534
-1.2542 11.8853 -1.0943 0.9531
-1.4163 11.9983 -1.1063 0.9526
-1.4988 12.0558 -1.1124 0.9524
-1.6664 12.1726 -1.1250 0.9518
