ply
format ascii 1.0
element vertex 1596
property float32 x
property float32 y
property float32 z
property float32 I
end_header
-5.1775 -8.3214 -2.3194 0.9605
-5.1255 -8.3523 -2.3191 0.9605
-5.0731 -8.3829 -2.3188 0.9605
-5.0207 -8.4133 -2.3186 0.9605
-4.9680 -8.4432 -2.3183 0.9605
-4.9151 -8.4729 -2.3181 0.9605
-4.8090 -8.5313 -2.3176 0.9605
-4.5947 -8.6442 -2.3167 0.9606
-4.5407 -8.6716 -2.3165 0.9606
-4.4865 -8.6987 -2.3163 0.9606
-4.4323 -8.7254 -2.3160 0.9606
-4.3778 -8.7519 -2.3158 0.9606
-4.3232 -8.7780 -2.3156 0.9606
-4.2136 -8.8292 -2.3152 0.9606
-4.1585 -8.8543 -2.3150 0.9606
-4.1033 -8.8791 -2.3148 0.9606
-3.9925 -8.9277 -2.3144 0.9606
-3.8253 -8.9981 -2.3139 0.9606
-3.7693 -9.0209 -2.3137 0.9606
-3.6005 -9.0872 -2.3132 0.9606
-3.4873 -9.1298 -2.3128 0.9606
-3.4305 -9.1505 -2.3127 0.9606
-3.3737 -9.1710 -2.3125 0.9606
-3.3167 -9.1911 -2.3124 0.9606
-3.2596 -9.2108 -2.3122 0.9606
-3.0876 -9.2679 -2.3118 0.9606
-2.9723 -9.3044 -2.3115 0.9606
-2.9146 -9.3220 -2.3114 0.9606
-2.8567 -9.3394 -2.3113 0.9607
-2.7988 -9.3563 -2.3112 0.9607
-2.6825 -9.3893 -2.3109 0.9607
-2.6243 -9.4052 -2.3108 0.9607
-2.5660 -9.4208 -2.3107 0.9607
-2.5076 -9.4361 -2.3106 0.9607
-2.4490 -9.4510 -2.3105 0.9607
-2.3904 -9.4656 -2.3104 0.9607
-2.3317 -9.4798 -2.3103 0.9607
-2.2142 -9.5071 -2.3101 0.9607
-2.0963 -9.5331 -2.3099 0.9607
-1.9188 -9.5694 -2.3097 0.9607
-1.8003 -9.5918 -2.3096 0.9607
-1.6814 -9.6128 -2.3094 0.9607
-1.3832 -9.6592 -2.3092 0.9607
-1.3235 -9.6674 -2.3092 0.9607
-1.2037 -9.6827 -2.3091 0.9607
-1.1438 -9.6899 -2.3091 0.9607
-1.0839 -9.6966 -2.3090 0.9607
-1.0239 -9.7031 -2.3090 0.9607
-0.7835 -9.7252 -2.3090 0.9607
-0.7234 -9.7298 -2.3089 0.9607
-0.6632 -9.7341 -2.3089 0.9607
-0.4222 -9.7476 -2.3090 0.9607
-0.3619 -9.7501 -2.3090 0.9607
-0.3016 -9.7522 -2.3090 0.9607
-0.1810 -9.7554 -2.3090 0.9607
-0.1207 -9.7565 -2.3091 0.9607
-0.0603 -9.7572 -2.3091 0.9607
0.1207 -9.7571 -2.3092 0.9607
0.1811 -9.7563 -2.3093 0.9607
0.2413 -9.7552 -2.3093 0.9607
0.3017 -9.7538 -2.3094 0.9607
0.3620 -9.7520 -2.3094 0.9607
0.4223 -9.7498 -2.3095 0.9607
0.8441 -9.7245 -2.3100 0.9607
1.0244 -9.7082 -2.3102 0.9607
1.1445 -9.6956 -2.3104 0.9607
1.2645 -9.6816 -2.3106 0.9607
1.3244 -9.6740 -2.3107 0.9607
1.4441 -9.6579 -2.3110 0.9607
1.5636 -9.6403 -2.3112 0.9607
1.6232 -9.6309 -2.3113 0.9606
1.8614 -9.5901 -2.3119 0.9606
1.9208 -9.5789 -2.3120 0.9606
2.0986 -9.5435 -2.3125 0.9606
2.2167 -9.5181 -2.3128 0.9606
2.4522 -9.4630 -2.3134 0.9606
2.5694 -9.4334 -2.3138 0.9606
2.6279 -9.4181 -2.3140 0.9606
2.6863 -9.4024 -2.3141 0.9606
2.8029 -9.3700 -2.3145 0.9606
2.9770 -9.3187 -2.3151 0.9606
3.0348 -9.3010 -2.3153 0.9606
3.0925 -9.2828 -2.3155 0.9606
3.1502 -9.2644 -2.3157 0.9606
3.2077 -9.2455 -2.3159 0.9606
3.2651 -9.2264 -2.3161 0.9606
3.3796 -9.1871 -2.3166 0.9606
3.4367 -9.1669 -2.3168 0.9606
3.5505 -9.1255 -2.3173 0.9606
3.6639 -9.0827 -2.3177 0.9605
3.8329 -9.0160 -2.3185 0.9605
3.8890 -8.9931 -2.3187 0.9605
3.9450 -8.9698 -2.3190 0.9605
4.0008 -8.9462 -2.3192 0.9605
4.0565 -8.9223 -2.3195 0.9605
4.1675 -8.8735 -2.3200 0.9605
4.2779 -8.8233 -2.3206 0.9605
4.4425 -8.7456 -2.3214 0.9605
4.5514 -8.6921 -2.3219 0.9605
4.7137 -8.6094 -2.3228 0.9605
4.8744 -8.5238 -2.3237 0.9604
4.9277 -8.4946 -2.3240 0.9604
5.1915 -8.3438 -2.3256 0.9604
5.2438 -8.3127 -2.3259 0.9604
5.2958 -8.2813 -2.3263 0.9604
5.3993 -8.2175 -2.3269 0.9604
5.4509 -8.1851 -2.3273 0.9604
5.6042 -8.0861 -2.3283 0.9604
5.8560 -7.9150 -2.3300 0.9603
6.0046 -7.8087 -2.3311 0.9603
6.0537 -7.7726 -2.3315 0.9603
6.1513 -7.6996 -2.3322 0.9603
6.2962 -7.5878 -2.3334 0.9603
6.3917 -7.5119 -2.3341 0.9603
6.4391 -7.4734 -2.3345 0.9603
6.5332 -7.3957 -2.3353 0.9602
6.5799 -7.3564 -2.3357 0.9602
6.6265 -7.3168 -2.3361 0.9602
6.6727 -7.2770 -2.3365 0.9602
6.7187 -7.2368 -2.3369 0.9602
6.7646 -7.1964 -2.3373 0.9602
6.9454 -7.0318 -2.3390 0.9602
6.9900 -6.9900 -2.3394 0.9602
7.2093 -6.7767 -2.3415 0.9601
7.2524 -6.7333 -2.3420 0.9601
7.2953 -6.6895 -2.3424 0.9601
7.3803 -6.6013 -2.3433 0.9601
7.4223 -6.5567 -2.3437 0.9601
7.4642 -6.5120 -2.3442 0.9601
7.5057 -6.4669 -2.3446 0.9601
7.5470 -6.4216 -2.3451 0.9601
7.5881 -6.3760 -2.3455 0.9601
7.6288 -6.3302 -2.3460 0.9601
7.7095 -6.2378 -2.3469 0.9601
7.7495 -6.1912 -2.3474 0.9600
7.7891 -6.1444 -2.3478 0.9600
7.8285 -6.0973 -2.3483 0.9600
7.8677 -6.0500 -2.3487 0.9600
8.0214 -5.8582 -2.3506 0.9600
8.1336 -5.7119 -2.3521 0.9600
8.1705 -5.6627 -2.3526 0.9600
8.2071 -5.6132 -2.3530 0.9600
8.2433 -5.5635 -2.3535 0.9599
8.3150 -5.4634 -2.3545 0.9599
8.3503 -5.4130 -2.3550 0.9599
8.3854 -5.3624 -2.3555 0.9599
8.4202 -5.3115 -2.3560 0.9599
8.4547 -5.2605 -2.3565 0.9599
8.4888 -5.2092 -2.3570 0.9599
8.5227 -5.1577 -2.3575 0.9599
8.5563 -5.1060 -2.3580 0.9599
8.5896 -5.0541 -2.3585 0.9599
8.7195 -4.8442 -2.3606 0.9598
8.7512 -4.7913 -2.3611 0.9598
8.7826 -4.7381 -2.3616 0.9598
8.8136 -4.6847 -2.3621 0.9598
8.8748 -4.5774 -2.3632 0.9598
8.9347 -4.4692 -2.3642 0.9598
8.9642 -4.4149 -2.3647 0.9598
9.0222 -4.3056 -2.3658 0.9597
9.0506 -4.2507 -2.3663 0.9597
9.1341 -4.0848 -2.3679 0.9597
9.1613 -4.0292 -2.3685 0.9597
9.2146 -3.9173 -2.3695 0.9597
9.2666 -3.8048 -2.3706 0.9597
9.2921 -3.7483 -2.3712 0.9597
9.3172 -3.6916 -2.3717 0.9596
9.3665 -3.5778 -2.3728 0.9596
9.3907 -3.5206 -2.3734 0.9596
9.4379 -3.4057 -2.3745 0.9596
9.4609 -3.3481 -2.3750 0.9596
9.5499 -3.1160 -2.3773 0.9595
9.5712 -3.0576 -2.3778 0.9595
9.6128 -2.9404 -2.3789 0.9595
9.6331 -2.8815 -2.3795 0.9595
9.6530 -2.8226 -2.3801 0.9595
9.7107 -2.6449 -2.3818 0.9595
9.7291 -2.5854 -2.3823 0.9595
9.7472 -2.5258 -2.3829 0.9595
9.7651 -2.4661 -2.3835 0.9594
9.7995 -2.3462 -2.3846 0.9594
9.8325 -2.2259 -2.3858 0.9594
9.8640 -2.1052 -2.3869 0.9594
9.9364 -1.8014 -2.3898 0.9593
9.9497 -1.7403 -2.3904 0.9593
9.9627 -1.6792 -2.3910 0.9593
9.9754 -1.6179 -2.3915 0.9593
9.9994 -1.4951 -2.3927 0.9593
10.0109 -1.4336 -2.3933 0.9593
10.0328 -1.3103 -2.3945 0.9593
10.0432 -1.2486 -2.3950 0.9593
10.0532 -1.1867 -2.3956 0.9592
10.0628 -1.1248 -2.3962 0.9592
10.0893 -0.9386 -2.3980 0.9592
10.0974 -0.8764 -2.3986 0.9592
10.1051 -0.8142 -2.3992 0.9592
10.1124 -0.7518 -2.3997 0.9592
10.1193 -0.6894 -2.4003 0.9592
10.1321 -0.5645 -2.4015 0.9591
10.1378 -0.5020 -2.4021 0.9591
10.1483 -0.3767 -2.4033 0.9591
10.1644 -0.1257 -2.4056 0.9591
10.1702 0.0000 -2.4068 0.9591
10.1725 0.0629 -2.4074 0.9590
10.1744 0.1259 -2.4080 0.9590
10.1771 0.2518 -2.4092 0.9590
10.1778 0.3148 -2.4098 0.9590
10.1757 0.6301 -2.4127 0.9590
10.1740 0.6932 -2.4133 0.9589
10.1601 1.0086 -2.4162 0.9589
10.1561 1.0717 -2.4168 0.9589
10.1470 1.1978 -2.4180 0.9589
10.1364 1.3238 -2.4192 0.9589
10.1305 1.3869 -2.4198 0.9588
10.1241 1.4498 -2.4204 0.9588
10.1103 1.5757 -2.4215 0.9588
10.1028 1.6386 -2.4221 0.9588
10.0949 1.7014 -2.4227 0.9588
10.0780 1.8270 -2.4239 0.9588
10.0689 1.8898 -2.4244 0.9588
10.0594 1.9525 -2.4250 0.9588
10.0495 2.0151 -2.4256 0.9587
10.0393 2.0778 -2.4262 0.9587
9.9943 2.3277 -2.4285 0.9587
9.9821 2.3900 -2.4291 0.9587
9.9695 2.4523 -2.4296 0.9587
9.9431 2.5766 -2.4308 0.9587
9.9293 2.6386 -2.4314 0.9586
9.9151 2.7006 -2.4319 0.9586
9.8384 3.0094 -2.4348 0.9586
9.8219 3.0709 -2.4353 0.9586
9.8050 3.1323 -2.4359 0.9586
9.7700 3.2549 -2.4370 0.9586
9.7334 3.3770 -2.4381 0.9585
9.6146 3.7408 -2.4415 0.9585
9.5719 3.8612 -2.4426 0.9585
9.5050 4.0408 -2.4442 0.9584
9.4105 4.2785 -2.4464 0.9584
9.3859 4.3375 -2.4469 0.9584
9.3099 4.5139 -2.4485 0.9584
9.2574 4.6307 -2.4496 0.9583
9.1758 4.8047 -2.4512 0.9583
9.1478 4.8624 -2.4517 0.9583
9.1196 4.9199 -2.4522 0.9583
9.0908 4.9773 -2.4527 0.9583
9.0026 5.1483 -2.4543 0.9583
8.9725 5.2050 -2.4548 0.9583
8.9111 5.3177 -2.4558 0.9582
8.8799 5.3738 -2.4563 0.9582
8.8483 5.4298 -2.4568 0.9582
8.8164 5.4855 -2.4573 0.9582
8.7184 5.6516 -2.4588 0.9582
8.6513 5.7613 -2.4598 0.9582
8.6172 5.8158 -2.4603 0.9582
8.5129 5.9782 -2.4617 0.9581
8.4054 6.1387 -2.4632 0.9581
8.2194 6.4017 -2.4655 0.9581
8.1812 6.4537 -2.4660 0.9581
8.1426 6.5053 -2.4664 0.9581
8.0646 6.6080 -2.4674 0.9580
7.9851 6.7097 -2.4683 0.9580
7.9449 6.7601 -2.4687 0.9580
7.8635 6.8604 -2.4696 0.9580
7.8109 6.9000 -2.4664 0.9581
7.5758 6.7762 -2.4054 0.9591
7.0880 6.7457 -2.3156 0.9606
7.0473 6.7906 -2.3160 0.9606
6.9652 6.8795 -2.3168 0.9606
6.8398 7.0111 -2.3180 0.9605
6.7973 7.0544 -2.3183 0.9605
6.7117 7.1402 -2.3191 0.9605
6.6250 7.2250 -2.3198 0.9605
6.5813 7.2670 -2.3202 0.9605
6.4929 7.3501 -2.3209 0.9605
6.4484 7.3912 -2.3213 0.9605
6.3129 7.5130 -2.3223 0.9605
5.9880 7.7871 -2.3247 0.9604
5.8450 7.9001 -2.3257 0.9604
5.6997 8.0104 -2.3266 0.9604
5.6016 8.0824 -2.3272 0.9604
5.5523 8.1180 -2.3275 0.9604
5.4528 8.1881 -2.3281 0.9604
5.4028 8.2227 -2.3284 0.9604
5.3020 8.2910 -2.3290 0.9604
5.0977 8.4236 -2.3301 0.9603
4.9943 8.4880 -2.3306 0.9603
4.8376 8.5820 -2.3314 0.9603
4.7850 8.6127 -2.3317 0.9603
4.7321 8.6431 -2.3319 0.9603
4.6790 8.6731 -2.3322 0.9603
4.4649 8.7898 -2.3331 0.9603
4.3568 8.8461 -2.3336 0.9603
4.2478 8.9010 -2.3340 0.9603
4.1382 8.9545 -2.3345 0.9603
4.0279 9.0066 -2.3349 0.9603
3.7490 9.1307 -2.3359 0.9602
3.6928 9.1545 -2.3361 0.9602
3.6364 9.1779 -2.3362 0.9602
3.5232 9.2236 -2.3366 0.9602
3.4663 9.2459 -2.3368 0.9602
3.4093 9.2679 -2.3370 0.9602
3.2949 9.3107 -2.3373 0.9602
3.0645 9.3919 -2.3379 0.9602
2.9484 9.4303 -2.3382 0.9602
2.8902 9.4489 -2.3384 0.9602
2.8319 9.4672 -2.3385 0.9602
2.7149 9.5026 -2.3388 0.9602
2.6563 9.5197 -2.3389 0.9602
2.5386 9.5528 -2.3392 0.9602
2.4796 9.5688 -2.3393 0.9602
2.3020 9.6145 -2.3396 0.9602
2.1831 9.6431 -2.3398 0.9602
1.8242 9.7196 -2.3403 0.9602
1.7641 9.7310 -2.3404 0.9602
1.7040 9.7420 -2.3405 0.9602
1.5834 9.7629 -2.3406 0.9602
1.5231 9.7727 -2.3407 0.9602
1.4022 9.7913 -2.3408 0.9602
1.3416 9.8000 -2.3408 0.9602
1.2203 9.8162 -2.3409 0.9602
1.1596 9.8237 -2.3409 0.9602
1.0989 9.8308 -2.3410 0.9602
1.0381 9.8375 -2.3410 0.9602
0.7335 9.8653 -2.3411 0.9602
0.5503 9.8773 -2.3411 0.9602
0.4892 9.8805 -2.3411 0.9602
0.3670 9.8857 -2.3411 0.9602
0.3058 9.8877 -2.3411 0.9602
0.2447 9.8893 -2.3411 0.9602
0.1835 9.8906 -2.3410 0.9602
-0.1224 9.8907 -2.3408 0.9602
-0.1835 9.8896 -2.3408 0.9602
-0.2446 9.8880 -2.3407 0.9602
-0.4280 9.8811 -2.3406 0.9602
-0.4891 9.8779 -2.3405 0.9602
-0.6112 9.8705 -2.3404 0.9602
-0.6722 9.8662 -2.3403 0.9602
-0.7332 9.8615 -2.3402 0.9602
-0.8550 9.8509 -2.3400 0.9602
-0.9159 9.8451 -2.3399 0.9602
-0.9767 9.8388 -2.3398 0.9602
-1.1589 9.8177 -2.3395 0.9602
-1.2196 9.8099 -2.3394 0.9602
-1.2598 8.7972 -2.1031 0.9641
-1.3070 8.7411 -2.0916 0.9643
-1.3587 8.7177 -2.0880 0.9644
-1.4142 8.7196 -2.0905 0.9643
-1.7025 9.7336 -2.3385 0.9602
-1.7626 9.7224 -2.3383 0.9602
-1.8825 9.6987 -2.3381 0.9602
-2.0617 9.6603 -2.3376 0.9602
-2.1213 9.6467 -2.3375 0.9602
-2.2994 9.6037 -2.3370 0.9602
-2.3585 9.5886 -2.3368 0.9602
-2.4766 9.5572 -2.3365 0.9602
-2.5354 9.5410 -2.3363 0.9602
-2.8862 9.4358 -2.3351 0.9603
-2.9443 9.4169 -2.3349 0.9603
-3.0021 9.3977 -2.3347 0.9603
-3.0599 9.3781 -2.3345 0.9603
-3.1176 9.3581 -2.3343 0.9603
-3.1751 9.3378 -2.3341 0.9603
-3.2325 9.3171 -2.3339 0.9603
-3.2897 9.2960 -2.3336 0.9603
-3.4606 9.2307 -2.3329 0.9603
-3.5172 9.2081 -2.3327 0.9603
-3.6301 9.1621 -2.3322 0.9603
-3.0569 7.3160 -1.8764 0.9679
-3.9095 9.0405 -2.3309 0.9603
-3.9649 9.0151 -2.3307 0.9603
-4.0751 8.9633 -2.3301 0.9603
-3.5540 6.8907 -1.8348 0.9686
-3.4250 6.1649 -1.6690 0.9714
-3.7003 6.4706 -1.7640 0.9698
-3.8052 6.4670 -1.7757 0.9696
-3.8576 6.4644 -1.7815 0.9695
-3.9595 6.4524 -1.7915 0.9694
-4.0729 6.5460 -1.8245 0.9688
-4.0520 6.3364 -1.7799 0.9696
-4.3075 6.5558 -1.8564 0.9683
-4.5162 6.6915 -1.9105 0.9674
-4.7754 6.8000 -1.9664 0.9664
-4.7948 6.7387 -1.9572 0.9666
-4.8709 6.7568 -1.9712 0.9663
-4.8549 6.5620 -1.9317 0.9670
-5.1087 6.8164 -2.0159 0.9656
-5.3696 6.8942 -2.0680 0.9647
-5.5673 6.9685 -2.1108 0.9640
-5.7942 6.9829 -2.1473 0.9634
-6.1361 7.1219 -2.2247 0.9621
-6.2155 7.1245 -2.2375 0.9619
-6.1599 6.8868 -2.1866 0.9627
-6.5486 7.2309 -2.3087 0.9607
-6.6008 7.1985 -2.3113 0.9606
-6.5669 6.9862 -2.2690 0.9614
-6.7295 7.0709 -2.3101 0.9607
-6.8139 6.9846 -2.3092 0.9607
-6.8557 6.9410 -2.3088 0.9607
-6.8972 6.8972 -2.3083 0.9607
-6.9792 6.8087 -2.3074 0.9607
-7.0199 6.7641 -2.3070 0.9607
-7.0602 6.7193 -2.3066 0.9607
-7.1003 6.6742 -2.3061 0.9607
-7.2961 6.4452 -2.3038 0.9608
-7.3722 6.3519 -2.3029 0.9608
-7.4099 6.3049 -2.3025 0.9608
-7.4472 6.2577 -2.3020 0.9608
-7.4843 6.2103 -2.3015 0.9608
-7.5210 6.1626 -2.3011 0.9608
-7.5936 6.0667 -2.3001 0.9608
-7.6648 5.9698 -2.2992 0.9609
-7.8036 5.7735 -2.2972 0.9609
-7.8375 5.7240 -2.2968 0.9609
-8.0212 5.7074 -2.3297 0.9603
-8.1738 5.7401 -2.3637 0.9598
-8.3307 5.7737 -2.3987 0.9592
-8.5788 5.7899 -2.4493 0.9583
-8.6791 5.6261 -2.4477 0.9584
-8.7118 5.5711 -2.4472 0.9584
-8.7442 5.5159 -2.4467 0.9584
-8.7762 5.4605 -2.4461 0.9584
-8.8078 5.4050 -2.4456 0.9584
-8.8391 5.3492 -2.4450 0.9584
-8.9007 5.2371 -2.4439 0.9584
-8.9308 5.1808 -2.4434 0.9584
-8.9608 5.1244 -2.4429 0.9585
-8.9902 5.0677 -2.4423 0.9585
-9.0194 5.0109 -2.4418 0.9585
-9.0481 4.9539 -2.4412 0.9585
-9.1323 4.7819 -2.4395 0.9585
-9.1596 4.7243 -2.4390 0.9585
-9.2393 4.5504 -2.4373 0.9585
-9.2906 4.4337 -2.4362 0.9586
-9.3647 4.2577 -2.4345 0.9586
-9.4123 4.1396 -2.4334 0.9586
-9.4355 4.0803 -2.4328 0.9586
-9.4583 4.0209 -2.4322 0.9586
-9.4808 3.9615 -2.4316 0.9586
-9.5029 3.9018 -2.4311 0.9587
-9.5459 3.7822 -2.4299 0.9587
-9.6468 3.4812 -2.4270 0.9587
-9.6658 3.4206 -2.4265 0.9587
-9.7028 3.2992 -2.4253 0.9587
-9.7207 3.2384 -2.4247 0.9588
-9.7382 3.1775 -2.4241 0.9588
-9.7553 3.1164 -2.4236 0.9588
-9.7720 3.0553 -2.4230 0.9588
-9.8351 2.8099 -2.4206 0.9588
-9.8644 2.6868 -2.4195 0.9588
-9.8784 2.6251 -2.4189 0.9589
-9.9182 2.4396 -2.4171 0.9589
-9.9428 2.3156 -2.4160 0.9589
-9.9872 2.0670 -2.4136 0.9589
-10.0255 1.8175 -2.4112 0.9590
-10.0341 1.7551 -2.4106 0.9590
-10.0575 1.5675 -2.4089 0.9590
-10.0712 1.4422 -2.4077 0.9590
-10.0833 1.3169 -2.4065 0.9591
-10.0888 1.2542 -2.4059 0.9591
-10.0939 1.1915 -2.4053 0.9591
-10.0986 1.1288 -2.4047 0.9591
-10.1029 1.0661 -2.4042 0.9591
-10.1068 1.0033 -2.4036 0.9591
-10.1162 0.8151 -2.4018 0.9591
-10.1206 0.6895 -2.4006 0.9592
-10.1246 0.4386 -2.3983 0.9592
-10.1246 0.3758 -2.3977 0.9592
-10.1243 0.3132 -2.3971 0.9592
-10.1209 0.1252 -2.3953 0.9592
-9.7901 -0.0605 -2.3938 0.9605
-9.7873 -0.1211 -2.3932 0.9605
-9.7764 -0.3024 -2.3915 0.9605
-9.7568 -0.5436 -2.3893 0.9606
-9.7312 -0.7840 -2.3871 0.9606
-9.7239 -0.8440 -2.3865 0.9606
-9.7163 -0.9039 -2.3860 0.9606
-9.7082 -0.9638 -2.3854 0.9606
-9.6524 -1.3214 -2.3821 0.9607
-9.6418 -1.3807 -2.3815 0.9607
-9.6308 -1.4400 -2.3810 0.9607
-9.5835 -1.6762 -2.3788 0.9607
-9.5708 -1.7351 -2.3783 0.9607
-9.5577 -1.7938 -2.3777 0.9607
-9.5442 -1.8525 -2.3772 0.9608
-9.5304 -1.9110 -2.3766 0.9608
-9.5163 -1.9695 -2.3761 0.9608
-9.4869 -2.0861 -2.3750 0.9608
-9.4717 -2.1443 -2.3745 0.9608
-9.4402 -2.2602 -2.3734 0.9608
-9.3730 -2.4908 -2.3713 0.9609
-9.3554 -2.5481 -2.3708 0.9609
-9.3190 -2.6625 -2.3697 0.9609
-9.2422 -2.8896 -2.3677 0.9609
-9.2017 -3.0024 -2.3666 0.9609
-9.1810 -3.0586 -2.3661 0.9609
-9.1385 -3.1705 -2.3651 0.9610
-9.0031 -3.5029 -2.3621 0.9610
-8.9553 -3.6124 -2.3611 0.9610
-8.9309 -3.6670 -2.3606 0.9610
-8.9062 -3.7214 -2.3601 0.9610
-8.8812 -3.7756 -2.3596 0.9610
-8.8041 -3.9373 -2.3581 0.9611
-8.7512 -4.0442 -2.3572 0.9611
-8.7242 -4.0974 -2.3567 0.9611
-8.6693 -4.2033 -2.3557 0.9611
-8.6132 -4.3084 -2.3548 0.9611
-8.5847 -4.3608 -2.3543 0.9611
-8.5267 -4.4648 -2.3534 0.9611
-8.4374 -4.6195 -2.3520 0.9612
-8.4071 -4.6707 -2.3515 0.9612
-8.3764 -4.7216 -2.3511 0.9612
-8.2506 -4.9236 -2.3492 0.9612
-8.1202 -5.1223 -2.3475 0.9612
-8.0868 -5.1715 -2.3470 0.9612
-8.0193 -5.2691 -2.3462 0.9613
-7.9506 -5.3659 -2.3453 0.9613
-7.8807 -5.4618 -2.3444 0.9613
-7.8454 -5.5095 -2.3440 0.9613
-7.7376 -5.6510 -2.3428 0.9613
-7.6645 -5.7443 -2.3419 0.9613
-7.6275 -5.7905 -2.3415 0.9613
-7.5526 -5.8824 -2.3407 0.9613
-7.4767 -5.9733 -2.3399 0.9614
-7.3998 -6.0633 -2.3391 0.9614
-7.3609 -6.1079 -2.3387 0.9614
-7.3218 -6.1523 -2.3383 0.9614
-7.2823 -6.1964 -2.3379 0.9614
-7.1222 -6.3704 -2.3364 0.9614
-7.0815 -6.4133 -2.3360 0.9614
-7.0406 -6.4560 -2.3357 0.9614
-6.9994 -6.4984 -2.3353 0.9614
-6.9580 -6.5405 -2.3349 0.9614
-6.9164 -6.5824 -2.3345 0.9614
-6.7899 -6.7064 -2.3335 0.9615
-6.7473 -6.7473 -2.3331 0.9615
-6.7044 -6.7879 -2.3328 0.9615
-6.5744 -6.9080 -2.3317 0.9615
-6.5306 -6.9475 -2.3314 0.9615
-6.4865 -6.9867 -2.3310 0.9615
-6.4423 -7.0257 -2.3307 0.9615
-6.3082 -7.1409 -2.3297 0.9615
-6.2176 -7.2164 -2.3291 0.9615
-6.1262 -7.2907 -2.3284 0.9615
-6.0802 -7.3275 -2.3281 0.9616
-6.0339 -7.3639 -2.3278 0.9616
-5.9875 -7.4001 -2.3275 0.9616
-5.9408 -7.4360 -2.3272 0.9616
-5.8939 -7.4717 -2.3269 0.9616
-5.7996 -7.5421 -2.3263 0.9616
-5.7521 -7.5768 -2.3260 0.9616
-5.7044 -7.6113 -2.3257 0.9616
-5.6085 -7.6793 -2.3251 0.9616
-5.4630 -7.7792 -2.3243 0.9616
-5.4142 -7.8119 -2.3240 0.9616
-5.3651 -7.8443 -2.3237 0.9616
-5.1671 -7.9710 -2.3226 0.9616
-5.1171 -8.0019 -2.3224 0.9616
-5.0670 -8.0325 -2.3221 0.9616
-4.9155 -8.1225 -2.3214 0.9617
-4.8647 -8.1519 -2.3211 0.9617
-4.8137 -8.1810 -2.3209 0.9617
-4.7112 -8.2382 -2.3204 0.9617
-4.6597 -8.2664 -2.3202 0.9617
-4.5042 -8.3490 -2.3195 0.9617
-4.4520 -8.3759 -2.3193 0.9617
-4.3998 -8.4025 -2.3191 0.9617
-4.2947 -8.4547 -2.3187 0.9617
-4.2420 -8.4803 -2.3185 0.9617
-4.1361 -8.5307 -2.3180 0.9617
-4.0829 -8.5554 -2.3178 0.9617
-3.9224 -8.6275 -2.3173 0.9617
-3.8688 -8.6509 -2.3171 0.9617
-3.7067 -8.7192 -2.3165 0.9617
-3.5981 -8.7630 -2.3162 0.9617
-3.5436 -8.7845 -2.3160 0.9617
-3.4342 -8.8264 -2.3157 0.9618
-3.2692 -8.8868 -2.3153 0.9618
-3.2139 -8.9063 -2.3151 0.9618
-3.0476 -8.9628 -2.3147 0.9618
-2.9919 -8.9809 -2.3145 0.9618
-2.9362 -8.9987 -2.3144 0.9618
-2.8243 -9.0333 -2.3142 0.9618
-2.7683 -9.0502 -2.3140 0.9618
-2.7121 -9.0667 -2.3139 0.9618
-2.6558 -9.0828 -2.3138 0.9618
-2.5995 -9.0986 -2.3137 0.9618
-2.5431 -9.1141 -2.3136 0.9618
-2.4866 -9.1292 -2.3135 0.9618
-2.3732 -9.1584 -2.3133 0.9618
-2.2596 -9.1863 -2.3131 0.9618
-2.0886 -9.2256 -2.3128 0.9618
-1.9741 -9.2501 -2.3127 0.9618
-1.8595 -9.2732 -2.3125 0.9618
-1.5717 -9.3251 -2.3122 0.9618
-1.3983 -9.3520 -2.3121 0.9618
-1.1665 -9.3832 -2.3119 0.9618
-0.9922 -9.4029 -2.3118 0.9618
-0.9340 -9.4088 -2.3118 0.9618
-0.7010 -9.4289 -2.3118 0.9618
-0.5843 -9.4368 -2.3118 0.9618
-0.4676 -9.4433 -2.3118 0.9618
-0.4092 -9.4461 -2.3118 0.9618
-0.3508 -9.4485 -2.3118 0.9618
-0.2338 -9.4523 -2.3119 0.9618
-0.1754 -9.4536 -2.3119 0.9618
-0.0585 -9.4553 -2.3119 0.9618
0.0000 -9.4556 -2.3120 0.9618
0.0585 -9.4556 -2.3120 0.9618
0.1170 -9.4552 -2.3120 0.9618
0.1754 -9.4545 -2.3121 0.9618
0.2339 -9.4534 -2.3121 0.9618
0.4092 -9.4481 -2.3123 0.9618
0.4677 -9.4456 -2.3124 0.9618
0.5261 -9.4428 -2.3124 0.9618
0.6429 -9.4361 -2.3125 0.9618
0.7596 -9.4280 -2.3127 0.9618
0.8179 -9.4235 -2.3128 0.9618
0.8762 -9.4186 -2.3129 0.9618
0.9345 -9.4133 -2.3129 0.9618
1.1091 -9.3955 -2.3132 0.9618
1.1672 -9.3889 -2.3133 0.9618
1.2253 -9.3819 -2.3134 0.9618
1.2834 -9.3746 -2.3135 0.9618
1.3414 -9.3669 -2.3136 0.9618
1.3993 -9.3588 -2.3137 0.9618
1.7461 -9.3034 -2.3145 0.9618
1.9187 -9.2711 -2.3149 0.9618
2.0335 -9.2478 -2.3152 0.9618
2.0908 -9.2357 -2.3153 0.9618
2.3193 -9.1836 -2.3160 0.9617
2.5464 -9.1261 -2.3166 0.9617
2.6030 -9.1109 -2.3168 0.9617
2.7159 -9.0794 -2.3172 0.9617
2.7723 -9.0632 -2.3174 0.9617
2.8285 -9.0466 -2.3176 0.9617
2.9407 -9.0125 -2.3179 0.9617
2.9966 -8.9949 -2.3181 0.9617
3.0525 -8.9770 -2.3183 0.9617
3.2193 -8.9212 -2.3190 0.9617
3.2747 -8.9019 -2.3192 0.9617
3.3300 -8.8823 -2.3194 0.9617
3.4952 -8.8216 -2.3201 0.9617
3.5501 -8.8007 -2.3203 0.9617
3.6594 -8.7579 -2.3208 0.9617
3.7682 -8.7137 -2.3213 0.9617
3.8225 -8.6912 -2.3215 0.9617
3.9305 -8.6451 -2.3220 0.9616
4.0380 -8.5977 -2.3225 0.9616
4.0916 -8.5735 -2.3228 0.9616
4.1450 -8.5490 -2.3230 0.9616
4.1982 -8.5242 -2.3233 0.9616
4.3572 -8.4478 -2.3241 0.9616
4.4099 -8.4217 -2.3244 0.9616
4.4624 -8.3953 -2.3247 0.9616
4.5148 -8.3685 -2.3250 0.9616
4.7228 -8.2585 -2.3261 0.9616
4.7743 -8.2301 -2.3264 0.9616
4.8257 -8.2015 -2.3267 0.9616
4.9281 -8.1433 -2.3273 0.9616
4.9790 -8.1138 -2.3276 0.9616
5.0804 -8.0537 -2.3283 0.9615
5.1308 -8.0233 -2.3286 0.9615
5.2311 -7.9614 -2.3292 0.9615
5.3306 -7.8983 -2.3299 0.9615
5.4294 -7.8340 -2.3305 0.9615
5.5275 -7.7685 -2.3312 0.9615
5.6248 -7.7018 -2.3319 0.9615
5.8647 -7.5299 -2.3336 0.9615
5.9120 -7.4946 -2.3340 0.9615
5.9592 -7.4590 -2.3344 0.9614
6.0061 -7.4232 -2.3347 0.9614
6.0994 -7.3507 -2.3355 0.9614
6.1919 -7.2770 -2.3362 0.9614
6.2834 -7.2022 -2.3370 0.9614
6.3289 -7.1644 -2.3374 0.9614
6.5084 -7.0103 -2.3389 0.9614
6.6408 -6.8919 -2.3401 0.9614
6.6844 -6.8518 -2.3405 0.9613
6.7710 -6.7710 -2.3413 0.9613
6.8566 -6.6891 -2.3421 0.9613
6.9413 -6.6061 -2.3430 0.9613
6.9833 -6.5642 -2.3434 0.9613
7.0250 -6.5221 -2.3438 0.9613
7.1077 -6.4370 -2.3447 0.9613
7.1894 -6.3509 -2.3455 0.9613
7.2299 -6.3075 -2.3459 0.9613
7.2701 -6.2638 -2.3464 0.9613
7.3100 -6.2199 -2.3468 0.9612
7.4283 -6.0866 -2.3481 0.9612
7.5824 -5.9056 -2.3499 0.9612
7.6202 -5.8597 -2.3504 0.9612
7.6578 -5.8136 -2.3508 0.9612
7.6951 -5.7672 -2.3513 0.9612
7.7689 -5.6738 -2.3522 0.9612
7.8053 -5.6268 -2.3527 0.9612
7.8416 -5.5795 -2.3531 0.9611
7.9484 -5.4363 -2.3545 0.9611
7.9835 -5.3881 -2.3550 0.9611
8.0183 -5.3397 -2.3555 0.9611
8.1209 -5.1932 -2.3569 0.9611
8.2209 -5.0448 -2.3584 0.9611
8.2862 -4.9448 -2.3594 0.9610
8.3183 -4.8945 -2.3598 0.9610
8.3501 -4.8439 -2.3603 0.9610
8.5349 -4.5366 -2.3633 0.9610
8.5646 -4.4847 -2.3638 0.9610
8.6232 -4.3803 -2.3648 0.9610
8.7085 -4.2223 -2.3664 0.9609
8.7639 -4.1160 -2.3674 0.9609
8.8446 -3.9553 -2.3690 0.9609
8.8708 -3.9014 -2.3695 0.9609
8.8967 -3.8474 -2.3700 0.9609
8.9725 -3.6841 -2.3716 0.9608
8.9971 -3.6293 -2.3721 0.9608
9.0214 -3.5744 -2.3726 0.9608
9.1152 -3.3532 -2.3748 0.9608
9.1379 -3.2975 -2.3753 0.9608
9.1821 -3.1857 -2.3764 0.9608
9.2250 -3.0732 -2.3775 0.9608
9.2459 -3.0168 -2.3780 0.9607
9.2665 -2.9603 -2.3785 0.9607
9.2868 -2.9036 -2.3791 0.9607
9.3643 -2.6754 -2.3813 0.9607
9.4189 -2.5030 -2.3829 0.9607
9.4535 -2.3874 -2.3840 0.9606
9.4703 -2.3294 -2.3846 0.9606
9.4867 -2.2713 -2.3851 0.9606
9.5028 -2.2132 -2.3857 0.9606
9.5339 -2.0964 -2.3868 0.9606
9.5489 -2.0379 -2.3873 0.9606
9.5635 -1.9793 -2.3879 0.9606
9.5778 -1.9205 -2.3885 0.9606
9.5918 -1.8617 -2.3890 0.9606
9.6186 -1.7438 -2.3901 0.9605
9.6315 -1.6846 -2.3907 0.9605
9.6561 -1.5661 -2.3918 0.9605
9.6678 -1.5067 -2.3924 0.9605
9.6792 -1.4472 -2.3930 0.9605
9.7010 -1.3280 -2.3941 0.9605
9.7113 -1.2683 -2.3947 0.9605
9.7213 -1.2085 -2.3952 0.9605
9.7401 -1.0887 -2.3964 0.9604
9.7490 -1.0287 -2.3969 0.9604
9.7733 -0.8483 -2.3986 0.9604
9.7877 -0.7277 -2.3998 0.9604
9.8065 -0.5463 -2.4015 0.9604
9.8219 -0.3646 -2.4032 0.9603
9.8263 -0.3039 -2.4038 0.9603
9.8372 -0.1217 -2.4055 0.9603
9.8427 0.0000 -2.4066 0.9603
9.8448 0.0609 -2.4072 0.9603
9.8466 0.1218 -2.4077 0.9603
9.8480 0.1827 -2.4083 0.9603
9.8498 0.4267 -2.4106 0.9602
9.8484 0.5487 -2.4117 0.9602
9.8472 0.6098 -2.4123 0.9602
9.8435 0.7318 -2.4135 0.9602
9.8352 0.9150 -2.4152 0.9601
9.8317 0.9760 -2.4157 0.9601
9.8235 1.0980 -2.4169 0.9601
9.8188 1.1591 -2.4174 0.9601
9.8138 1.2201 -2.4180 0.9601
9.8025 1.3420 -2.4191 0.9601
9.7963 1.4029 -2.4197 0.9601
9.7828 1.5246 -2.4208 0.9600
9.7596 1.7071 -2.4225 0.9600
9.7423 1.8285 -2.4237 0.9600
9.7331 1.8892 -2.4242 0.9600
9.7135 2.0103 -2.4253 0.9600
9.7031 2.0708 -2.4259 0.9600
9.6923 2.1313 -2.4265 0.9600
9.6328 2.4327 -2.4292 0.9599
9.6198 2.4928 -2.4298 0.9599
9.6064 2.5528 -2.4304 0.9599
9.5784 2.6726 -2.4315 0.9599
9.5639 2.7324 -2.4320 0.9599
9.5490 2.7922 -2.4326 0.9599
9.5337 2.8518 -2.4331 0.9599
9.5019 2.9708 -2.4342 0.9598
9.4855 3.0302 -2.4347 0.9598
9.4515 3.1487 -2.4358 0.9598
9.4340 3.2078 -2.4364 0.9598
9.4161 3.2668 -2.4369 0.9598
9.3600 3.4432 -2.4385 0.9598
9.2801 3.6769 -2.4407 0.9597
9.2592 3.7351 -2.4412 0.9597
9.2379 3.7931 -2.4417 0.9597
9.2163 3.8509 -2.4423 0.9597
9.1943 3.9087 -2.4428 0.9597
9.1492 4.0239 -2.4438 0.9597
9.1026 4.1385 -2.4449 0.9597
9.0788 4.1956 -2.4454 0.9597
9.0546 4.2526 -2.4459 0.9596
9.0300 4.3094 -2.4464 0.9596
8.9798 4.4226 -2.4475 0.9596
8.9541 4.4790 -2.4480 0.9596
8.9018 4.5913 -2.4490 0.9596
8.8479 4.7030 -2.4500 0.9596
8.7927 4.8140 -2.4510 0.9596
8.7645 4.8693 -2.4515 0.9596
8.7360 4.9244 -2.4520 0.9595
8.6780 5.0341 -2.4530 0.9595
8.6484 5.0887 -2.4535 0.9595
8.5883 5.1974 -2.4545 0.9595
8.4954 5.3590 -2.4559 0.9595
8.3004 5.6770 -2.4588 0.9594
8.2667 5.7293 -2.4593 0.9594
8.2326 5.7814 -2.4597 0.9594
8.1983 5.8333 -2.4602 0.9594
8.1636 5.8850 -2.4606 0.9594
8.0215 6.0897 -2.4625 0.9594
7.9485 6.1907 -2.4634 0.9594
7.8741 6.2908 -2.4643 0.9593
7.7216 6.4883 -2.4660 0.9593
7.6434 6.5855 -2.4669 0.9593
7.5640 6.6819 -2.4677 0.9593
7.5238 6.7297 -2.4682 0.9593
7.3201 6.6294 -2.4147 0.9601
7.1322 6.5400 -2.3661 0.9609
6.8537 6.5227 -2.3134 0.9618
6.8143 6.5661 -2.3138 0.9618
6.7747 6.6092 -2.3142 0.9618
6.6542 6.7370 -2.3153 0.9618
6.6134 6.7791 -2.3156 0.9618
6.3207 7.0666 -2.3181 0.9617
6.2778 7.1066 -2.3185 0.9617
6.1912 7.1858 -2.3192 0.9617
6.1476 7.2250 -2.3195 0.9617
6.1037 7.2640 -2.3199 0.9617
6.0595 7.3026 -2.3202 0.9617
5.9704 7.3791 -2.3209 0.9617
5.9256 7.4169 -2.3212 0.9617
5.8804 7.4545 -2.3215 0.9617
5.8350 7.4917 -2.3218 0.9617
5.6973 7.6018 -2.3228 0.9616
5.6043 7.6737 -2.3234 0.9616
5.5575 7.7092 -2.3237 0.9616
5.5104 7.7444 -2.3240 0.9616
5.4631 7.7794 -2.3243 0.9616
5.3199 7.8823 -2.3252 0.9616
5.2717 7.9160 -2.3254 0.9616
5.2233 7.9495 -2.3257 0.9616
5.1746 7.9826 -2.3260 0.9616
5.1257 8.0154 -2.3263 0.9616
5.0767 8.0479 -2.3266 0.9616
4.9779 8.1119 -2.3271 0.9616
4.8783 8.1747 -2.3276 0.9616
4.8282 8.2056 -2.3279 0.9616
4.7273 8.2665 -2.3284 0.9615
4.6766 8.2965 -2.3286 0.9615
4.5233 8.3844 -2.3294 0.9615
4.4718 8.4131 -2.3296 0.9615
4.3163 8.4971 -2.3303 0.9615
4.1590 8.5782 -2.3310 0.9615
4.1063 8.6045 -2.3312 0.9615
4.0534 8.6305 -2.3314 0.9615
3.8936 8.7065 -2.3320 0.9615
3.8400 8.7312 -2.3322 0.9615
3.7862 8.7555 -2.3324 0.9615
3.6783 8.8031 -2.3328 0.9615
3.6241 8.8264 -2.3329 0.9615
3.5151 8.8718 -2.3333 0.9615
3.4056 8.9160 -2.3336 0.9615
3.3507 8.9375 -2.3338 0.9615
3.2956 8.9587 -2.3340 0.9615
3.2404 8.9796 -2.3342 0.9615
3.0181 9.0594 -2.3348 0.9614
2.7374 9.1512 -2.3355 0.9614
2.3968 9.2493 -2.3362 0.9614
2.1101 9.3211 -2.3367 0.9614
1.9949 9.3472 -2.3369 0.9614
1.8792 9.3718 -2.3371 0.9614
1.7052 9.4059 -2.3373 0.9614
1.6470 9.4166 -2.3374 0.9614
1.5306 9.4368 -2.3375 0.9614
1.4138 9.4554 -2.3376 0.9614
1.2968 9.4726 -2.3377 0.9614
1.2382 9.4806 -2.3378 0.9614
1.1796 9.4882 -2.3378 0.9614
1.0034 9.5088 -2.3379 0.9614
0.9446 9.5150 -2.3379 0.9614
0.8268 9.5261 -2.3380 0.9614
0.7679 9.5311 -2.3380 0.9614
0.7090 9.5357 -2.3380 0.9614
0.5910 9.5438 -2.3380 0.9614
0.4729 9.5503 -2.3380 0.9614
0.4138 9.5530 -2.3380 0.9614
0.2956 9.5573 -2.3380 0.9614
0.1774 9.5600 -2.3379 0.9614
0.1183 9.5609 -2.3379 0.9614
-0.0592 9.5610 -2.3378 0.9614
-0.1183 9.5602 -2.3377 0.9614
-0.1774 9.5591 -2.3377 0.9614
-0.3546 9.5536 -2.3375 0.9614
-0.4137 9.5509 -2.3375 0.9614
-0.5318 9.5445 -2.3373 0.9614
-0.5908 9.5407 -2.3373 0.9614
-0.6498 9.5366 -2.3372 0.9614
-0.7676 9.5272 -2.3370 0.9614
-0.8265 9.5219 -2.3369 0.9614
-1.0029 9.5038 -2.3367 0.9614
-1.1202 9.4898 -2.3364 0.9614
-1.2374 9.4744 -2.3362 0.9614
-1.2959 9.4662 -2.3361 0.9614
-1.2555 8.7669 -2.1654 0.9642
-1.3555 8.6973 -2.1522 0.9644
-1.4705 8.7244 -2.1633 0.9642
-1.6457 9.4087 -2.3354 0.9614
-1.7617 9.3866 -2.3352 0.9614
-1.8775 9.3630 -2.3349 0.9614
-1.9352 9.3507 -2.3348 0.9614
-2.0505 9.3248 -2.3345 0.9614
-2.1080 9.3113 -2.3343 0.9614
-2.2799 9.2688 -2.3338 0.9615
-2.3370 9.2538 -2.3337 0.9615
-2.4509 9.2229 -2.3333 0.9615
-2.5077 9.2068 -2.3331 0.9615
-2.7900 9.1212 -2.3322 0.9615
-2.8461 9.1031 -2.3320 0.9615
-3.0137 9.0463 -2.3314 0.9615
-3.0693 9.0267 -2.3312 0.9615
-3.1248 9.0067 -2.3310 0.9615
-3.1801 8.9864 -2.3308 0.9615
-3.2354 8.9657 -2.3305 0.9615
-3.2904 8.9446 -2.3303 0.9615
-3.3453 8.9233 -2.3301 0.9615
-3.4001 8.9015 -2.3299 0.9615
-3.4548 8.8794 -2.3296 0.9615
-3.6178 8.8111 -2.3289 0.9615
-3.7257 8.7638 -2.3284 0.9615
-3.8330 8.7152 -2.3279 0.9616
-3.8864 8.6904 -2.3277 0.9616
-3.4291 7.4202 -1.9987 0.9669
-3.3508 7.0213 -1.9022 0.9685
-3.4607 6.8129 -1.8684 0.9690
-3.5544 6.8914 -1.8959 0.9686
-3.5724 6.8224 -1.8830 0.9688
-3.5789 6.7331 -1.8644 0.9691
-3.6147 6.7003 -1.8615 0.9691
-3.6297 6.6296 -1.8480 0.9694
-3.6964 6.5575 -1.8405 0.9695
-3.7735 6.5048 -1.8387 0.9695
-3.9062 6.4548 -1.8447 0.9694
-3.9782 6.4829 -1.8598 0.9692
-4.0273 6.4727 -1.8640 0.9691
-4.0636 6.3544 -1.8442 0.9694
-4.1860 6.3708 -1.8639 0.9691
-4.2546 6.3887 -1.8768 0.9689
-4.3241 6.4069 -1.8899 0.9687
-4.5737 6.6872 -1.9809 0.9672
-4.6683 6.7357 -2.0038 0.9668
-4.7362 6.7443 -2.0150 0.9666
-4.8235 6.7790 -2.0343 0.9663
-4.9761 6.8135 -2.0629 0.9659
-4.8548 6.5619 -1.9958 0.9669
-4.9112 6.5529 -2.0023 0.9668
-5.0860 6.6141 -2.0400 0.9662
-5.5066 6.8925 -2.1571 0.9643
-5.5656 6.8787 -2.1635 0.9642
-5.7687 6.9521 -2.2088 0.9635
-5.9482 7.0788 -2.2607 0.9626
-5.7733 6.7852 -2.1783 0.9640
-6.2132 7.1217 -2.3109 0.9618
-6.2560 7.0819 -2.3105 0.9618
-6.3409 7.0016 -2.3096 0.9618
-6.3830 6.9610 -2.3092 0.9619
-6.5485 6.7961 -2.3076 0.9619
-6.5892 6.7543 -2.3072 0.9619
-6.6297 6.7122 -2.3068 0.9619
-6.7493 6.5844 -2.3055 0.9619
-6.8277 6.4980 -2.3046 0.9619
-6.8665 6.4545 -2.3042 0.9619
-6.9050 6.4107 -2.3038 0.9619
-6.9811 6.3224 -2.3029 0.9620
-7.0561 6.2332 -2.3020 0.9620
-7.1663 6.0976 -2.3007 0.9620
-7.2025 6.0520 -2.3002 0.9620
-7.3092 5.9139 -2.2989 0.9620
-7.3442 5.8674 -2.2984 0.9620
-7.4132 5.7738 -2.2975 0.9620
-7.4810 5.6794 -2.2966 0.9621
-7.5145 5.6319 -2.2961 0.9621
-7.5730 5.6029 -2.3033 0.9620
-7.7004 5.6238 -2.3315 0.9615
-7.8436 5.6544 -2.3642 0.9610
-8.2313 5.7049 -2.4487 0.9596
-8.2647 5.6527 -2.4482 0.9596
-8.2978 5.6003 -2.4477 0.9596
-8.3629 5.4949 -2.4467 0.9596
-8.3950 5.4419 -2.4462 0.9596
-8.4267 5.3888 -2.4457 0.9596
-8.4581 5.3354 -2.4451 0.9597
-8.4891 5.2819 -2.4446 0.9597
-8.5198 5.2282 -2.4441 0.9597
-8.5801 5.1202 -2.4431 0.9597
-8.6097 5.0659 -2.4425 0.9597
-8.6390 5.0115 -2.4420 0.9597
-8.7249 4.8472 -2.4404 0.9597
-8.7527 4.7921 -2.4399 0.9597
-8.7803 4.7369 -2.4393 0.9598
-8.8075 4.6815 -2.4388 0.9598
-8.8608 4.5702 -2.4377 0.9598
-8.8869 4.5143 -2.4372 0.9598
-8.9381 4.4021 -2.4361 0.9598
-8.9632 4.3457 -2.4356 0.9598
-9.0122 4.2326 -2.4345 0.9598
-9.0362 4.1759 -2.4339 0.9598
-9.1059 4.0048 -2.4323 0.9599
-9.1284 3.9476 -2.4317 0.9599
-9.1506 3.8901 -2.4312 0.9599
-9.1724 3.8326 -2.4306 0.9599
-9.2149 3.7172 -2.4295 0.9599
-9.2356 3.6593 -2.4290 0.9599
-9.2759 3.5432 -2.4279 0.9599
-9.3336 3.3681 -2.4262 0.9600
-9.3521 3.3096 -2.4256 0.9600
-9.3880 3.1922 -2.4245 0.9600
-9.4053 3.1333 -2.4239 0.9600
-9.4224 3.0744 -2.4234 0.9600
-9.4390 3.0154 -2.4228 0.9600
-9.4712 2.8971 -2.4217 0.9600
-9.4867 2.8378 -2.4211 0.9600
-9.5019 2.7784 -2.4206 0.9601
-9.5450 2.5998 -2.4189 0.9601
-9.5974 2.3607 -2.4166 0.9601
-9.6096 2.3008 -2.4160 0.9601
-9.6214 2.2408 -2.4154 0.9601
-9.6438 2.1206 -2.4143 0.9602
-9.6544 2.0604 -2.4137 0.9602
-9.6647 2.0002 -2.4132 0.9602
-9.6746 1.9399 -2.4126 0.9602
-9.6841 1.8796 -2.4120 0.9602
-9.7021 1.7589 -2.4109 0.9602
-9.7104 1.6984 -2.4103 0.9602
-9.7184 1.6380 -2.4097 0.9602
-9.7333 1.5170 -2.4086 0.9602
-9.7586 1.2745 -2.4063 0.9603
-9.7690 1.1532 -2.4052 0.9603
-9.7736 1.0925 -2.4046 0.9603
-9.7853 0.9103 -2.4029 0.9603
-9.7911 0.7888 -2.4018 0.9604
-9.7971 0.6067 -2.4000 0.9604
-9.7995 0.3031 -2.3972 0.9604
-9.7965 0.1212 -2.3955 0.9605
-9.4852 -0.0587 -2.3940 0.9616
-9.4825 -0.1173 -2.3935 0.9616
-9.4794 -0.1759 -2.3929 0.9616
-9.4759 -0.2345 -2.3924 0.9617
-9.4722 -0.2930 -2.3918 0.9617
-9.4635 -0.4099 -2.3907 0.9617
-9.4419 -0.6433 -2.3886 0.9617
-9.4356 -0.7015 -2.3880 0.9617
-9.4290 -0.7597 -2.3875 0.9617
-9.4068 -0.9338 -2.3859 0.9618
-9.3429 -1.3380 -2.3821 0.9618
-9.3103 -1.5100 -2.3805 0.9618
-9.2868 -1.6243 -2.3795 0.9619
-9.2745 -1.6814 -2.3790 0.9619
-9.2619 -1.7383 -2.3784 0.9619
-9.2489 -1.7952 -2.3779 0.9619
-9.2080 -1.9652 -2.3763 0.9619
-9.1789 -2.0780 -2.3753 0.9619
-9.1486 -2.1904 -2.3743 0.9619
-9.1329 -2.2464 -2.3738 0.9619
-9.1168 -2.3024 -2.3732 0.9620
-9.1004 -2.3582 -2.3727 0.9620
-9.0837 -2.4139 -2.3722 0.9620
-9.0667 -2.4695 -2.3717 0.9620
-9.0135 -2.6356 -2.3702 0.9620
-8.9951 -2.6907 -2.3697 0.9620
-8.9380 -2.8553 -2.3682 0.9620
-8.9183 -2.9099 -2.3677 0.9620
-8.8983 -2.9644 -2.3672 0.9620
-8.8572 -3.0729 -2.3662 0.9621
-8.8362 -3.1270 -2.3657 0.9621
-8.8149 -3.1809 -2.3652 0.9621
-8.7712 -3.2884 -2.3642 0.9621
-8.7489 -3.3418 -2.3637 0.9621
-8.7033 -3.4484 -2.3628 0.9621
-8.6565 -3.5543 -2.3618 0.9621
-8.5838 -3.7120 -2.3604 0.9622
-8.5084 -3.8683 -2.3590 0.9622
-8.4826 -3.9201 -2.3585 0.9622
-8.4301 -4.0231 -2.3576 0.9622
-8.2081 -4.4282 -2.3539 0.9623
-8.1199 -4.5771 -2.3526 0.9623
-8.0900 -4.6264 -2.3521 0.9623
-8.0292 -4.7243 -2.3512 0.9623
-7.9983 -4.7730 -2.3508 0.9623
-7.9357 -4.8697 -2.3499 0.9623
-7.9040 -4.9179 -2.3495 0.9623
-7.8720 -4.9657 -2.3491 0.9623
-7.8397 -5.0134 -2.3487 0.9623
-7.8072 -5.0609 -2.3482 0.9623
-7.7743 -5.1082 -2.3478 0.9624
-7.7412 -5.1552 -2.3474 0.9624
-7.6741 -5.2487 -2.3466 0.9624
-7.6059 -5.3413 -2.3457 0.9624
-7.5715 -5.3873 -2.3453 0.9624
-7.5016 -5.4787 -2.3445 0.9624
-7.4663 -5.5240 -2.3441 0.9624
-7.4307 -5.5691 -2.3437 0.9624
-7.3588 -5.6587 -2.3429 0.9624
-7.2489 -5.7913 -2.3417 0.9624
-7.1367 -5.9219 -2.3406 0.9625
-7.0988 -5.9649 -2.3402 0.9625
-7.0606 -6.0077 -2.3398 0.9625
-7.0222 -6.0503 -2.3395 0.9625
-6.8661 -6.2183 -2.3380 0.9625
-6.7464 -6.3416 -2.3369 0.9625
-6.7061 -6.3823 -2.3366 0.9625
-6.6655 -6.4227 -2.3362 0.9625
-6.5423 -6.5423 -2.3352 0.9626
-6.5007 -6.5817 -2.3348 0.9626
-6.3748 -6.6982 -2.3338 0.9626
-6.2467 -6.8124 -2.3328 0.9626
-6.2036 -6.8500 -2.3325 0.9626
-6.1603 -6.8873 -2.3322 0.9626
-5.9848 -7.0337 -2.3309 0.9626
-5.8060 -7.1758 -2.3297 0.9626
-5.7153 -7.2453 -2.3291 0.9626
-5.6697 -7.2795 -2.3288 0.9627
-5.5778 -7.3473 -2.3282 0.9627
-5.5316 -7.3807 -2.3279 0.9627
-5.4852 -7.4139 -2.3277 0.9627
-5.4386 -7.4468 -2.3274 0.9627
-5.3918 -7.4794 -2.3271 0.9627
-5.3448 -7.5117 -2.3268 0.9627
-5.2977 -7.5437 -2.3266 0.9627
-5.2503 -7.5755 -2.3263 0.9627
-5.2027 -7.6070 -2.3260 0.9627
-5.1550 -7.6381 -2.3258 0.9627
-5.0108 -7.7299 -2.3250 0.9627
-4.8650 -7.8190 -2.3243 0.9627
-4.7176 -7.9055 -2.3235 0.9627
-4.6185 -7.9616 -2.3231 0.9627
-4.4688 -8.0436 -2.3224 0.9628
-4.4185 -8.0703 -2.3222 0.9628
-4.2669 -8.1487 -2.3215 0.9628
-4.1650 -8.1994 -2.3211 0.9628
-4.1139 -8.2242 -2.3209 0.9628
-4.0626 -8.2488 -2.3207 0.9628
-3.8041 -8.3671 -2.3198 0.9628
-3.6998 -8.4122 -2.3194 0.9628
-3.6474 -8.4343 -2.3193 0.9628
-3.5423 -8.4775 -2.3189 0.9628
-3.4895 -8.4987 -2.3187 0.9628
-3.3837 -8.5400 -2.3184 0.9628
-3.3306 -8.5602 -2.3183 0.9628
-3.2774 -8.5800 -2.3181 0.9628
-3.1706 -8.6188 -2.3178 0.9628
-3.1170 -8.6377 -2.3177 0.9628
-3.0096 -8.6746 -2.3174 0.9628
-2.9017 -8.7101 -2.3171 0.9628
-2.5758 -8.8090 -2.3164 0.9628
-2.5212 -8.8244 -2.3163 0.9628
-2.4664 -8.8394 -2.3162 0.9628
-2.4116 -8.8541 -2.3161 0.9629
-2.1915 -8.9096 -2.3157 0.9629
-2.0810 -8.9353 -2.3155 0.9629
-1.9702 -8.9597 -2.3154 0.9629
-1.9147 -8.9715 -2.3153 0.9629
-1.6362 -9.0251 -2.3150 0.9629
-1.4683 -9.0533 -2.3148 0.9629
-1.4123 -9.0620 -2.3148 0.9629
-1.2439 -9.0862 -2.3146 0.9629
-1.1877 -9.0936 -2.3146 0.9629
-0.9059 -9.1254 -2.3145 0.9629
-0.8494 -9.1308 -2.3145 0.9629
-0.6233 -9.1489 -2.3144 0.9629
-0.5101 -9.1559 -2.3145 0.9629
-0.3968 -9.1616 -2.3145 0.9629
-0.3402 -9.1639 -2.3145 0.9629
-0.2835 -9.1659 -2.3145 0.9629
-0.1701 -9.1689 -2.3145 0.9629
-0.0567 -9.1705 -2.3146 0.9629
0.0567 -9.1708 -2.3147 0.9629
0.1134 -9.1704 -2.3147 0.9629
0.2269 -9.1687 -2.3148 0.9629
0.2835 -9.1673 -2.3148 0.9629
0.4536 -9.1611 -2.3150 0.9629
0.5103 -9.1584 -2.3151 0.9629
0.5669 -9.1553 -2.3151 0.9629
0.6236 -9.1519 -2.3152 0.9629
0.6802 -9.1481 -2.3153 0.9629
0.7367 -9.1440 -2.3153 0.9629
0.8498 -9.1348 -2.3155 0.9629
0.9628 -9.1243 -2.3157 0.9629
1.0192 -9.1185 -2.3158 0.9629
1.0757 -9.1124 -2.3158 0.9629
1.1320 -9.1059 -2.3159 0.9629
1.3009 -9.0846 -2.3162 0.9628
1.3572 -9.0768 -2.3164 0.9628
1.4134 -9.0686 -2.3165 0.9628
1.4694 -9.0602 -2.3166 0.9628
1.6375 -9.0328 -2.3169 0.9628
1.9166 -8.9804 -2.3176 0.9628
2.0278 -8.9571 -2.3179 0.9628
2.0833 -8.9450 -2.3180 0.9628
2.1387 -8.9325 -2.3182 0.9628
2.1940 -8.9197 -2.3183 0.9628
2.2493 -8.9066 -2.3185 0.9628
2.3045 -8.8931 -2.3187 0.9628
2.3596 -8.8793 -2.3188 0.9628
2.4146 -8.8652 -2.3190 0.9628
2.5792 -8.8208 -2.3195 0.9628
2.6340 -8.8054 -2.3197 0.9628
2.6886 -8.7896 -2.3199 0.9628
2.7976 -8.7571 -2.3202 0.9628
2.8519 -8.7404 -2.3204 0.9628
2.9061 -8.7233 -2.3206 0.9628
3.1758 -8.6330 -2.3216 0.9628
3.2294 -8.6140 -2.3219 0.9628
3.4958 -8.5141 -2.3230 0.9627
3.6543 -8.4503 -2.3237 0.9627
3.7593 -8.4062 -2.3241 0.9627
3.8638 -8.3608 -2.3246 0.9627
3.9158 -8.3376 -2.3249 0.9627
4.0712 -8.2663 -2.3256 0.9627
4.2763 -8.1668 -2.3267 0.9627
4.4287 -8.0889 -2.3275 0.9627
4.5797 -8.0083 -2.3284 0.9627
4.7292 -7.9249 -2.3292 0.9626
4.8773 -7.8388 -2.3301 0.9626
4.9264 -7.8095 -2.3304 0.9626
4.9752 -7.7799 -2.3308 0.9626
5.0239 -7.7501 -2.3311 0.9626
5.2169 -7.6276 -2.3323 0.9626
5.5009 -7.4351 -2.3343 0.9626
5.6404 -7.3350 -2.3353 0.9625
5.6864 -7.3010 -2.3357 0.9625
5.9588 -7.0915 -2.3378 0.9625
6.0480 -7.0195 -2.3385 0.9625
6.0922 -6.9830 -2.3389 0.9625
6.1362 -6.9463 -2.3393 0.9625
6.2671 -6.8346 -2.3404 0.9625
6.3102 -6.7968 -2.3408 0.9625
6.3532 -6.7587 -2.3412 0.9625
6.3959 -6.7204 -2.3416 0.9624
6.4807 -6.6430 -2.3423 0.9624
6.5228 -6.6039 -2.3427 0.9624
6.5646 -6.5646 -2.3431 0.9624
6.6062 -6.5250 -2.3435 0.9624
6.6475 -6.4850 -2.3439 0.9624
6.6886 -6.4449 -2.3443 0.9624
6.7702 -6.3639 -2.3451 0.9624
6.8508 -6.2819 -2.3459 0.9624
6.8907 -6.2405 -2.3464 0.9624
6.9304 -6.1989 -2.3468 0.9624
6.9698 -6.1570 -2.3472 0.9624
7.0480 -6.0725 -2.3480 0.9623
7.1251 -5.9870 -2.3489 0.9623
7.3870 -5.6804 -2.3519 0.9623
7.4234 -5.6356 -2.3523 0.9623
7.4595 -5.5907 -2.3528 0.9623
7.5310 -5.5001 -2.3537 0.9623
7.5663 -5.4544 -2.3541 0.9623
7.6361 -5.3625 -2.3550 0.9622
7.7387 -5.2229 -2.3564 0.9622
7.7725 -5.1760 -2.3569 0.9622
7.9043 -4.9861 -2.3587 0.9622
8.0316 -4.7929 -2.3606 0.9621
8.0628 -4.7441 -2.3611 0.9621
8.1843 -4.5469 -2.3630 0.9621
8.2140 -4.4971 -2.3635 0.9621
8.2724 -4.3970 -2.3645 0.9621
8.3011 -4.3467 -2.3650 0.9621
8.4131 -4.1435 -2.3669 0.9621
8.5202 -3.9374 -2.3689 0.9620
8.5462 -3.8855 -2.3694 0.9620
8.5718 -3.8334 -2.3699 0.9620
8.5972 -3.7811 -2.3704 0.9620
8.6223 -3.7287 -2.3709 0.9620
8.6470 -3.6761 -2.3715 0.9620
8.6714 -3.6233 -2.3720 0.9620
8.6956 -3.5704 -2.3725 0.9620
8.7194 -3.5173 -2.3730 0.9620
8.8113 -3.3034 -2.3750 0.9619
8.9797 -2.8686 -2.3792 0.9619
8.9992 -2.8137 -2.3797 0.9618
9.0373 -2.7034 -2.3808 0.9618
9.0559 -2.6480 -2.3813 0.9618
9.0741 -2.5925 -2.3819 0.9618
9.1096 -2.4812 -2.3829 0.9618
9.1268 -2.4253 -2.3835 0.9618
9.1437 -2.3694 -2.3840 0.9618
9.1922 -2.2008 -2.3856 0.9618
9.2229 -2.0879 -2.3867 0.9617
9.2377 -2.0313 -2.3872 0.9617
9.2522 -1.9746 -2.3878 0.9617
9.2664 -1.9178 -2.3883 0.9617
9.2936 -1.8038 -2.3894 0.9617
9.3438 -1.5749 -2.3916 0.9617
9.3555 -1.5174 -2.3921 0.9617
9.3669 -1.4598 -2.3926 0.9616
9.3885 -1.3445 -2.3937 0.9616
9.3988 -1.2867 -2.3943 0.9616
9.4087 -1.2288 -2.3948 0.9616
9.4364 -1.0548 -2.3965 0.9616
9.4530 -0.9384 -2.3976 0.9616
9.4608 -0.8801 -2.3981 0.9616
9.4683 -0.8218 -2.3987 0.9616
9.4820 -0.7050 -2.3998 0.9615
9.4944 -0.5879 -2.4009 0.9615
9.5001 -0.5293 -2.4014 0.9615
9.5102 -0.4120 -2.4025 0.9615
9.5190 -0.2944 -2.4036 0.9615
9.5294 -0.1178 -2.4053 0.9614
9.5345 0.0000 -2.4064 0.9614
9.5365 0.0590 -2.4070 0.9614
9.5382 0.1180 -2.4075 0.9614
9.5403 0.2361 -2.4086 0.9614
9.5409 0.2951 -2.4092 0.9614
9.5411 0.3542 -2.4097 0.9614
9.5365 0.6497 -2.4125 0.9613
9.5262 0.8862 -2.4147 0.9613
9.5227 0.9454 -2.4153 0.9613
9.5051 1.1817 -2.4175 0.9613
9.4941 1.2997 -2.4186 0.9612
9.4880 1.3587 -2.4191 0.9612
9.4748 1.4766 -2.4202 0.9612
9.4676 1.5355 -2.4207 0.9612
9.4600 1.5944 -2.4213 0.9612
9.4521 1.6533 -2.4218 0.9612
9.4438 1.7121 -2.4224 0.9612
9.4352 1.7709 -2.4229 0.9612
9.4070 1.9469 -2.4246 0.9611
9.3969 2.0055 -2.4251 0.9611
9.3756 2.1225 -2.4262 0.9611
9.3644 2.1809 -2.4267 0.9611
9.3528 2.2392 -2.4273 0.9611
9.3285 2.3558 -2.4283 0.9611
9.3158 2.4140 -2.4289 0.9611
9.3027 2.4721 -2.4294 0.9611
9.2893 2.5302 -2.4299 0.9611
9.2320 2.7616 -2.4321 0.9610
9.2167 2.8192 -2.4326 0.9610
9.2011 2.8768 -2.4331 0.9610
9.1851 2.9343 -2.4337 0.9610
9.1688 2.9917 -2.4342 0.9610
9.1521 3.0490 -2.4347 0.9610
9.1350 3.1062 -2.4352 0.9610
9.1176 3.1633 -2.4358 0.9610
9.0817 3.2773 -2.4368 0.9610
9.0632 3.3340 -2.4373 0.9609
9.0443 3.3908 -2.4378 0.9609
9.0251 3.4474 -2.4384 0.9609
9.0055 3.5038 -2.4389 0.9609
8.9856 3.5602 -2.4394 0.9609
8.9236 3.7287 -2.4409 0.9609
8.9022 3.7846 -2.4414 0.9609
8.8584 3.8960 -2.4425 0.9609
8.8132 4.0069 -2.4435 0.9608
8.7901 4.0622 -2.4440 0.9608
8.7666 4.1173 -2.4445 0.9608
8.7427 4.1723 -2.4450 0.9608
8.7186 4.2271 -2.4455 0.9608
8.6439 4.3908 -2.4470 0.9608
8.5661 4.5532 -2.4484 0.9608
8.4575 4.7674 -2.4504 0.9607
8.4012 4.8735 -2.4513 0.9607
8.3141 5.0315 -2.4527 0.9607
8.1934 5.2396 -2.4546 0.9607
8.1624 5.2912 -2.4551 0.9607
8.1311 5.3425 -2.4555 0.9607
8.0674 5.4447 -2.4565 0.9606
7.9694 5.5966 -2.4578 0.9606
7.8685 5.7466 -2.4592 0.9606
7.8342 5.7962 -2.4596 0.9606
7.7996 5.8456 -2.4600 0.9606
7.7647 5.8947 -2.4605 0.9606
7.6939 5.9924 -2.4614 0.9606
7.4741 6.2802 -2.4639 0.9605
7.3983 6.3744 -2.4647 0.9605
7.3600 6.4210 -2.4652 0.9605
7.3214 6.4675 -2.4656 0.9605
7.2824 6.5138 -2.4660 0.9605
6.9134 6.4185 -2.3810 0.9618
6.7441 6.3395 -2.3361 0.9625
6.5955 6.3552 -2.3117 0.9629
6.5571 6.3969 -2.3120 0.9629
6.5184 6.4383 -2.3124 0.9629
6.4403 6.5205 -2.3131 0.9629
6.4008 6.5612 -2.3135 0.9629
6.2808 6.6819 -2.3145 0.9629
6.1996 6.7610 -2.3152 0.9629
6.1586 6.8002 -2.3156 0.9629
6.0340 6.9164 -2.3166 0.9628
5.9497 6.9924 -2.3172 0.9628
5.9071 7.0301 -2.3176 0.9628
5.8644 7.0675 -2.3179 0.9628
5.8214 7.1046 -2.3182 0.9628
5.6909 7.2143 -2.3191 0.9628
5.6469 7.2503 -2.3194 0.9628
5.6027 7.2861 -2.3198 0.9628
5.5136 7.3567 -2.3204 0.9628
5.4236 7.4262 -2.3210 0.9628
5.3782 7.4606 -2.3213 0.9628
5.3327 7.4946 -2.3215 0.9628
5.1946 7.5951 -2.3224 0.9628
5.1482 7.6280 -2.3227 0.9627
5.1015 7.6606 -2.3229 0.9627
4.9603 7.7566 -2.3238 0.9627
4.9128 7.7880 -2.3240 0.9627
4.8172 7.8500 -2.3245 0.9627
4.6722 7.9405 -2.3253 0.9627
4.5255 8.0284 -2.3260 0.9627
4.4268 8.0854 -2.3265 0.9627
4.3771 8.1134 -2.3267 0.9627
4.3273 8.1411 -2.3270 0.9627
4.2772 8.1685 -2.3272 0.9627
4.0754 8.2749 -2.3281 0.9627
3.9222 8.3513 -2.3287 0.9627
3.8709 8.3761 -2.3289 0.9626
3.8193 8.4006 -2.3291 0.9626
3.7157 8.4486 -2.3295 0.9626
3.6637 8.4721 -2.3296 0.9626
3.6115 8.4953 -2.3298 0.9626
3.5592 8.5181 -2.3300 0.9626
3.4541 8.5628 -2.3304 0.9626
3.2953 8.6272 -2.3309 0.9626
3.1888 8.6685 -2.3312 0.9626
3.1354 8.6887 -2.3313 0.9626
2.8662 8.7843 -2.3321 0.9626
2.5940 8.8712 -2.3328 0.9626
2.5392 8.8876 -2.3329 0.9626
2.4294 8.9192 -2.3331 0.9626
2.2638 8.9640 -2.3335 0.9626
2.1529 8.9921 -2.3337 0.9626
2.0974 9.0056 -2.3338 0.9626
1.8742 9.0561 -2.3341 0.9626
1.8183 9.0678 -2.3342 0.9626
1.7622 9.0792 -2.3343 0.9626
1.7061 9.0902 -2.3343 0.9626
1.6499 9.1008 -2.3344 0.9626
1.5936 9.1111 -2.3345 0.9626
1.5373 9.1210 -2.3345 0.9626
1.4809 9.1306 -2.3346 0.9626
1.4245 9.1398 -2.3346 0.9626
1.3679 9.1486 -2.3347 0.9626
1.3114 9.1571 -2.3347 0.9626
1.2547 9.1652 -2.3348 0.9626
1.1980 9.1730 -2.3348 0.9626
1.1413 9.1804 -2.3349 0.9626
1.0277 9.1940 -2.3349 0.9626
0.9708 9.2003 -2.3350 0.9626
0.8570 9.2118 -2.3350 0.9626
0.8000 9.2170 -2.3350 0.9626
0.7430 9.2218 -2.3350 0.9626
0.6860 9.2263 -2.3350 0.9626
0.5147 9.2374 -2.3351 0.9626
0.4575 9.2404 -2.3351 0.9626
0.4004 9.2430 -2.3350 0.9626
0.2860 9.2472 -2.3350 0.9626
-0.0572 9.2507 -2.3348 0.9626
-0.1716 9.2490 -2.3348 0.9626
-0.3431 9.2436 -2.3346 0.9626
-0.4574 9.2382 -2.3345 0.9626
-0.5716 9.2313 -2.3343 0.9626
-0.6857 9.2229 -2.3342 0.9626
-0.7997 9.2131 -2.3340 0.9626
-0.8566 9.2076 -2.3339 0.9626
-0.9135 9.2018 -2.3339 0.9626
-0.9703 9.1956 -2.3338 0.9626
-1.0271 9.1890 -2.3337 0.9626
-1.1146 8.9660 -2.2803 0.9634
-1.1547 8.8413 -2.2504 0.9639
-1.2506 8.7332 -2.2267 0.9643
-1.3002 8.6958 -2.2191 0.9644
-1.3518 8.6740 -2.2157 0.9644
-1.4071 8.6757 -2.2183 0.9644
-1.4653 8.6940 -2.2252 0.9643
-1.5226 8.7051 -2.2304 0.9642
-1.6330 8.7005 -2.2343 0.9641
-1.7607 9.0712 -2.3322 0.9626
-1.8167 9.0596 -2.3321 0.9626
-1.8725 9.0477 -2.3319 0.9626
-2.0397 9.0097 -2.3315 0.9626
-2.0952 8.9963 -2.3313 0.9626
-2.2060 8.9685 -2.3310 0.9626
-2.2613 8.9541 -2.3309 0.9626
-2.4265 8.9087 -2.3304 0.9626
-2.5361 8.8766 -2.3300 0.9626
-2.6997 8.8260 -2.3295 0.9626
-2.8623 8.7722 -2.3289 0.9626
-2.9700 8.7346 -2.3285 0.9627
-3.0237 8.7153 -2.3283 0.9627
-3.1307 8.6756 -2.3279 0.9627
-3.3431 8.5923 -2.3270 0.9627
-3.5009 8.5263 -2.3263 0.9627
-3.7091 8.4336 -2.3253 0.9627
-3.3034 7.3867 -2.0423 0.9672
-3.8124 8.3852 -2.3248 0.9627
-3.3607 7.0423 -1.9694 0.9683
-3.4021 7.0169 -1.9682 0.9683
-3.4352 6.9750 -1.9623 0.9684
-3.4570 6.9111 -1.9503 0.9686
-3.5548 6.8921 -1.9572 0.9685
-3.5489 6.7775 -1.9309 0.9689
-3.6248 6.6206 -1.9050 0.9693
-3.4244 6.1637 -1.7796 0.9713
-3.6995 6.5631 -1.9015 0.9694
-3.7376 6.4430 -1.8800 0.9697
-3.8415 6.5288 -1.9119 0.9692
-4.5382 6.4623 -1.9930 0.9679
-4.8238 6.7794 -2.1000 0.9663
-4.8860 6.7777 -2.1088 0.9661
-4.9723 6.8084 -2.1278 0.9658
-4.8547 6.5618 -2.0601 0.9669
-4.9106 6.5521 -2.0666 0.9668
-5.0859 6.6140 -2.1058 0.9662
-5.4173 6.8675 -2.2076 0.9646
-5.4132 6.6905 -2.1721 0.9651
-5.7433 6.9215 -2.2700 0.9636
-5.9721 6.9315 -2.3092 0.9630
-6.0139 6.8933 -2.3088 0.9630
-6.0554 6.8548 -2.3085 0.9630
-6.1376 6.7771 -2.3077 0.9630
-6.2591 6.6586 -2.3065 0.9630
-6.3388 6.5785 -2.3057 0.9630
-6.3782 6.5380 -2.3053 0.9630
-6.4950 6.4151 -2.3041 0.9630
-6.5714 6.3320 -2.3032 0.9631
-6.6468 6.2480 -2.3024 0.9631
-6.7943 6.0772 -2.3007 0.9631
-6.8306 6.0339 -2.3003 0.9631
-6.8665 5.9905 -2.2999 0.9631
-7.0072 5.8144 -2.2981 0.9631
-7.0417 5.7699 -2.2977 0.9631
-7.0759 5.7251 -2.2972 0.9631
-7.1098 5.6802 -2.2968 0.9632
-7.2098 5.5441 -2.2955 0.9632
-7.2752 5.5231 -2.3054 0.9630
-7.5336 5.5738 -2.3652 0.9621
-7.9035 5.6236 -2.4482 0.9608
-7.9692 5.5232 -2.4472 0.9608
-8.0655 5.3712 -2.4457 0.9608
-8.0968 5.3201 -2.4452 0.9608
-8.1279 5.2688 -2.4447 0.9608
-8.1587 5.2174 -2.4442 0.9608
-8.3075 4.9576 -2.4417 0.9609
-8.3363 4.9050 -2.4412 0.9609
-8.3928 4.7996 -2.4402 0.9609
-8.4750 4.6401 -2.4386 0.9609
-8.5017 4.5866 -2.4381 0.9609
-8.5281 4.5330 -2.4376 0.9609
-8.5799 4.4253 -2.4365 0.9610
-8.6549 4.2626 -2.4350 0.9610
-8.6792 4.2081 -2.4345 0.9610
-8.7956 3.9335 -2.4318 0.9610
-8.8178 3.8781 -2.4313 0.9610
-8.8397 3.8227 -2.4307 0.9610
-8.8613 3.7672 -2.4302 0.9611
-8.8825 3.7114 -2.4297 0.9611
-8.9033 3.6557 -2.4291 0.9611
-8.9237 3.5997 -2.4286 0.9611
-8.9830 3.4313 -2.4270 0.9611
-9.1088 3.0345 -2.4232 0.9612
-9.1416 2.9203 -2.4221 0.9612
-9.1574 2.8631 -2.4216 0.9612
-9.1728 2.8058 -2.4210 0.9612
-9.2027 2.6909 -2.4199 0.9612
-9.2171 2.6334 -2.4194 0.9612
-9.2311 2.5757 -2.4188 0.9612
-9.2447 2.5180 -2.4183 0.9612
-9.2580 2.4602 -2.4177 0.9613
-9.2709 2.4024 -2.4172 0.9613
-9.2957 2.2865 -2.4161 0.9613
-9.3075 2.2285 -2.4155 0.9613
-9.3301 2.1122 -2.4144 0.9613
-9.3513 1.9957 -2.4133 0.9613
-9.3709 1.8791 -2.4122 0.9613
-9.3977 1.7037 -2.4106 0.9614
-9.4060 1.6452 -2.4100 0.9614
-9.4212 1.5280 -2.4089 0.9614
-9.4283 1.4694 -2.4084 0.9614
-9.4414 1.3521 -2.4072 0.9614
-9.4475 1.2933 -2.4067 0.9614
-9.4531 1.2346 -2.4061 0.9614
-9.4584 1.1759 -2.4056 0.9614
-9.4793 0.8819 -2.4028 0.9615
-9.4824 0.8230 -2.4023 0.9615
-9.4875 0.7054 -2.4012 0.9615
-9.4924 0.5289 -2.3995 0.9615
-9.4933 0.4700 -2.3990 0.9615
-9.4939 0.4113 -2.3984 0.9616
-9.4940 0.3524 -2.3979 0.9616
-9.4939 0.2937 -2.3973 0.9616
-9.4933 0.2349 -2.3968 0.9616
-9.4895 0.0587 -2.3951 0.9616
-9.1998 0.0000 -2.3947 0.9627
-9.1950 -0.1137 -2.3937 0.9627
-9.1921 -0.1705 -2.3931 0.9627
-9.1852 -0.2841 -2.3921 0.9627
-9.1724 -0.4541 -2.3905 0.9628
-9.1673 -0.5108 -2.3900 0.9628
