ply
format ascii 1.0
element vertex 1519
property float32 x
property float32 y
property float32 z
property float32 I
end_header
-1.5601 12.5490 -0.0280 0.9507
-1.6433 12.5825 -0.0281 0.9505
-1.7272 12.6163 -0.0282 0.9503
-1.8116 12.6503 -0.0283 0.9502
-2.0685 12.7538 -0.0286 0.9496
-2.2431 12.8241 -0.0289 0.9493
-2.3314 12.8596 -0.0290 0.9491
-2.4203 12.8954 -0.0291 0.9489
-3.3496 13.9903 -0.0319 0.9441
-2.3610 8.8845 -0.0204 0.9639
-3.8674 14.1988 -0.0326 0.9428
-4.0813 14.2850 -0.0329 0.9423
-4.5218 14.4624 -0.0336 0.9412
-4.6347 14.5079 -0.0338 0.9409
-4.7487 14.5538 -0.0339 0.9406
-3.9816 11.9515 -0.0279 0.9509
-4.0037 11.5397 -0.0271 0.9523
-4.0620 11.4781 -0.0270 0.9525
-4.1775 11.3560 -0.0268 0.9528
-4.3051 11.2706 -0.0267 0.9529
-4.4648 11.2685 -0.0269 0.9527
-4.5452 11.2675 -0.0269 0.9526
-4.7267 11.3122 -0.0272 0.9521
-4.8708 11.4573 -0.0276 0.9514
-6.6196 15.3074 -0.0370 0.9355
-6.7565 15.3625 -0.0372 0.9351
-7.0357 15.4750 -0.0377 0.9343
-7.3221 15.5904 -0.0382 0.9334
-7.4682 15.6492 -0.0384 0.9330
-7.6163 15.7089 -0.0387 0.9326
-7.7665 15.7693 -0.0390 0.9321
-7.9187 15.8306 -0.0392 0.9316
-8.0730 15.8928 -0.0395 0.9312
-8.2296 15.9559 -0.0398 0.9307
-8.7132 16.1506 -0.0407 0.9292
-9.0476 16.2853 -0.0413 0.9282
-9.2187 16.3543 -0.0416 0.9277
-9.3925 16.4243 -0.0419 0.9271
-9.9306 16.6410 -0.0429 0.9254
-10.3041 16.7914 -0.0437 0.9242
-10.4956 16.8686 -0.0440 0.9236
-10.8885 17.0268 -0.0448 0.9223
-9.0259 13.9238 -0.0368 0.9358
-9.0196 13.7273 -0.0364 0.9364
-9.0430 13.5792 -0.0362 0.9368
-9.1139 13.5039 -0.0361 0.9369
-9.2552 13.3541 -0.0360 0.9371
-9.4753 13.3167 -0.0362 0.9367
-9.5986 13.3149 -0.0364 0.9365
-9.8189 13.4444 -0.0369 0.9356
-12.6062 17.0387 -0.0470 0.9187
-13.2796 17.2695 -0.0483 0.9165
-13.5284 17.3697 -0.0488 0.9157
-15.7754 19.9982 -0.0565 0.9031
-15.8563 19.8472 -0.0563 0.9034
-12.2321 15.1181 -0.0431 0.9252
-12.2990 14.8220 -0.0427 0.9259
-12.5958 14.6192 -0.0428 0.9257
-18.7105 20.6599 -0.0618 0.8945
-19.1836 20.9207 -0.0629 0.8927
-20.2548 21.2825 -0.0651 0.8891
-21.1243 21.6534 -0.0670 0.8860
-21.5610 21.8293 -0.0680 0.8845
-22.0103 22.0103 -0.0690 0.8829
-23.1472 22.5816 -0.0717 0.8787
-23.8448 22.6933 -0.0730 0.8766
-50.1883 46.0208 -0.1509 0.7616
-50.3605 45.0449 -0.1497 0.7632
-16.6150 14.6774 -0.0491 0.9151
-50.6910 44.2243 -0.1491 0.7641
-50.8552 43.8166 -0.1488 0.7645
-51.1816 43.0064 -0.1482 0.7654
-51.3437 42.6038 -0.1479 0.7658
-51.5053 42.2027 -0.1476 0.7662
-51.8265 41.4052 -0.1470 0.7669
-51.9862 41.0087 -0.1467 0.7673
-55.5939 41.1314 -0.1533 0.7583
-18.3879 11.7588 -0.0484 0.9164
-47.2559 29.4025 -0.1233 0.8004
-66.5163 1.6458 -0.1475 0.7663
-67.9688 1.2612 -0.1507 0.7619
-66.4064 -1.6430 -0.6404 0.7667
-66.2928 -2.8716 -0.6397 0.7669
-65.3843 -3.2374 -0.6311 0.7696
-62.7989 -4.2786 -0.6069 0.7774
-63.0746 -6.2615 -0.6111 0.7760
-63.4894 -7.4945 -0.6164 0.7743
-63.6583 -7.9139 -0.6185 0.7737
-63.9997 -8.7615 -0.6228 0.7723
-64.1721 -9.1897 -0.6250 0.7716
-64.5209 -10.0555 -0.6296 0.7701
-64.6971 -10.4933 -0.6319 0.7694
-64.8850 -10.9359 -0.6344 0.7686
-65.2546 -11.8300 -0.6394 0.7670
-37.4037 -10.4366 -0.3744 0.8561
-37.6895 -11.0206 -0.3786 0.8546
-37.6537 -11.7727 -0.3804 0.8540
-37.2827 -11.9103 -0.3773 0.8551
-36.8660 -12.0289 -0.3739 0.8563
-36.5403 -12.1731 -0.3713 0.8572
-34.5786 -11.9968 -0.3529 0.8638
-34.6180 -12.2508 -0.3540 0.8634
-34.5304 -12.9456 -0.3554 0.8628
-34.1870 -13.0585 -0.3528 0.8638
-33.5524 -13.2939 -0.3480 0.8656
-32.9350 -13.5230 -0.3433 0.8673
-32.3340 -13.7459 -0.3387 0.8689
-32.0393 -13.8553 -0.3365 0.8697
-31.4613 -14.0697 -0.3323 0.8712
-30.8977 -14.2788 -0.3282 0.8727
-30.6210 -14.3814 -0.3262 0.8734
-30.3477 -14.4828 -0.3242 0.8741
-30.0777 -14.5829 -0.3223 0.8748
-29.5471 -14.7798 -0.3185 0.8762
-29.0285 -14.9721 -0.3149 0.8775
-28.7736 -15.0667 -0.3131 0.8782
-28.5216 -15.1602 -0.3114 0.8788
-28.2723 -15.2527 -0.3097 0.8794
-28.0257 -15.3441 -0.3080 0.8800
-27.5404 -15.5242 -0.3048 0.8812
-26.8311 -15.7874 -0.3001 0.8829
-26.5994 -15.8733 -0.2986 0.8835
-26.3700 -15.9584 -0.2972 0.8840
-26.1429 -16.0426 -0.2957 0.8845
-25.6952 -16.2087 -0.2929 0.8856
-25.2558 -16.3717 -0.2902 0.8866
-24.8245 -16.5317 -0.2875 0.8875
-24.1917 -16.7663 -0.2838 0.8889
-23.7790 -16.9194 -0.2814 0.8898
-23.3731 -17.0700 -0.2790 0.8907
-23.1727 -17.1444 -0.2779 0.8911
-22.9738 -17.2181 -0.2768 0.8915
-22.1940 -17.5075 -0.2725 0.8931
-21.8129 -17.6488 -0.2705 0.8938
-21.4373 -17.7882 -0.2686 0.8946
-21.2516 -17.8571 -0.2676 0.8949
-21.0671 -17.9255 -0.2667 0.8953
-20.5213 -18.1280 -0.2640 0.8963
-20.3417 -18.1947 -0.2631 0.8966
-20.1634 -18.2608 -0.2623 0.8969
-19.9862 -18.3266 -0.2614 0.8972
-19.8101 -18.3919 -0.2606 0.8975
-19.4611 -18.5213 -0.2590 0.8981
-19.2882 -18.5855 -0.2582 0.8984
-19.1165 -18.6494 -0.2575 0.8987
-18.6069 -18.8385 -0.2553 0.8995
-18.4389 -18.9008 -0.2546 0.8998
-17.7761 -19.1467 -0.2519 0.9008
-17.2878 -19.3279 -0.2500 0.9015
-16.2209 -18.5928 -0.2379 0.9060
-16.6477 -19.5654 -0.2477 0.9023
-16.3320 -19.6825 -0.2466 0.9028
-15.8636 -19.8563 -0.2450 0.9033
-15.5545 -19.9709 -0.2441 0.9037
-15.4008 -20.0279 -0.2436 0.9039
-15.2478 -20.0848 -0.2431 0.9040
-15.0953 -20.1413 -0.2427 0.9042
-14.9434 -20.1977 -0.2422 0.9044
-14.6411 -20.3098 -0.2414 0.9047
-14.3409 -20.4212 -0.2406 0.9050
-14.1916 -20.4766 -0.2402 0.9051
-13.8943 -20.5868 -0.2395 0.9054
-13.7463 -20.6418 -0.2391 0.9056
-13.5987 -20.6965 -0.2388 0.9057
-13.4516 -20.7511 -0.2384 0.9058
-13.1586 -20.8598 -0.2378 0.9061
-12.7218 -21.0219 -0.2369 0.9064
-12.4324 -21.1292 -0.2364 0.9066
-12.1443 -21.2362 -0.2359 0.9068
-11.4288 -21.5016 -0.2348 0.9072
-11.2865 -21.5544 -0.2346 0.9073
-11.1444 -21.6071 -0.2344 0.9073
-10.8608 -21.7124 -0.2341 0.9075
-10.7193 -21.7649 -0.2339 0.9075
-10.2959 -21.9220 -0.2335 0.9077
-10.1550 -21.9742 -0.2334 0.9077
-9.8737 -22.0786 -0.2332 0.9078
-9.7332 -22.1307 -0.2331 0.9078
-9.5929 -22.1828 -0.2330 0.9078
-9.4526 -22.2349 -0.2329 0.9079
-9.3124 -22.2868 -0.2329 0.9079
-9.0322 -22.3908 -0.2328 0.9079
-8.4722 -22.5985 -0.2327 0.9080
-8.0524 -22.7542 -0.2327 0.9080
-7.9125 -22.8062 -0.2327 0.9080
-7.6324 -22.9101 -0.2328 0.9079
-7.4923 -22.9621 -0.2329 0.9079
-7.3521 -23.0141 -0.2329 0.9079
-7.2118 -23.0661 -0.2330 0.9079
-6.9310 -23.1704 -0.2332 0.9078
-6.7904 -23.2225 -0.2333 0.9078
-6.3679 -23.3793 -0.2336 0.9076
-6.2267 -23.4316 -0.2337 0.9076
-5.8023 -23.5891 -0.2342 0.9074
-5.5183 -23.6945 -0.2346 0.9073
-5.3760 -23.7473 -0.2347 0.9072
-5.0907 -23.8532 -0.2352 0.9070
-4.5169 -24.0661 -0.2361 0.9067
-4.0833 -24.2270 -0.2369 0.9064
-3.9381 -24.2809 -0.2372 0.9063
-3.7926 -24.3349 -0.2375 0.9062
-3.6467 -24.3893 -0.2378 0.9061
-3.3537 -24.4980 -0.2384 0.9058
-3.2066 -24.5526 -0.2387 0.9057
-2.9112 -24.6622 -0.2394 0.9054
-2.4647 -24.8279 -0.2405 0.9050
-2.1646 -24.9392 -0.2413 0.9047
-2.0138 -24.9952 -0.2418 0.9046
-1.2516 -25.2780 -0.2440 0.9037
-1.0974 -25.3352 -0.2445 0.9035
-0.9426 -25.3927 -0.2450 0.9033
-0.7872 -25.4504 -0.2455 0.9032
-0.6311 -25.5083 -0.2460 0.9030
-0.3170 -25.6249 -0.2471 0.9026
0.1596 -25.8017 -0.2488 0.9019
0.8055 -26.0414 -0.2512 0.9010
1.6315 -26.3477 -0.2545 0.8998
1.9681 -26.4726 -0.2559 0.8993
2.1379 -26.5356 -0.2567 0.8990
2.3087 -26.5990 -0.2574 0.8987
2.4804 -26.6627 -0.2582 0.8984
2.6532 -26.7268 -0.2589 0.8981
2.3704 -21.2065 -0.2057 0.9182
2.5049 -21.2198 -0.2060 0.9181
3.3550 -26.9873 -0.2622 0.8969
3.4470 -26.3926 -0.2566 0.8990
3.6099 -26.3694 -0.2566 0.8990
3.7729 -26.3462 -0.2566 0.8990
4.4248 -26.2534 -0.2567 0.8990
5.2411 -26.1372 -0.2570 0.8989
5.7320 -26.0673 -0.2573 0.8987
5.8960 -26.0440 -0.2574 0.8987
5.7966 -24.2104 -0.2400 0.9052
5.9497 -24.1887 -0.2402 0.9052
6.1032 -24.1669 -0.2403 0.9051
6.2568 -24.1452 -0.2405 0.9050
6.4105 -24.1234 -0.2406 0.9050
6.7189 -24.0797 -0.2410 0.9048
7.1833 -24.0140 -0.2417 0.9046
7.3387 -23.9920 -0.2419 0.9045
7.4944 -23.9699 -0.2421 0.9044
7.9633 -23.9035 -0.2429 0.9041
8.1203 -23.8813 -0.2432 0.9040
8.9112 -23.7693 -0.2447 0.9034
9.0706 -23.7467 -0.2451 0.9033
10.1409 -25.5946 -0.2654 0.8957
10.6635 -25.5205 -0.2667 0.8953
10.8388 -25.4957 -0.2671 0.8951
11.0148 -25.4708 -0.2675 0.8949
11.1387 -25.3264 -0.2667 0.8952
11.3061 -25.2816 -0.2670 0.8951
11.6603 -25.2315 -0.2680 0.8948
11.9035 -25.3450 -0.2700 0.8940
12.4448 -25.2683 -0.2716 0.8934
12.6266 -25.2426 -0.2721 0.8932
12.9927 -25.1907 -0.2733 0.8928
13.1048 -25.0270 -0.2724 0.8931
13.5396 -24.7297 -0.2718 0.8933
13.3460 -24.0224 -0.2649 0.8959
13.7732 -23.0802 -0.2591 0.8981
14.3774 -23.1075 -0.2624 0.8969
14.7437 -23.0556 -0.2638 0.8963
14.9285 -23.0294 -0.2646 0.8960
15.3012 -22.9767 -0.2661 0.8955
15.4892 -22.9500 -0.2669 0.8952
15.6783 -22.9233 -0.2678 0.8949
15.9884 -22.7672 -0.2682 0.8947
16.1803 -22.7400 -0.2691 0.8944
16.3733 -22.7127 -0.2699 0.8940
16.6419 -22.7868 -0.2720 0.8933
17.4358 -22.6744 -0.2758 0.8919
17.6378 -22.6458 -0.2767 0.8915
18.0460 -22.5880 -0.2787 0.8908
18.3779 -22.4289 -0.2796 0.8905
18.5864 -22.3994 -0.2806 0.8901
18.7965 -22.3696 -0.2817 0.8897
20.8744 -23.9267 -0.3061 0.8807
17.0671 -18.8453 -0.2451 0.9033
17.1970 -18.5230 -0.2437 0.9038
17.2613 -18.3632 -0.2430 0.9041
17.3989 -18.2817 -0.2433 0.9040
17.4628 -18.1231 -0.2426 0.9042
17.5895 -17.8084 -0.2413 0.9047
17.5777 -17.5777 -0.2397 0.9053
17.7019 -17.2693 -0.2384 0.9058
17.7635 -17.1163 -0.2378 0.9060
18.2731 -17.1766 -0.2418 0.9045
17.8027 -16.5282 -0.2342 0.9074
17.8626 -16.3794 -0.2337 0.9076
18.0542 -16.1486 -0.2335 0.9077
18.6614 -16.4851 -0.2401 0.9052
19.5477 -16.8422 -0.2488 0.9019
20.0153 -17.0306 -0.2534 0.9002
20.5007 -17.2262 -0.2582 0.8984
21.5287 -17.6404 -0.2683 0.8946
22.0738 -17.8599 -0.2737 0.8926
22.6413 -18.0886 -0.2794 0.8905
22.9549 -18.1077 -0.2819 0.8896
24.4521 -18.8028 -0.2974 0.8839
25.1243 -19.0737 -0.3041 0.8815
26.5646 -19.6539 -0.3186 0.8762
27.3375 -19.9653 -0.3264 0.8734
29.0464 -20.6675 -0.3437 0.8671
29.9463 -21.0300 -0.3528 0.8638
32.6305 -22.0226 -0.3795 0.8543
34.0918 -22.7033 -0.3949 0.8489
35.2843 -23.1837 -0.4070 0.8446
36.5525 -23.6947 -0.4200 0.8401
37.4838 -23.9705 -0.4290 0.8370
40.8583 -25.4219 -0.4640 0.8249
23.0937 -14.1715 -0.2612 0.8973
23.1030 -13.9812 -0.2604 0.8976
32.9452 -18.5708 -0.3646 0.8596
33.1039 -18.1245 -0.3639 0.8599
33.4266 -17.7673 -0.3650 0.8595
33.5145 -17.5491 -0.3647 0.8596
33.6899 -17.1134 -0.3643 0.8597
33.8650 -16.6787 -0.3639 0.8598
33.9525 -16.4616 -0.3638 0.8599
34.0398 -16.2448 -0.3636 0.8600
34.1271 -16.0280 -0.3635 0.8600
34.2143 -15.8115 -0.3634 0.8600
34.5627 -14.9465 -0.3630 0.8602
34.6497 -14.7304 -0.3630 0.8602
34.9107 -14.0825 -0.3629 0.8602
34.8435 -13.8055 -0.3613 0.8608
34.9301 -13.5905 -0.3614 0.8608
35.0912 -13.4039 -0.3622 0.8605
35.1161 -13.1651 -0.3616 0.8607
35.1900 -12.9452 -0.3615 0.8607
35.6943 -12.1371 -0.3635 0.8600
35.9562 -11.4865 -0.3639 0.8599
36.1313 -11.0519 -0.3643 0.8597
36.3946 -10.3981 -0.3649 0.8595
36.4826 -10.1796 -0.3652 0.8594
36.7474 -9.5224 -0.3660 0.8591
36.8359 -9.3026 -0.3663 0.8590
36.9246 -9.0824 -0.3666 0.8589
37.0134 -8.8619 -0.3669 0.8588
37.0277 -8.3825 -0.3660 0.8591
37.1177 -8.1619 -0.3664 0.8590
58.6078 -12.5080 -0.5778 0.7868
58.7486 -12.1587 -0.5784 0.7866
58.8897 -11.8086 -0.5791 0.7864
37.4014 -7.0197 -0.3669 0.8588
37.5812 -6.5733 -0.3678 0.8585
37.7619 -6.1246 -0.3688 0.8581
60.1661 -8.6160 -0.5860 0.7842
60.3112 -8.2565 -0.5869 0.7839
60.4568 -7.8958 -0.5878 0.7836
60.6028 -7.5341 -0.5888 0.7833
60.8963 -6.8068 -0.5908 0.7826
61.1174 -6.0672 -0.5921 0.7822
61.2537 -5.6984 -0.5931 0.7819
61.5004 -5.3380 -0.5952 0.7812
44.9733 -2.7848 -0.4344 0.8351
44.1054 -2.4574 -0.4259 0.8380
41.7287 -1.5490 -0.4026 0.8462
41.1666 -1.2733 -0.3971 0.8481
39.4496 -0.4879 -0.3804 0.8540
41.4934 0.5132 -0.4001 0.8471
41.5438 0.7708 -0.4006 0.8469
41.6484 1.0304 -0.4017 0.8465
41.8593 1.5539 -0.4038 0.8457
41.9655 1.8178 -0.4050 0.8453
42.0724 2.0832 -0.4061 0.8449
42.2880 2.6185 -0.4085 0.8441
42.6231 3.4341 -0.4123 0.8428
42.7300 3.7088 -0.4135 0.8423
42.8386 3.9853 -0.4148 0.8419
42.9508 4.2638 -0.4161 0.8414
43.4340 4.8550 -0.4214 0.8396
43.4069 5.3963 -0.4217 0.8395
43.5229 5.6843 -0.4232 0.8390
43.7640 6.2672 -0.4262 0.8379
43.8758 6.5604 -0.4277 0.8374
44.1153 7.1551 -0.4309 0.8363
44.3585 7.7588 -0.4342 0.8352
44.7906 8.9814 -0.4404 0.8330
45.1696 9.6400 -0.4453 0.8313
45.2403 9.9481 -0.4466 0.8309
45.5018 10.5972 -0.4504 0.8295
44.1356 11.1461 -0.4389 0.8335
52.8943 14.4069 -0.5285 0.8031
52.3781 14.6149 -0.5243 0.8045
46.8822 13.3944 -0.4701 0.8228
46.4304 13.5765 -0.4664 0.8241
45.8816 14.0343 -0.4626 0.8254
46.1696 14.7492 -0.4673 0.8238
48.5269 16.1665 -0.4931 0.8150
47.9316 16.6295 -0.4891 0.8163
48.1753 17.3846 -0.4938 0.8148
48.4963 18.1815 -0.4993 0.8129
48.7308 18.6139 -0.5029 0.8117
49.0635 19.4396 -0.5088 0.8097
49.4040 20.2850 -0.5149 0.8076
50.1104 22.0389 -0.5278 0.8033
48.8151 22.5590 -0.5183 0.8065
51.0455 24.3604 -0.5453 0.7975
51.2401 24.8434 -0.5490 0.7963
45.3290 22.6741 -0.4886 0.8165
51.8402 26.3332 -0.5606 0.7925
50.0424 25.8105 -0.5429 0.7983
52.1780 27.3219 -0.5679 0.7901
52.4663 27.8876 -0.5728 0.7885
55.3298 34.4261 -0.6283 0.7705
54.8689 34.6118 -0.6254 0.7714
54.4121 34.7958 -0.6227 0.7723
56.8739 38.8988 -0.6644 0.7591
17.6470 14.8283 -0.2222 0.9119
17.4953 14.8864 -0.2215 0.9122
16.7520 15.1713 -0.2179 0.9136
16.6061 15.2272 -0.2172 0.9138
16.4612 15.2828 -0.2166 0.9141
16.3171 15.3380 -0.2159 0.9143
16.0315 15.4475 -0.2146 0.9148
15.7492 15.5556 -0.2134 0.9153
15.6092 15.6093 -0.2128 0.9155
15.4701 15.6626 -0.2122 0.9157
15.3316 15.7157 -0.2117 0.9159
15.1939 15.7685 -0.2111 0.9161
15.0569 15.8209 -0.2106 0.9163
15.5400 17.5916 -0.2263 0.9104
15.8445 18.3897 -0.2340 0.9075
16.0072 18.8126 -0.2381 0.9059
16.1758 19.2506 -0.2424 0.9043
16.3460 19.6993 -0.2468 0.9027
16.5219 20.1638 -0.2513 0.9010
16.8939 21.1460 -0.2609 0.8974
17.7309 23.3556 -0.2827 0.8893
17.9653 23.9707 -0.2888 0.8871
13.6190 19.3931 -0.2285 0.9096
13.2122 19.5763 -0.2277 0.9099
5.6898 8.6596 -0.0999 0.9594
5.5881 8.6205 -0.0990 0.9597
5.4740 8.6777 -0.0989 0.9598
5.4403 8.7438 -0.0993 0.9596
6.5132 10.6139 -0.1201 0.9514
6.2971 10.4055 -0.1173 0.9525
6.1809 10.5047 -0.1175 0.9524
6.0790 10.4792 -0.1168 0.9527
5.9505 10.4054 -0.1156 0.9532
5.8787 10.4291 -0.1154 0.9532
5.6831 10.3801 -0.1141 0.9538
5.5152 10.2230 -0.1120 0.9546
5.4624 10.2767 -0.1122 0.9545
5.3899 10.2934 -0.1120 0.9546
5.2456 10.3266 -0.1117 0.9547
5.1737 10.3431 -0.1115 0.9548
5.1021 10.3595 -0.1113 0.9549
5.0307 10.3760 -0.1112 0.9549
4.9642 10.4021 -0.1111 0.9549
4.7657 10.4821 -0.1110 0.9550
4.5675 10.5619 -0.1109 0.9550
4.4354 10.6151 -0.1109 0.9550
4.3034 10.6683 -0.1109 0.9550
4.1714 10.7214 -0.1109 0.9550
4.0870 10.6996 -0.1104 0.9552
3.9430 10.9268 -0.1120 0.9546
3.8096 10.9805 -0.1121 0.9546
3.6760 11.0343 -0.1121 0.9545
3.5905 11.0040 -0.1116 0.9548
3.4082 11.1422 -0.1123 0.9545
3.3410 11.1692 -0.1124 0.9544
3.2739 11.1963 -0.1125 0.9544
3.1392 11.2506 -0.1126 0.9544
3.0042 11.3050 -0.1128 0.9543
2.8687 11.3595 -0.1130 0.9542
2.8008 11.3868 -0.1131 0.9542
2.6647 11.4417 -0.1133 0.9541
2.4939 11.3413 -0.1120 0.9546
2.4372 11.4199 -0.1126 0.9544
2.3692 11.4474 -0.1127 0.9543
2.3009 11.4749 -0.1128 0.9543
2.2325 11.5024 -0.1130 0.9542
2.0264 11.5854 -0.1134 0.9540
1.9573 11.6132 -0.1135 0.9540
1.6091 11.7536 -0.1144 0.9537
1.3975 11.8387 -0.1149 0.9534
1.3265 11.8673 -0.1151 0.9534
1.2553 11.8960 -0.1153 0.9533
1.1838 11.9248 -0.1155 0.9532
0.9678 12.0118 -0.1162 0.9529
0.7492 12.0999 -0.1169 0.9527
0.6005 12.1275 -0.1171 0.9526
0.4577 12.3306 -0.1190 0.9518
0.3066 12.3915 -0.1195 0.9516
0.0000 12.5150 -0.1207 0.9512
-0.3128 12.6409 -0.1219 0.9507
-0.3920 12.6728 -0.1222 0.9505
-0.6323 12.7696 -0.1233 0.9501
-0.7133 12.8023 -0.1236 0.9500
-0.7948 12.8351 -0.1240 0.9499
-0.8767 12.8681 -0.1244 0.9497
-1.0280 12.7598 -0.1234 0.9501
-1.1986 12.8844 -0.1248 0.9496
-1.2824 12.9181 -0.1252 0.9494
-1.4194 12.6987 -0.1232 0.9502
-1.6432 12.5815 -0.1223 0.9505
-1.8114 12.6493 -0.1232 0.9502
-2.3312 12.8586 -0.1260 0.9491
-2.4201 12.8945 -0.1265 0.9489
-2.5098 12.9306 -0.1270 0.9487
-2.8539 13.7896 -0.1358 0.9452
-2.9513 13.8288 -0.1363 0.9450
-3.0496 13.8684 -0.1369 0.9448
-3.1486 13.9083 -0.1375 0.9446
-3.3494 13.9891 -0.1387 0.9441
-3.5536 14.0714 -0.1399 0.9436
-3.8671 14.1976 -0.1419 0.9428
-4.2990 14.3716 -0.1446 0.9418
-3.7186 11.8936 -0.1201 0.9514
-3.7159 11.6320 -0.1177 0.9523
-3.7360 11.4499 -0.1161 0.9530
-3.7944 11.3897 -0.1157 0.9531
-3.8525 11.3299 -0.1154 0.9533
-3.9102 11.2704 -0.1150 0.9534
-3.9675 11.2113 -0.1147 0.9535
-4.0245 11.1525 -0.1143 0.9537
-4.0812 11.0942 -0.1140 0.9538
-4.2095 11.0204 -0.1137 0.9539
-4.2872 11.0190 -0.1140 0.9538
-4.4438 11.0162 -0.1145 0.9536
-4.6019 11.0134 -0.1151 0.9534
-4.6814 11.0120 -0.1154 0.9533
-4.7615 11.0105 -0.1157 0.9531
-4.8862 11.1099 -0.1170 0.9526
-5.0315 11.2508 -0.1188 0.9519
-5.1813 11.3962 -0.1207 0.9512
-7.1773 15.5308 -0.1649 0.9339
-7.3214 15.5888 -0.1660 0.9334
-7.4675 15.6477 -0.1672 0.9330
-7.6156 15.7073 -0.1683 0.9326
-7.7657 15.7678 -0.1695 0.9321
-7.9179 15.8291 -0.1706 0.9316
-8.0722 15.8912 -0.1718 0.9312
-8.7123 16.1490 -0.1769 0.9292
-8.8782 16.2158 -0.1782 0.9287
-9.2177 16.3526 -0.1810 0.9277
-9.5680 16.4936 -0.1838 0.9266
-9.7473 16.5658 -0.1853 0.9260
-9.9295 16.6392 -0.1868 0.9254
-10.1147 16.7138 -0.1883 0.9248
-8.6968 13.9776 -0.1587 0.9363
-8.6945 13.7830 -0.1571 0.9369
-8.6921 13.5923 -0.1555 0.9375
-8.7177 13.4483 -0.1545 0.9379
-8.7881 13.3750 -0.1543 0.9380
-8.8584 13.3019 -0.1541 0.9381
-8.9284 13.2290 -0.1539 0.9382
-9.0679 13.0838 -0.1535 0.9383
-9.1374 13.0115 -0.1533 0.9384
-9.2463 12.9949 -0.1538 0.9382
-9.4867 12.9896 -0.1551 0.9377
-9.7312 12.9842 -0.1564 0.9372
-11.8598 15.4231 -0.1876 0.9251
-11.8572 15.2239 -0.1860 0.9257
-11.8545 15.0278 -0.1845 0.9263
-11.8519 14.8350 -0.1831 0.9269
-12.1396 14.4473 -0.1819 0.9273
-12.3017 14.2778 -0.1817 0.9274
-12.4282 14.2455 -0.1823 0.9272
-12.5810 14.2419 -0.1832 0.9268
-12.8915 14.2346 -0.1852 0.9261
-19.6586 21.1744 -0.2786 0.8909
-20.0532 21.3333 -0.2823 0.8895
-20.2542 21.2819 -0.2833 0.8891
-20.6964 21.4790 -0.2876 0.8875
-21.1209 21.6499 -0.2916 0.8860
-21.5575 21.8257 -0.2958 0.8845
-23.6383 22.7771 -0.3165 0.8769
-25.1476 23.3473 -0.3308 0.8717
-50.6592 45.8792 -0.6589 0.7608
-50.8271 45.4623 -0.6575 0.7613
-16.6149 14.6772 -0.2137 0.9151
-51.3264 44.2226 -0.6532 0.7626
-51.6722 43.4187 -0.6507 0.7634
-54.3452 42.8695 -0.6673 0.7581
-54.7446 42.6381 -0.6690 0.7576
-18.2770 11.8478 -0.2100 0.9166
-18.3282 11.7207 -0.2097 0.9167
-47.2490 29.3982 -0.5365 0.8004
-69.0941 1.7096 -0.6663 0.7585
-67.9812 1.2614 -0.6555 0.7619
-65.8603 0.4073 -0.6350 0.7684
-65.6673 0.0000 -1.1208 0.7690
-65.9961 -0.8163 -1.1264 0.7679
-66.1593 -1.2275 -1.1293 0.7674
-66.5723 -2.0591 -1.1367 0.7661
-66.3033 -2.8720 -1.1327 0.7668
-63.6480 -3.9411 -1.0884 0.7748
-62.8084 -4.2792 -1.0744 0.7774
-62.8235 -5.8445 -1.0768 0.7769
-62.9893 -6.2531 -1.0803 0.7763
-63.3201 -7.0778 -1.0874 0.7750
-63.4876 -7.4943 -1.0911 0.7743
-63.9978 -8.7612 -1.1024 0.7723
-64.1703 -9.1895 -1.1064 0.7716
-64.5190 -10.0552 -1.1144 0.7701
-64.6953 -10.4929 -1.1186 0.7694
-37.4025 -10.4363 -0.6627 0.8561
-37.6883 -11.0202 -0.6702 0.8546
-37.8044 -11.3084 -0.6735 0.8540
-37.6578 -11.7739 -0.6734 0.8540
-37.2867 -11.9116 -0.6681 0.8550
-36.2052 -12.3108 -0.6527 0.8581
-34.5774 -11.9964 -0.6246 0.8638
-34.4232 -12.4220 -0.6246 0.8638
-34.2796 -12.6103 -0.6234 0.8641
-34.5294 -12.9452 -0.6293 0.8628
-34.1904 -13.0598 -0.6247 0.8638
-32.9383 -13.5243 -0.6077 0.8672
-32.6357 -13.6365 -0.6037 0.8681
-31.7515 -13.9645 -0.5920 0.8704
-31.4643 -14.0710 -0.5883 0.8712
-31.1806 -14.1762 -0.5846 0.8719
-30.9005 -14.2801 -0.5810 0.8727
-30.6239 -14.3827 -0.5774 0.8734
-30.3505 -14.4841 -0.5740 0.8741
-29.5497 -14.7811 -0.5639 0.8762
-28.7762 -15.0680 -0.5544 0.8781
-28.2748 -15.2540 -0.5483 0.8794
-27.7842 -15.4360 -0.5425 0.8806
-27.3038 -15.6141 -0.5368 0.8818
-27.0674 -15.7018 -0.5341 0.8823
-26.8333 -15.7887 -0.5314 0.8829
-26.6017 -15.8746 -0.5287 0.8834
-26.1451 -16.0440 -0.5235 0.8845
-25.4766 -16.2920 -0.5161 0.8861
-24.4028 -16.6903 -0.5046 0.8885
-24.1936 -16.7677 -0.5024 0.8889
-23.9864 -16.8446 -0.5002 0.8894
-23.7809 -16.9208 -0.4981 0.8898
-23.5771 -16.9964 -0.4960 0.8902
-23.1745 -17.1457 -0.4920 0.8911
-22.9757 -17.2195 -0.4900 0.8915
-22.7784 -17.2927 -0.4881 0.8919
-22.5827 -17.3653 -0.4862 0.8923
-22.3885 -17.4373 -0.4843 0.8927
-22.0045 -17.5798 -0.4807 0.8934
-21.8146 -17.6502 -0.4789 0.8938
-21.4390 -17.7895 -0.4755 0.8945
-20.8855 -17.9948 -0.4705 0.8956
-20.5228 -18.1294 -0.4674 0.8962
-20.3432 -18.1960 -0.4658 0.8966
-20.1649 -18.2622 -0.4643 0.8969
-19.9876 -18.3279 -0.4628 0.8972
-19.1179 -18.6508 -0.4558 0.8987
-18.9471 -18.7141 -0.4545 0.8989
-18.6082 -18.8399 -0.4519 0.8995
-18.2732 -18.9641 -0.4495 0.9000
-18.1070 -19.0258 -0.4483 0.9003
-17.2890 -19.3293 -0.4426 0.9015
-16.2213 -18.5932 -0.4211 0.9060
-16.6489 -19.5667 -0.4385 0.9023
-16.3332 -19.6838 -0.4365 0.9027
-16.1764 -19.7420 -0.4356 0.9029
-15.8647 -19.8577 -0.4338 0.9033
-15.7098 -19.9151 -0.4329 0.9035
-15.5556 -19.9723 -0.4321 0.9037
-14.9444 -20.1991 -0.4288 0.9044
-14.3420 -20.4226 -0.4259 0.9050
-14.0437 -20.5332 -0.4246 0.9053
-13.8952 -20.5882 -0.4239 0.9054
-13.7472 -20.6432 -0.4233 0.9055
-13.5997 -20.6979 -0.4227 0.9057
-13.1595 -20.8612 -0.4210 0.9060
-13.0135 -20.9154 -0.4204 0.9062
-12.8679 -20.9694 -0.4199 0.9063
-12.7227 -21.0233 -0.4194 0.9064
-12.5778 -21.0770 -0.4189 0.9065
-12.4332 -21.1306 -0.4184 0.9066
-12.2890 -21.1842 -0.4180 0.9067
-11.4296 -21.5030 -0.4156 0.9072
-11.0032 -21.6612 -0.4147 0.9074
-10.7200 -21.7663 -0.4141 0.9075
-10.5787 -21.8187 -0.4138 0.9076
-10.1557 -21.9757 -0.4132 0.9077
-9.8744 -22.0800 -0.4128 0.9078
-9.7339 -22.1322 -0.4127 0.9078
-9.5935 -22.1843 -0.4125 0.9078
-9.4532 -22.2363 -0.4124 0.9079
-9.1729 -22.3404 -0.4122 0.9079
-8.9614 -22.6176 -0.4152 0.9073
-8.6127 -22.5480 -0.4119 0.9080
-8.3329 -22.6519 -0.4119 0.9080
-8.0530 -22.7558 -0.4120 0.9079
-7.9130 -22.8077 -0.4120 0.9079
-7.6329 -22.9116 -0.4122 0.9079
-7.4927 -22.9636 -0.4123 0.9079
-7.3525 -23.0156 -0.4124 0.9079
-6.9314 -23.1719 -0.4128 0.9078
-6.7908 -23.2240 -0.4130 0.9077
-6.6501 -23.2762 -0.4132 0.9077
-6.3683 -23.3808 -0.4136 0.9076
-6.2272 -23.4332 -0.4138 0.9076
-6.0859 -23.4856 -0.4141 0.9075
-5.8027 -23.5907 -0.4146 0.9074
-5.6608 -23.6434 -0.4149 0.9073
-5.5187 -23.6961 -0.4152 0.9073
-5.3764 -23.7489 -0.4156 0.9072
-5.0910 -23.8548 -0.4163 0.9070
-4.6611 -24.0143 -0.4175 0.9068
-4.5172 -24.0677 -0.4179 0.9067
-4.3730 -24.1213 -0.4184 0.9066
-4.0836 -24.2286 -0.4193 0.9064
-3.6469 -24.3909 -0.4209 0.9060
-3.5006 -24.4452 -0.4215 0.9059
-3.3540 -24.4997 -0.4220 0.9058
-2.4649 -24.8296 -0.4258 0.9050
-2.0139 -24.9969 -0.4280 0.9045
-1.8626 -25.0531 -0.4288 0.9044
-1.5583 -25.1660 -0.4303 0.9040
-1.4053 -25.2228 -0.4311 0.9039
-1.0975 -25.3370 -0.4328 0.9035
-0.9427 -25.3945 -0.4337 0.9033
-0.7872 -25.4521 -0.4346 0.9031
-0.6312 -25.5101 -0.4355 0.9030
-0.3170 -25.6267 -0.4374 0.9026
0.0000 -25.7443 -0.4394 0.9021
1.1334 -26.1649 -0.4470 0.9005
1.2986 -26.2262 -0.4482 0.9003
1.4646 -26.2876 -0.4493 0.9000
1.6316 -26.3496 -0.4506 0.8998
2.3088 -26.6009 -0.4557 0.8987
2.6534 -26.7288 -0.4584 0.8981
2.8272 -26.7933 -0.4598 0.8978
2.5049 -21.2204 -0.3647 0.9181
3.3553 -26.9893 -0.4642 0.8969
3.4472 -26.3944 -0.4543 0.8990
3.7731 -26.3480 -0.4543 0.8990
3.9361 -26.3248 -0.4543 0.8990
4.2621 -26.2784 -0.4544 0.8990
4.4252 -26.2552 -0.4544 0.8990
4.5882 -26.2320 -0.4545 0.8989
5.0780 -26.1623 -0.4548 0.8989
5.2414 -26.1391 -0.4550 0.8988
5.4049 -26.1158 -0.4552 0.8988
5.5686 -26.0925 -0.4554 0.8988
5.8964 -26.0458 -0.4558 0.8987
5.7970 -24.2120 -0.4249 0.9052
5.9502 -24.1903 -0.4252 0.9051
6.1036 -24.1686 -0.4254 0.9051
6.4110 -24.1251 -0.4260 0.9050
6.5651 -24.1033 -0.4264 0.9049
7.0287 -24.0376 -0.4274 0.9047
7.3392 -23.9936 -0.4282 0.9045
7.4949 -23.9716 -0.4287 0.9044
7.6509 -23.9495 -0.4291 0.9043
7.8072 -23.9274 -0.4296 0.9042
8.2783 -23.8607 -0.4310 0.9039
8.4361 -23.8383 -0.4316 0.9038
8.5942 -23.8159 -0.4321 0.9037
8.7528 -23.7935 -0.4327 0.9035
9.9685 -25.6209 -0.4692 0.8958
10.1417 -25.5964 -0.4699 0.8957
10.6643 -25.5224 -0.4721 0.8952
10.8396 -25.4975 -0.4729 0.8951
11.0155 -25.4726 -0.4737 0.8949
11.4837 -25.2584 -0.4735 0.8949
11.6611 -25.2333 -0.4744 0.8948
12.4457 -25.2702 -0.4808 0.8934
12.6276 -25.2444 -0.4817 0.8932
13.4746 -24.9765 -0.4843 0.8927
13.2802 -23.5595 -0.4616 0.8975
13.2428 -23.1572 -0.4553 0.8988
13.7742 -23.0819 -0.4588 0.8980
14.9296 -23.0312 -0.4684 0.8960
15.4904 -22.9518 -0.4726 0.8951
16.3746 -22.7145 -0.4779 0.8940
17.0375 -22.7328 -0.4849 0.8926
17.2367 -22.7046 -0.4865 0.8922
18.1724 -22.4600 -0.4931 0.8908
18.7981 -22.3714 -0.4987 0.8897
20.4158 -23.9938 -0.5377 0.8816
20.6450 -23.9614 -0.5398 0.8811
20.8761 -23.9287 -0.5420 0.8807
17.0892 -18.8697 -0.4345 0.9032
17.2192 -18.5469 -0.4319 0.9037
17.4816 -18.1426 -0.4300 0.9041
17.5452 -17.9847 -0.4288 0.9044
17.6085 -17.8276 -0.4277 0.9046
17.5935 -17.5935 -0.4246 0.9053
17.7865 -17.1384 -0.4216 0.9059
17.9430 -17.0766 -0.4228 0.9057
18.2763 -17.1797 -0.4281 0.9045
17.8032 -16.5287 -0.4146 0.9074
17.9228 -16.2316 -0.4127 0.9078
18.0577 -16.1517 -0.4135 0.9076
20.5050 -17.2298 -0.4571 0.8984
21.0093 -17.4330 -0.4659 0.8965
22.0787 -17.8639 -0.4847 0.8926
22.6465 -18.0927 -0.4947 0.8905
25.8343 -19.3620 -0.5510 0.8788
26.5715 -19.6591 -0.5641 0.8761
27.3447 -19.9707 -0.5779 0.8733
27.8676 -20.0895 -0.5863 0.8716
29.9549 -21.0361 -0.6247 0.8638
31.9070 -21.8227 -0.6597 0.8567
32.6407 -22.0295 -0.6721 0.8542
34.1028 -22.7106 -0.6993 0.8488
35.2960 -23.1914 -0.7208 0.8445
36.5651 -23.7028 -0.7437 0.8400
37.4971 -23.9789 -0.7596 0.8369
40.8739 -25.4316 -0.8216 0.8248
23.0981 -14.1742 -0.4625 0.8973
23.1033 -13.9814 -0.4609 0.8976
46.2834 -27.6198 -0.9199 0.8060
50.6188 -29.3641 -0.9988 0.7913
32.9455 -18.5710 -0.6455 0.8596
33.3394 -17.9863 -0.6465 0.8594
33.5153 -17.5495 -0.6457 0.8595
33.6031 -17.3316 -0.6453 0.8596
33.6908 -17.1138 -0.6449 0.8597
34.1279 -16.0285 -0.6435 0.8600
34.2151 -15.8119 -0.6433 0.8600
34.3023 -15.5955 -0.6431 0.8601
34.6506 -14.7308 -0.6426 0.8602
34.7376 -14.5148 -0.6425 0.8602
34.8246 -14.2988 -0.6425 0.8602
34.9116 -14.0828 -0.6425 0.8602
34.8443 -13.8058 -0.6397 0.8608
35.0941 -13.4050 -0.6412 0.8605
35.1165 -13.1653 -0.6401 0.8607
35.5207 -12.5703 -0.6431 0.8601
35.6951 -12.1374 -0.6435 0.8600
35.7824 -11.9207 -0.6437 0.8599
35.8697 -11.7039 -0.6440 0.8599
35.9571 -11.4868 -0.6442 0.8598
36.0446 -11.2696 -0.6445 0.8598
36.1322 -11.0521 -0.6449 0.8597
36.2199 -10.8345 -0.6452 0.8596
36.3077 -10.6166 -0.6456 0.8596
36.3955 -10.3984 -0.6460 0.8595
36.4836 -10.1799 -0.6465 0.8594
36.7483 -9.5226 -0.6479 0.8591
36.8368 -9.3028 -0.6484 0.8590
36.9255 -9.0827 -0.6490 0.8589
37.0143 -8.8621 -0.6496 0.8588
37.0286 -8.3827 -0.6480 0.8591
58.6091 -12.5083 -1.0228 0.7868
58.8910 -11.8088 -1.0251 0.7864
37.5597 -7.2902 -0.6530 0.8581
37.4023 -7.0199 -0.6495 0.8588
37.4921 -6.7970 -0.6503 0.8586
37.5821 -6.5735 -0.6512 0.8584
37.7629 -6.1248 -0.6529 0.8581
37.8536 -5.8995 -0.6538 0.8579
60.4589 -7.8961 -1.0406 0.7835
60.6050 -7.5343 -1.0423 0.7832
61.1191 -6.0674 -1.0482 0.7821
61.5021 -5.3381 -1.0536 0.7812
39.1319 -3.1528 -0.6700 0.8547
39.0212 -2.6586 -0.6675 0.8552
39.2967 -2.4333 -0.6720 0.8543
39.5758 -2.2050 -0.6765 0.8534
41.7298 -1.5491 -0.7127 0.8462
41.2878 0.0000 -0.7047 0.8477
41.4945 0.5133 -0.7082 0.8470
41.5449 0.7708 -0.7092 0.8468
41.9667 1.8178 -0.7169 0.8453
42.0736 2.0832 -0.7190 0.8449
42.2892 2.6186 -0.7231 0.8441
42.5214 3.1614 -0.7277 0.8432
42.7308 3.7089 -0.7320 0.8423
38.2273 4.0338 -0.6561 0.8575
43.2929 5.1105 -0.7440 0.8400
43.7729 6.2685 -0.7547 0.8379
43.9964 6.8568 -0.7600 0.8368
44.1166 7.1553 -0.7628 0.8363
44.2377 7.4560 -0.7657 0.8357
44.3598 7.7590 -0.7686 0.8351
44.6067 8.3720 -0.7746 0.8340
44.7316 8.6822 -0.7777 0.8334
45.0428 9.3221 -0.7850 0.8319
45.1709 9.6404 -0.7883 0.8313
45.2417 9.9483 -0.7906 0.8308
52.8885 14.4054 -0.9355 0.8031
52.3725 14.6133 -0.9280 0.8045
46.4223 13.5741 -0.8255 0.8241
45.9777 13.7533 -0.8191 0.8253
45.8831 14.0347 -0.8189 0.8253
46.1711 14.7497 -0.8272 0.8237
46.3173 15.1127 -0.8315 0.8229
48.5220 16.1649 -0.8729 0.8150
48.0895 17.0182 -0.8706 0.8154
48.1769 17.3852 -0.8741 0.8147
48.4700 17.8305 -0.8814 0.8133
48.7325 18.6145 -0.8903 0.8116
39.6332 16.2732 -0.7312 0.8425
39.2505 16.4004 -0.7260 0.8435
38.6587 16.7178 -0.7188 0.8449
38.8188 17.3600 -0.7258 0.8436
38.9476 17.7075 -0.7302 0.8427
39.0837 18.0618 -0.7348 0.8418
39.2216 18.4208 -0.7395 0.8408
39.3599 18.7837 -0.7443 0.8399
39.5009 19.1518 -0.7492 0.8389
39.6447 19.5252 -0.7542 0.8380
39.8590 19.9380 -0.7606 0.8367
52.4683 27.8886 -1.0141 0.7884
40.9797 24.1124 -0.8115 0.8268
40.9786 24.4541 -0.8145 0.8262
53.9695 32.6608 -1.0766 0.7770
53.8810 33.0642 -1.0789 0.7765
53.7920 33.4693 -1.0813 0.7761
54.8615 34.6071 -1.1070 0.7714
54.1065 34.6004 -1.0961 0.7734
54.1422 36.0557 -1.1102 0.7709
56.8694 38.8957 -1.1759 0.7591
57.1326 39.5965 -1.1864 0.7572
52.4109 41.3436 -1.1393 0.7656
17.4841 14.8769 -0.3918 0.9123
17.1841 14.9920 -0.3892 0.9128
16.8880 15.1055 -0.3867 0.9133
16.7414 15.1618 -0.3855 0.9136
16.5957 15.2177 -0.3843 0.9139
16.4509 15.2732 -0.3831 0.9141
16.1638 15.3833 -0.3808 0.9146
15.7395 15.5461 -0.3776 0.9153
15.5996 15.5997 -0.3765 0.9155
15.4606 15.6530 -0.3755 0.9157
15.3222 15.7061 -0.3745 0.9160
14.9116 15.8635 -0.3716 0.9166
15.1128 16.4814 -0.3816 0.9144
15.5278 17.5777 -0.4003 0.9104
15.6753 17.9674 -0.4069 0.9090
15.8283 18.3709 -0.4139 0.9075
16.1528 19.2233 -0.4285 0.9044
16.6788 20.6140 -0.4526 0.8994
17.2675 22.1704 -0.4796 0.8937
17.4797 22.7315 -0.4894 0.8916
18.1723 24.5620 -0.5215 0.8849
13.8713 19.2420 -0.4048 0.9095
13.6181 19.3919 -0.4044 0.9096
13.3397 19.5041 -0.4033 0.9098
13.2138 19.5786 -0.4031 0.9098
5.5875 8.6196 -0.1753 0.9597
5.4400 8.7432 -0.1757 0.9596
6.5121 10.6121 -0.2125 0.9514
6.2964 10.4044 -0.2076 0.9525
6.1804 10.5037 -0.2080 0.9524
6.0784 10.4782 -0.2067 0.9527
5.7798 10.4035 -0.2031 0.9535
5.6826 10.3791 -0.2020 0.9538
5.4621 10.2760 -0.1986 0.9545
5.3895 10.2927 -0.1983 0.9546
5.3172 10.3093 -0.1980 0.9547
5.2452 10.3258 -0.1977 0.9547
4.9638 10.4014 -0.1967 0.9549
4.8315 10.4548 -0.1966 0.9550
4.6992 10.5080 -0.1965 0.9550
4.6332 10.5346 -0.1964 0.9550
4.5671 10.5612 -0.1964 0.9550
4.5011 10.5878 -0.1964 0.9550
4.4351 10.6144 -0.1963 0.9550
4.3691 10.6410 -0.1963 0.9550
4.2372 10.6941 -0.1963 0.9550
4.1712 10.7207 -0.1963 0.9550
4.0867 10.6989 -0.1955 0.9552
4.0210 10.7254 -0.1955 0.9552
3.8761 10.9529 -0.1983 0.9546
3.7426 11.0067 -0.1984 0.9546
3.4080 11.1415 -0.1989 0.9545
3.3408 11.1685 -0.1990 0.9544
3.2736 11.1956 -0.1991 0.9544
3.2063 11.2227 -0.1992 0.9544
3.0715 11.2770 -0.1995 0.9543
2.9363 11.3315 -0.1998 0.9542
2.8686 11.3587 -0.1999 0.9542
2.6645 11.4409 -0.2005 0.9541
2.4937 11.3405 -0.1982 0.9546
2.4370 11.4192 -0.1993 0.9544
2.3008 11.4741 -0.1997 0.9543
2.0951 11.5569 -0.2005 0.9541
2.0262 11.5846 -0.2007 0.9540
1.9572 11.6125 -0.2010 0.9540
1.4681 11.8095 -0.2031 0.9535
1.3264 11.8665 -0.2038 0.9534
1.2552 11.8952 -0.2041 0.9533
1.1837 11.9240 -0.2045 0.9532
0.8952 12.0402 -0.2061 0.9528
0.8223 12.0696 -0.2065 0.9528
0.7492 12.0990 -0.2069 0.9527
0.6757 12.1286 -0.2073 0.9526
0.6004 12.1266 -0.2072 0.9526
0.5256 12.1332 -0.2073 0.9526
0.4577 12.3297 -0.2106 0.9518
0.3823 12.3601 -0.2111 0.9517
0.3066 12.3906 -0.2115 0.9516
0.1540 12.4520 -0.2125 0.9514
0.0772 12.4830 -0.2131 0.9513
0.0000 12.5141 -0.2136 0.9512
-0.1556 12.5767 -0.2147 0.9509
-0.3127 12.6400 -0.2158 0.9507
-0.3920 12.6720 -0.2164 0.9505
-0.6322 12.7687 -0.2182 0.9501
-0.7133 12.8013 -0.2188 0.9500
-0.7947 12.8341 -0.2195 0.9499
-0.9472 12.7407 -0.2180 0.9502
-1.3564 12.8544 -0.2206 0.9496
-1.4809 12.5453 -0.2156 0.9507
-1.8113 12.6483 -0.2181 0.9502
-1.9820 12.7171 -0.2197 0.9498
-2.1552 12.7868 -0.2213 0.9494
-2.7571 13.7496 -0.2393 0.9454
-3.0493 13.8673 -0.2423 0.9448
-3.1484 13.9072 -0.2434 0.9446
-3.2483 13.9474 -0.2444 0.9443
-3.4508 14.0290 -0.2466 0.9438
-2.3607 8.8833 -0.1569 0.9639
-3.8667 14.1965 -0.2511 0.9428
-3.9732 14.2393 -0.2523 0.9426
-3.5298 11.8001 -0.2102 0.9519
-3.5309 11.5434 -0.2060 0.9529
-3.5559 11.3731 -0.2034 0.9534
-3.7300 11.1963 -0.2014 0.9539
-3.7873 11.1381 -0.2008 0.9540
-3.8442 11.0802 -0.2002 0.9542
-3.9008 11.0227 -0.1996 0.9543
-4.0129 10.9086 -0.1984 0.9546
-4.1415 10.8424 -0.1981 0.9546
-4.2179 10.8407 -0.1985 0.9545
-4.2945 10.8389 -0.1990 0.9544
-4.3716 10.8371 -0.1994 0.9543
-4.4489 10.8353 -0.1999 0.9542
-4.5267 10.8335 -0.2004 0.9541
-4.6048 10.8316 -0.2009 0.9540
-4.6833 10.8298 -0.2014 0.9539
-4.7622 10.8279 -0.2019 0.9538
-4.8414 10.8259 -0.2024 0.9537
-4.9702 10.9318 -0.2050 0.9531
-5.1151 11.0685 -0.2081 0.9524
-5.2646 11.2093 -0.2114 0.9517
-5.4187 11.3546 -0.2147 0.9509
-7.7650 15.7662 -0.2999 0.9321
-8.0714 15.8896 -0.3042 0.9312
-8.3868 16.0166 -0.3086 0.9302
-8.8773 16.2141 -0.3155 0.9287
-9.2168 16.3508 -0.3203 0.9277
-8.4487 14.1577 -0.2814 0.9362
-8.4488 13.9610 -0.2785 0.9368
-8.4491 13.5795 -0.2730 0.9380
-8.4492 13.3943 -0.2703 0.9386
-8.5130 13.3122 -0.2697 0.9387
-8.6523 13.1683 -0.2689 0.9389
-8.7217 13.0967 -0.2685 0.9390
-8.8597 12.9539 -0.2678 0.9391
-8.9285 12.8827 -0.2675 0.9392
-9.0766 12.7564 -0.2672 0.9393
-9.4299 12.7455 -0.2706 0.9385
-9.5496 12.7418 -0.2718 0.9383
-9.6704 12.7380 -0.2730 0.9380
-9.7922 12.7342 -0.2742 0.9378
-9.9151 12.7303 -0.2754 0.9375
-11.7149 14.4789 -0.3179 0.9282
-11.7953 14.3953 -0.3176 0.9283
-12.0356 14.1450 -0.3170 0.9284
-12.1155 14.0617 -0.3168 0.9284
-12.3313 13.9592 -0.3179 0.9282
-12.4813 13.9542 -0.3195 0.9278
-12.7861 13.9439 -0.3229 0.9271
-12.9408 13.9386 -0.3246 0.9267
-13.0977 13.9339 -0.3264 0.9263
-20.1137 21.1342 -0.4979 0.8898
-20.5231 21.2991 -0.5048 0.8884
-20.9440 21.4686 -0.5119 0.8869
-21.8222 21.8222 -0.5267 0.8839
-23.9381 22.7822 -0.5640 0.8762
-24.4601 22.9923 -0.5729 0.8743
-50.6579 45.8780 -1.1664 0.7608
-50.8258 45.4611 -1.1638 0.7612
-16.6147 14.6771 -0.3784 0.9151
-51.1594 44.6329 -1.1587 0.7622
-51.3251 44.2215 -1.1563 0.7626
-51.4901 43.8118 -1.1538 0.7630
-52.9344 43.3737 -1.1680 0.7605
-47.2433 29.3946 -0.9496 0.8004
-43.7255 25.0051 -0.8597 0.8175
-43.9255 24.4036 -0.8576 0.8179
-44.1269 23.8060 -0.8557 0.8183
-44.2327 23.5112 -0.8549 0.8184
-44.3671 23.2318 -0.8548 0.8184
-68.0002 1.2618 -1.1608 0.7618
-66.8298 0.8266 -1.1407 0.7654
-65.8295 -0.4071 -1.6125 0.7684
-65.9943 -0.8162 -1.6167 0.7679
-66.3265 -1.6410 -1.6252 0.7668
-66.4939 -2.0567 -1.6295 0.7663
-66.6622 -2.4746 -1.6340 0.7657
-66.3138 -2.8725 -1.6259 0.7668
-64.5197 -3.5947 -1.5829 0.7722
-63.6577 -3.9417 -1.5623 0.7748
-62.3341 -4.6343 -1.5311 0.7787
-62.6580 -5.4385 -1.5406 0.7775
-62.8214 -5.8443 -1.5455 0.7769
-62.9859 -6.2527 -1.5504 0.7763
-63.4858 -7.4941 -1.5659 0.7743
-63.8248 -8.3358 -1.5767 0.7729
-63.9960 -8.7610 -1.5822 0.7722
-64.3422 -9.6205 -1.5936 0.7708
-64.6934 -10.4927 -1.6054 0.7693
-64.8842 -10.9358 -1.6117 0.7685
-65.0629 -11.3802 -1.6179 0.7678
-65.4120 -12.2769 -1.6302 0.7662
-65.5951 -12.7317 -1.6367 0.7654
-67.4967 -13.9692 -1.6884 0.7590
-66.4789 -14.6179 -1.6673 0.7616
-65.9499 -14.9305 -1.6563 0.7630
-65.3928 -15.2299 -1.6446 0.7644
-64.6003 -15.8899 -1.6295 0.7663
-64.2472 -16.2251 -1.6231 0.7671
-63.8955 -16.5573 -1.6168 0.7679
-63.6596 -16.9169 -1.6135 0.7683
-64.0158 -17.4361 -1.6252 0.7668
-37.4013 -10.4360 -0.9511 0.8561
-37.6871 -11.0199 -0.9618 0.8546
-37.6618 -11.7752 -0.9666 0.8539
-37.2907 -11.9128 -0.9589 0.8550
-36.5477 -12.1756 -0.9436 0.8572
-34.5763 -11.9960 -0.8965 0.8638
-34.2777 -12.6096 -0.8946 0.8640
-33.8742 -13.1797 -0.8903 0.8646
-32.6388 -13.6378 -0.8665 0.8680
-32.3402 -13.7486 -0.8608 0.8688
-32.0454 -13.8579 -0.8552 0.8696
-31.7545 -13.9658 -0.8497 0.8704
-31.4672 -14.0723 -0.8444 0.8712
-31.1836 -14.1775 -0.8391 0.8719
-30.9034 -14.2814 -0.8339 0.8727
-30.0832 -14.5856 -0.8189 0.8748
-29.8163 -14.6846 -0.8141 0.8755
-29.5524 -14.7825 -0.8094 0.8762
-28.7788 -15.0694 -0.7957 0.8781
-27.7866 -15.4373 -0.7786 0.8806
-27.0697 -15.7032 -0.7666 0.8823
-26.8356 -15.7900 -0.7627 0.8829
-26.3745 -15.9611 -0.7551 0.8840
-25.9223 -16.1288 -0.7478 0.8850
-25.6994 -16.2114 -0.7443 0.8855
-25.2600 -16.3744 -0.7374 0.8865
-24.1956 -16.7690 -0.7211 0.8889
-23.7828 -16.9222 -0.7150 0.8898
-23.1763 -17.1471 -0.7062 0.8911
-22.7802 -17.2941 -0.7006 0.8919
-22.5844 -17.3666 -0.6978 0.8923
-22.3902 -17.4387 -0.6952 0.8927
-22.0062 -17.5811 -0.6899 0.8934
-21.8163 -17.6516 -0.6874 0.8938
-21.6278 -17.7215 -0.6849 0.8942
-21.4406 -17.7909 -0.6824 0.8945
-21.2548 -17.8598 -0.6800 0.8949
-20.8871 -17.9962 -0.6753 0.8956
-20.7051 -18.0637 -0.6730 0.8959
-20.5243 -18.1308 -0.6708 0.8962
-20.3448 -18.1974 -0.6686 0.8965
-20.1664 -18.2636 -0.6664 0.8969
-19.9891 -18.3293 -0.6643 0.8972
-19.8130 -18.3946 -0.6622 0.8975
-19.6379 -18.4595 -0.6602 0.8978
-19.4640 -18.5241 -0.6582 0.8981
-19.2911 -18.5882 -0.6562 0.8984
-19.1854 -18.7166 -0.6565 0.8983
-18.7785 -18.7785 -0.6505 0.8992
-18.6096 -18.8412 -0.6487 0.8995
-18.4416 -18.9036 -0.6469 0.8997
-17.9431 -19.0885 -0.6417 0.9005
-17.7786 -19.1494 -0.6401 0.9007
-17.6150 -19.2101 -0.6384 0.9010
-17.4523 -19.2705 -0.6368 0.9012
-17.1291 -19.3904 -0.6337 0.9017
-16.6501 -19.5681 -0.6293 0.9023
-16.1775 -19.7434 -0.6252 0.9029
-15.8658 -19.8590 -0.6226 0.9033
-15.7109 -19.9165 -0.6214 0.9035
-15.5566 -19.9737 -0.6201 0.9037
-14.6431 -20.3126 -0.6134 0.9047
-14.4928 -20.3684 -0.6123 0.9048
-13.8962 -20.5897 -0.6085 0.9054
-13.4535 -20.7539 -0.6058 0.9058
-12.8688 -20.9708 -0.6027 0.9062
-12.7235 -21.0247 -0.6020 0.9064
-12.1459 -21.2390 -0.5993 0.9067
-12.0022 -21.2923 -0.5987 0.9068
-11.8589 -21.3455 -0.5981 0.9069
-11.5729 -21.4515 -0.5970 0.9071
-11.4304 -21.5045 -0.5965 0.9072
-11.1459 -21.6100 -0.5956 0.9073
-10.4382 -21.8726 -0.5937 0.9076
-10.2972 -21.9249 -0.5933 0.9076
-10.1563 -21.9771 -0.5930 0.9077
-9.8750 -22.0815 -0.5925 0.9078
-9.7345 -22.1337 -0.5923 0.9078
-9.3136 -22.2898 -0.5917 0.9079
-9.0334 -22.3938 -0.5915 0.9079
-8.9521 -22.5940 -0.5953 0.9073
-8.4734 -22.6015 -0.5912 0.9079
-8.3334 -22.6534 -0.5912 0.9079
-8.1935 -22.7053 -0.5913 0.9079
-8.0535 -22.7572 -0.5913 0.9079
-7.7735 -22.8611 -0.5915 0.9079
-7.4932 -22.9651 -0.5917 0.9079
-6.7913 -23.2256 -0.5927 0.9077
-6.2276 -23.4348 -0.5940 0.9075
-6.0862 -23.4872 -0.5943 0.9075
-5.9448 -23.5397 -0.5947 0.9074
-5.8031 -23.5923 -0.5951 0.9074
-5.5191 -23.6976 -0.5960 0.9072
-5.0914 -23.8564 -0.5975 0.9070
-4.9483 -23.9095 -0.5981 0.9069
-4.3732 -24.1228 -0.6005 0.9066
-4.2287 -24.1765 -0.6012 0.9065
-3.9386 -24.2841 -0.6026 0.9063
-3.3542 -24.5013 -0.6058 0.9058
-2.9116 -24.6656 -0.6084 0.9054
-2.7632 -24.7206 -0.6093 0.9053
-2.6144 -24.7759 -0.6103 0.9051
-2.3152 -24.8869 -0.6122 0.9048
-1.7108 -25.1112 -0.6165 0.9042
-1.5584 -25.1677 -0.6177 0.9040
-1.2518 -25.2816 -0.6200 0.9037
-0.7873 -25.4539 -0.6238 0.9031
-0.3170 -25.6285 -0.6278 0.9025
0.3199 -25.8649 -0.6336 0.9017
0.6429 -25.9847 -0.6367 0.9012
1.1335 -26.1668 -0.6416 0.9005
1.7996 -26.4138 -0.6485 0.8995
1.9684 -26.4765 -0.6503 0.8992
2.1382 -26.5395 -0.6522 0.8989
2.3090 -26.6029 -0.6541 0.8987
2.8274 -26.7953 -0.6600 0.8978
2.3706 -21.2077 -0.5227 0.9182
2.5050 -21.2210 -0.5234 0.9181
3.4475 -26.3962 -0.6521 0.8990
3.6104 -26.3730 -0.6520 0.8990
3.7734 -26.3498 -0.6520 0.8990
3.9364 -26.3266 -0.6520 0.8990
4.2624 -26.2802 -0.6521 0.8990
4.4254 -26.2570 -0.6522 0.8989
4.5886 -26.2338 -0.6524 0.8989
4.9150 -26.1873 -0.6527 0.8989
5.0783 -26.1641 -0.6528 0.8988
5.2418 -26.1408 -0.6531 0.8988
5.8968 -26.0476 -0.6542 0.8987
5.9506 -24.1920 -0.6102 0.9051
7.1843 -24.0173 -0.6141 0.9046
7.8077 -23.9291 -0.6165 0.9042
8.2789 -23.8624 -0.6187 0.9039
8.4367 -23.8400 -0.6194 0.9038
8.5948 -23.8176 -0.6202 0.9036
8.9125 -23.7727 -0.6219 0.9034
10.1424 -25.5982 -0.6744 0.8957
10.3161 -25.5736 -0.6755 0.8955
10.8404 -25.4994 -0.6787 0.8951
11.3077 -25.2853 -0.6785 0.8951
11.9052 -25.3486 -0.6860 0.8940
12.0850 -25.3232 -0.6873 0.8938
12.4466 -25.2720 -0.6900 0.8934
12.6285 -25.2462 -0.6915 0.8932
13.2908 -25.0046 -0.6936 0.8929
13.4756 -24.9784 -0.6952 0.8927
13.5416 -24.7333 -0.6907 0.8933
13.3452 -24.0209 -0.6731 0.8959
13.2798 -23.5587 -0.6624 0.8974
13.4201 -23.1339 -0.6551 0.8985
13.7753 -23.0837 -0.6585 0.8980
13.9542 -23.0583 -0.6602 0.8978
14.5623 -23.0851 -0.6686 0.8965
15.1166 -23.0066 -0.6743 0.8957
15.6807 -22.9268 -0.6804 0.8948
15.8002 -22.7977 -0.6794 0.8950
16.1828 -22.7436 -0.6837 0.8943
16.6445 -22.7904 -0.6913 0.8932
17.2380 -22.7064 -0.6983 0.8922
17.4386 -22.6780 -0.7007 0.8918
17.8440 -22.6207 -0.7057 0.8911
18.5895 -22.4030 -0.7131 0.8900
20.4175 -23.9958 -0.7718 0.8816
20.8778 -23.9307 -0.7779 0.8807
21.1108 -23.8977 -0.7810 0.8802
22.8158 -25.5083 -0.8383 0.8720
17.4130 -18.2966 -0.6187 0.9039
17.4821 -18.1431 -0.6172 0.9041
17.5457 -17.9852 -0.6155 0.9044
17.7870 -17.1389 -0.6050 0.9059
17.9462 -17.0796 -0.6068 0.9056
17.8036 -16.5291 -0.5951 0.9074
18.0612 -16.1548 -0.5936 0.9076
18.6687 -16.4916 -0.6102 0.9051
19.5556 -16.8490 -0.6323 0.9019
20.0236 -17.0377 -0.6440 0.9001
20.5094 -17.2334 -0.6562 0.8984
22.0837 -17.8679 -0.6958 0.8926
22.6517 -18.0969 -0.7102 0.8905
23.8203 -18.5525 -0.7396 0.8862
24.4640 -18.8120 -0.7559 0.8838
25.1368 -19.0832 -0.7731 0.8814
25.8409 -19.3669 -0.7910 0.8788
27.3520 -19.9760 -0.8296 0.8733
29.9636 -21.0422 -0.8969 0.8637
30.9135 -21.4250 -0.9213 0.8603
31.9167 -21.8294 -0.9472 0.8567
35.3077 -23.1991 -1.0348 0.8445
37.5104 -23.9875 -1.0906 0.8368
23.0907 -14.1697 -0.6636 0.8973
23.1035 -13.9816 -0.6615 0.8976
46.3030 -27.6315 -1.3208 0.8059
48.3756 -28.4641 -1.3749 0.7989
51.6501 -29.5369 -1.4574 0.7881
33.0177 -18.3436 -0.9252 0.8597
33.4282 -17.7682 -0.9273 0.8594
33.6039 -17.3320 -0.9262 0.8596
33.8667 -16.6795 -0.9247 0.8598
34.0415 -16.2456 -0.9239 0.8599
34.2160 -15.8123 -0.9233 0.8600
34.3903 -15.3795 -0.9228 0.8601
34.4774 -15.1633 -0.9226 0.8601
34.6514 -14.7311 -0.9223 0.8601
34.8452 -13.8062 -0.9181 0.8607
35.0970 -13.4061 -0.9203 0.8604
35.1917 -12.9458 -0.9185 0.8607
35.2784 -12.7306 -0.9187 0.8607
35.6088 -12.3542 -0.9232 0.8600
35.6960 -12.1377 -0.9235 0.8600
35.8706 -11.7042 -0.9242 0.8599
35.9580 -11.4871 -0.9246 0.8598
36.2208 -10.8348 -0.9261 0.8596
36.3964 -10.3986 -0.9272 0.8595
36.4845 -10.1802 -0.9278 0.8594
36.9264 -9.0829 -0.9315 0.8589
37.0153 -8.8623 -0.9323 0.8587
36.9408 -8.6033 -0.9291 0.8592
58.6104 -12.5085 -1.4680 0.7868
58.7511 -12.1592 -1.4696 0.7866
37.4033 -7.0201 -0.9322 0.8588
37.6733 -6.3496 -0.9358 0.8582
37.9456 -5.6737 -0.9398 0.8577
60.3155 -8.2571 -1.4912 0.7838
60.4611 -7.8964 -1.4936 0.7835
60.6071 -7.5346 -1.4960 0.7832
60.7537 -7.1716 -1.4985 0.7829
60.9007 -6.8074 -1.5010 0.7826
61.0482 -6.4418 -1.5037 0.7822
61.1208 -6.0676 -1.5045 0.7821
61.5038 -5.3383 -1.5122 0.7811
38.9272 -2.8941 -0.9562 0.8554
39.1747 -2.1826 -0.9611 0.8547
41.1510 -1.2729 -1.0085 0.8481
40.0157 -0.7425 -0.9803 0.8520
39.4517 -0.4880 -0.9664 0.8540
41.2355 -0.0000 -1.0101 0.8479
41.3385 0.2556 -1.0126 0.8475
39.8732 0.4932 -0.9768 0.8525
41.7558 1.2915 -1.0233 0.8461
41.8615 1.5540 -1.0261 0.8457
40.3791 1.7491 -0.9900 0.8507
40.4832 2.0045 -0.9928 0.8503
40.5854 2.2612 -0.9957 0.8499
40.5186 2.5090 -0.9944 0.8501
42.3991 2.8887 -1.0410 0.8436
42.5280 3.1618 -1.0446 0.8431
42.8410 3.9855 -1.0539 0.8418
42.9531 4.2640 -1.0573 0.8414
38.2252 4.0336 -0.9415 0.8574
43.4220 4.8536 -1.0702 0.8396
41.5818 5.1694 -1.0264 0.8456
43.6619 5.9773 -1.0795 0.8383
43.7795 6.2695 -1.0833 0.8378
43.8817 6.5612 -1.0868 0.8373
43.9976 6.8570 -1.0907 0.8368
44.1179 7.1555 -1.0948 0.8362
44.3611 7.7592 -1.1031 0.8351
44.6080 8.3723 -1.1117 0.8339
42.8325 8.3136 -1.0688 0.8398
45.1139 9.6282 -1.1299 0.8315
45.2430 9.9486 -1.1347 0.8308
45.0215 10.7793 -1.1340 0.8309
44.5672 10.9624 -1.1242 0.8322
44.1383 11.1468 -1.1151 0.8335
52.8828 14.4038 -1.3425 0.8031
52.3668 14.6118 -1.3317 0.8045
45.9696 13.7509 -1.1753 0.8253
48.5171 16.1632 -1.2526 0.8150
48.2492 17.4112 -1.2565 0.8145
39.7749 16.0447 -1.0506 0.8423
39.3740 16.1668 -1.0426 0.8434
39.0203 16.3043 -1.0359 0.8443
38.4756 16.6386 -1.0268 0.8456
38.3950 16.8863 -1.0274 0.8455
38.8462 17.6613 -1.0453 0.8430
39.0425 18.0428 -1.0535 0.8419
39.1764 18.3995 -1.0602 0.8410
39.4587 19.1313 -1.0741 0.8391
50.0462 25.8125 -1.3793 0.7983
52.4703 27.8897 -1.4555 0.7884
52.8311 28.9252 -1.4754 0.7858
41.4923 23.0518 -1.1627 0.8270
40.7928 23.3280 -1.1511 0.8286
54.0516 31.8038 -1.5362 0.7781
53.8835 32.1552 -1.5370 0.7780
53.7912 32.5529 -1.5401 0.7776
53.6986 32.9523 -1.5433 0.7772
53.6055 33.3533 -1.5465 0.7768
54.1021 34.5977 -1.5730 0.7734
53.5369 34.7045 -1.5628 0.7747
53.8619 35.8691 -1.5851 0.7719
55.6102 37.5317 -1.6434 0.7646
55.6462 39.5940 -1.6729 0.7609
55.9284 40.3181 -1.6888 0.7589
17.4787 14.8723 -0.5622 0.9123
17.3282 14.9299 -0.5603 0.9125
16.7358 15.1567 -0.5531 0.9136
16.5900 15.2125 -0.5513 0.9139
16.4451 15.2679 -0.5497 0.9141
16.3011 15.3230 -0.5480 0.9144
16.1581 15.3778 -0.5464 0.9146
16.0158 15.4323 -0.5448 0.9149
15.7336 15.5402 -0.5417 0.9153
15.4547 15.6470 -0.5387 0.9158
15.1787 15.7527 -0.5358 0.9162
15.0418 15.8050 -0.5344 0.9164
14.9784 16.1334 -0.5392 0.9157
15.1086 16.4767 -0.5476 0.9144
15.2429 16.8310 -0.5562 0.9131
15.3814 17.1965 -0.5651 0.9118
15.9841 18.7854 -0.6042 0.9060
16.1479 19.2175 -0.6148 0.9044
16.6761 20.6106 -0.6494 0.8994
17.2673 22.1702 -0.6883 0.8937
17.4797 22.7314 -0.7024 0.8916
18.1793 24.5714 -0.7487 0.8849
13.8704 19.2406 -0.5810 0.9095
13.4778 19.4467 -0.5796 0.9097
13.3388 19.5027 -0.5788 0.9098
5.6873 8.6557 -0.2537 0.9594
5.5869 8.6186 -0.2516 0.9597
5.4731 8.6763 -0.2513 0.9598
5.4396 8.7425 -0.2522 0.9596
6.0629 10.3042 -0.2929 0.9533
5.9518 10.2600 -0.2905 0.9536
5.8628 10.2521 -0.2893 0.9538
5.3891 10.2919 -0.2846 0.9546
5.2448 10.3251 -0.2837 0.9547
5.1730 10.3416 -0.2832 0.9548
5.1014 10.3581 -0.2828 0.9549
5.0300 10.3745 -0.2824 0.9549
4.9635 10.4007 -0.2823 0.9549
4.6329 10.5339 -0.2819 0.9550
4.5668 10.5605 -0.2818 0.9550
4.5008 10.5871 -0.2818 0.9550
4.4348 10.6137 -0.2818 0.9550
4.3029 10.6669 -0.2817 0.9550
4.2369 10.6934 -0.2817 0.9550
4.1709 10.7200 -0.2818 0.9550
4.0207 10.7247 -0.2806 0.9552
3.8758 10.9522 -0.2846 0.9546
3.7423 11.0060 -0.2847 0.9546
3.6755 11.0329 -0.2849 0.9545
3.5418 11.0868 -0.2851 0.9545
3.4748 11.1138 -0.2852 0.9545
3.4077 11.1408 -0.2854 0.9545
3.2734 11.1949 -0.2857 0.9544
3.0038 11.3035 -0.2865 0.9543
2.9361 11.3307 -0.2867 0.9542
2.8684 11.3580 -0.2869 0.9542
2.8005 11.3853 -0.2872 0.9542
2.7325 11.4127 -0.2875 0.9541
2.6643 11.4402 -0.2877 0.9541
2.4935 11.3398 -0.2844 0.9546
2.3688 11.4459 -0.2863 0.9543
2.3006 11.4733 -0.2866 0.9543
2.2323 11.5009 -0.2870 0.9542
2.1637 11.5285 -0.2873 0.9542
2.0950 11.5561 -0.2877 0.9541
1.8878 11.6396 -0.2888 0.9539
1.8184 11.6675 -0.2892 0.9539
1.7488 11.6956 -0.2897 0.9538
1.6088 11.7520 -0.2905 0.9536
1.5386 11.7803 -0.2910 0.9536
1.4680 11.8087 -0.2915 0.9535
1.3263 11.8657 -0.2925 0.9534
1.2551 11.8944 -0.2930 0.9533
0.8223 12.0687 -0.2963 0.9528
0.7491 12.0982 -0.2969 0.9527
0.6757 12.1277 -0.2975 0.9526
0.6004 12.1257 -0.2974 0.9526
0.5255 12.1324 -0.2975 0.9526
0.4577 12.3289 -0.3022 0.9518
0.1540 12.4512 -0.3050 0.9514
-0.0776 12.5445 -0.3073 0.9510
-0.1556 12.5758 -0.3081 0.9509
-0.3127 12.6391 -0.3097 0.9507
-0.4692 12.6373 -0.3098 0.9507
-0.6322 12.7678 -0.3131 0.9501
-0.7946 12.8332 -0.3150 0.9499
-0.8766 12.8662 -0.3159 0.9497
-1.0279 12.7579 -0.3135 0.9501
-1.1153 12.8490 -0.3159 0.9497
-1.3563 12.8537 -0.3166 0.9496
-1.4193 12.6974 -0.3130 0.9502
-1.4808 12.5447 -0.3094 0.9507
-1.5597 12.5461 -0.3097 0.9507
-1.6429 12.5797 -0.3108 0.9505
-1.8112 12.6474 -0.3130 0.9502
-1.8962 12.6816 -0.3141 0.9500
-1.9818 12.7161 -0.3152 0.9498
-2.0681 12.7508 -0.3164 0.9496
-2.2426 12.8211 -0.3188 0.9493
-2.4197 12.8924 -0.3213 0.9489
-2.7569 13.7485 -0.3435 0.9454
-2.8535 13.7874 -0.3449 0.9452
-2.9509 13.8266 -0.3463 0.9450
-3.0491 13.8662 -0.3478 0.9448
-3.3488 13.9869 -0.3523 0.9441
-3.4505 14.0278 -0.3539 0.9438
-2.3605 8.8828 -0.2251 0.9639
-3.3348 12.2437 -0.3108 0.9505
-3.3401 11.9706 -0.3044 0.9515
-3.3451 11.7084 -0.2983 0.9524
