ply
format ascii 1.0
element vertex 1597
property float32 x
property float32 y
property float32 z
property float32 I
end_header
8.0270 -3.0661 -2.4423 0.9649
8.0662 -2.9673 -2.4428 0.9649
8.1226 -2.8180 -2.4437 0.9649
8.1408 -2.7681 -2.4439 0.9649
8.1762 -2.6678 -2.4445 0.9649
8.1934 -2.6174 -2.4447 0.9649
8.2748 -2.3641 -2.4460 0.9648
8.2902 -2.3132 -2.4463 0.9648
8.3052 -2.2621 -2.4466 0.9648
8.3199 -2.2109 -2.4468 0.9648
8.3342 -2.1596 -2.4471 0.9648
8.3483 -2.1083 -2.4473 0.9648
8.3620 -2.0568 -2.4476 0.9648
8.3754 -2.0053 -2.4478 0.9648
8.4013 -1.9019 -2.4483 0.9648
8.4137 -1.8501 -2.4485 0.9648
8.4258 -1.7983 -2.4488 0.9648
8.4376 -1.7463 -2.4490 0.9648
8.4602 -1.6421 -2.4495 0.9648
8.4710 -1.5899 -2.4497 0.9648
8.4814 -1.5376 -2.4500 0.9648
8.4916 -1.4853 -2.4502 0.9648
8.5109 -1.3804 -2.4506 0.9648
8.5200 -1.3278 -2.4509 0.9648
8.5288 -1.2752 -2.4511 0.9648
8.5455 -1.1699 -2.4515 0.9648
8.5533 -1.1171 -2.4517 0.9648
8.5608 -1.0643 -2.4519 0.9648
8.5812 -0.9055 -2.4526 0.9648
8.5874 -0.8525 -2.4528 0.9648
8.5932 -0.7994 -2.4530 0.9647
8.5987 -0.7463 -2.4532 0.9647
8.6038 -0.6932 -2.4534 0.9647
8.6087 -0.6400 -2.4536 0.9647
8.6131 -0.5868 -2.4538 0.9647
8.6172 -0.5336 -2.4540 0.9647
8.6211 -0.4803 -2.4541 0.9647
8.6277 -0.3737 -2.4545 0.9647
8.6351 -0.2136 -2.4551 0.9647
8.6368 -0.1601 -2.4553 0.9647
8.6402 0.0000 -2.4558 0.9647
8.6406 0.0534 -2.4559 0.9647
8.6399 0.2138 -2.4564 0.9647
8.6390 0.2672 -2.4566 0.9647
8.6377 0.3207 -2.4568 0.9647
8.6361 0.3741 -2.4569 0.9647
8.6342 0.4275 -2.4571 0.9647
8.6194 0.6945 -2.4578 0.9647
8.6112 0.8011 -2.4581 0.9647
8.6065 0.8544 -2.4582 0.9647
8.5906 1.0141 -2.4586 0.9647
8.5783 1.1204 -2.4589 0.9647
8.5716 1.1734 -2.4590 0.9647
8.5646 1.2265 -2.4591 0.9647
8.5416 1.3854 -2.4595 0.9647
8.5246 1.4910 -2.4597 0.9647
8.4865 1.7017 -2.4601 0.9646
8.4655 1.8067 -2.4603 0.9646
8.4431 1.9114 -2.4605 0.9646
8.4315 1.9636 -2.4606 0.9646
8.4071 2.0679 -2.4607 0.9646
8.3681 2.2237 -2.4610 0.9646
8.3545 2.2755 -2.4611 0.9646
8.3404 2.3272 -2.4611 0.9646
8.3115 2.4303 -2.4613 0.9646
8.2656 2.5843 -2.4615 0.9646
8.2334 2.6864 -2.4616 0.9646
8.2168 2.7373 -2.4616 0.9646
8.1290 2.9903 -2.4619 0.9646
8.0916 3.0908 -2.4619 0.9646
8.0530 3.1907 -2.4620 0.9646
8.0131 3.2901 -2.4621 0.9646
7.9927 3.3397 -2.4621 0.9646
7.9079 3.5364 -2.4622 0.9646
7.8859 3.5853 -2.4622 0.9646
7.8636 3.6340 -2.4622 0.9646
7.8410 3.6826 -2.4622 0.9646
7.7949 3.7793 -2.4622 0.9646
7.7713 3.8274 -2.4622 0.9646
7.7475 3.8754 -2.4622 0.9646
7.6743 4.0184 -2.4622 0.9646
7.5723 4.2069 -2.4621 0.9646
7.5461 4.2536 -2.4621 0.9646
7.4928 4.3465 -2.4620 0.9646
7.4656 4.3927 -2.4620 0.9646
7.4105 4.4846 -2.4619 0.9646
7.2969 4.6662 -2.4618 0.9646
7.2677 4.7112 -2.4617 0.9646
7.2383 4.7560 -2.4617 0.9646
7.1787 4.8449 -2.4616 0.9646
7.1179 4.9331 -2.4615 0.9646
7.0871 4.9769 -2.4614 0.9646
7.0560 5.0205 -2.4613 0.9646
7.0246 5.0639 -2.4613 0.9646
6.9929 5.1071 -2.4612 0.9646
6.9610 5.1501 -2.4611 0.9646
6.8964 5.2355 -2.4610 0.9646
6.8307 5.3201 -2.4608 0.9646
6.7639 5.4038 -2.4607 0.9646
6.6961 5.4867 -2.4605 0.9646
6.6272 5.5686 -2.4603 0.9646
6.5924 5.6093 -2.4602 0.9646
6.5573 5.6497 -2.4601 0.9646
6.5220 5.6899 -2.4600 0.9646
6.4864 5.7299 -2.4599 0.9646
6.4071 5.7308 -2.4433 0.9649
6.1583 5.6469 -2.3748 0.9659
6.0392 5.6069 -2.3422 0.9663
5.9314 5.5755 -2.3138 0.9667
5.8698 5.5863 -2.3031 0.9669
5.8348 5.6222 -2.3030 0.9669
5.7287 5.7286 -2.3027 0.9669
5.6568 5.7985 -2.3024 0.9669
5.5473 5.9014 -2.3021 0.9669
5.4360 6.0023 -2.3017 0.9669
5.3227 6.1010 -2.3012 0.9669
5.2462 6.1656 -2.3010 0.9669
5.2076 6.1975 -2.3008 0.9669
5.1299 6.2607 -2.3005 0.9669
5.0119 6.3535 -2.3001 0.9669
4.9721 6.3839 -2.2999 0.9669
4.8921 6.4440 -2.2996 0.9669
4.7707 6.5322 -2.2991 0.9669
4.7299 6.5611 -2.2989 0.9669
4.6888 6.5897 -2.2987 0.9669
4.6477 6.6181 -2.2986 0.9669
4.5648 6.6740 -2.2982 0.9669
4.4391 6.7560 -2.2977 0.9669
4.2263 6.8871 -2.2967 0.9670
4.1401 6.9377 -2.2963 0.9670
4.0533 6.9872 -2.2959 0.9670
4.0097 7.0115 -2.2957 0.9670
3.9219 7.0593 -2.2953 0.9670
3.8336 7.1059 -2.2949 0.9670
3.7447 7.1515 -2.2944 0.9670
3.7001 7.1738 -2.2942 0.9670
3.6553 7.1959 -2.2940 0.9670
3.6104 7.2177 -2.2938 0.9670
3.5654 7.2392 -2.2936 0.9670
3.5202 7.2604 -2.2934 0.9670
3.4749 7.2813 -2.2931 0.9670
3.4295 7.3020 -2.2929 0.9670
3.3382 7.3424 -2.2925 0.9670
3.2465 7.3816 -2.2920 0.9670
3.1081 7.4383 -2.2913 0.9670
3.0617 7.4566 -2.2911 0.9670
3.0153 7.4746 -2.2908 0.9670
2.9686 7.4923 -2.2906 0.9670
2.9219 7.5098 -2.2904 0.9670
2.8751 7.5269 -2.2901 0.9670
2.8282 7.5438 -2.2899 0.9671
2.7341 7.5766 -2.2894 0.9671
2.6397 7.6082 -2.2889 0.9671
2.5923 7.6236 -2.2887 0.9671
2.5448 7.6386 -2.2884 0.9671
2.3540 7.6958 -2.2874 0.9671
2.2102 7.7356 -2.2866 0.9671
2.1620 7.7482 -2.2864 0.9671
2.1138 7.7605 -2.2861 0.9671
2.0655 7.7726 -2.2859 0.9671
1.9203 7.8069 -2.2851 0.9671
1.8232 7.8282 -2.2845 0.9671
1.7258 7.8482 -2.2840 0.9671
1.6771 7.8578 -2.2837 0.9671
1.6282 7.8671 -2.2834 0.9671
1.5304 7.8847 -2.2829 0.9672
1.4324 7.9011 -2.2823 0.9672
1.3834 7.9088 -2.2820 0.9672
1.1867 7.9367 -2.2809 0.9672
1.1375 7.9429 -2.2806 0.9672
1.0882 7.9488 -2.2803 0.9672
0.9896 7.9596 -2.2798 0.9672
0.9402 7.9645 -2.2795 0.9672
0.8908 7.9692 -2.2792 0.9672
0.8414 7.9735 -2.2789 0.9672
0.7920 7.9775 -2.2786 0.9672
0.7426 7.9813 -2.2783 0.9672
0.4905 7.1992 -2.0509 0.9704
0.3573 7.2171 -2.0538 0.9704
0.3128 7.2206 -2.0542 0.9704
0.2970 8.0007 -2.2756 0.9673
0.2119 6.8520 -1.9484 0.9719
0.1669 6.7461 -1.9180 0.9723
0.1276 6.8754 -1.9545 0.9718
0.0782 6.3220 -1.7970 0.9741
-0.0000 6.3399 -1.8020 0.9740
-0.0776 6.2718 -1.7828 0.9743
-0.1160 6.2495 -1.7766 0.9743
-0.1914 6.1886 -1.7598 0.9746
-0.2296 6.1863 -1.7595 0.9746
-0.3000 6.0585 -1.7241 0.9751
-0.3384 6.0741 -1.7291 0.9750
-0.3755 6.0645 -1.7270 0.9750
-0.4314 6.3323 -1.8040 0.9740
-0.5274 6.0767 -1.7337 0.9750
-0.5813 6.2487 -1.7837 0.9742
-0.6166 6.2114 -1.7741 0.9744
-0.6985 6.2488 -1.7872 0.9742
-0.8219 6.2926 -1.8037 0.9740
-0.9082 6.3417 -1.8209 0.9737
-0.9763 6.2645 -1.8020 0.9740
-1.2734 6.3506 -1.8409 0.9734
-1.3158 6.3575 -1.8453 0.9734
-1.3896 6.1384 -1.7889 0.9742
-1.4725 6.3226 -1.8451 0.9734
-1.5084 6.3000 -1.8413 0.9734
-1.5444 6.2788 -1.8378 0.9735
-1.6123 6.3843 -1.8716 0.9730
-1.7264 6.3383 -1.8672 0.9731
-1.7614 6.3125 -1.8627 0.9731
-1.9622 6.4149 -1.9067 0.9725
-1.9401 6.2053 -1.8479 0.9733
-1.9783 6.1927 -1.8478 0.9733
-2.0829 6.3834 -1.9085 0.9725
-2.1911 6.4438 -1.9345 0.9721
-2.3744 6.4547 -1.9548 0.9718
-2.4682 6.4616 -1.9660 0.9716
-2.4692 6.2319 -1.9052 0.9725
-2.6388 6.4267 -1.9746 0.9715
-2.7230 6.4052 -1.9782 0.9715
-2.7806 6.4300 -1.9912 0.9713
-2.8512 6.4828 -2.0129 0.9710
-2.9217 6.5333 -2.0342 0.9707
-2.9465 6.4809 -2.0235 0.9708
-2.9964 6.3801 -2.0034 0.9711
-3.1332 6.4622 -2.0412 0.9706
-3.2162 6.5303 -2.0690 0.9702
-3.1404 6.2782 -1.9952 0.9712
-3.3013 6.4991 -2.0719 0.9701
-3.3984 6.5889 -2.1072 0.9696
-3.2978 6.2979 -2.0206 0.9709
-3.5912 6.5593 -2.1255 0.9694
-3.6613 6.5902 -2.1428 0.9691
-3.7123 6.5857 -2.1487 0.9691
-3.8048 6.5588 -2.1552 0.9690
-3.9075 6.5478 -2.1673 0.9688
-3.8936 6.3450 -2.1159 0.9695
-3.9507 6.3495 -2.1255 0.9694
-4.1958 6.5611 -2.2136 0.9681
-4.3698 6.5618 -2.2408 0.9677
-4.4038 6.5250 -2.2374 0.9678
-4.4492 6.5052 -2.2401 0.9678
-4.5670 6.4186 -2.2390 0.9678
-4.6447 6.3597 -2.2384 0.9678
-4.6832 6.3299 -2.2380 0.9678
-4.7976 6.2392 -2.2370 0.9678
-4.8354 6.2084 -2.2367 0.9678
-4.9104 6.1463 -2.2360 0.9678
-4.9845 6.0833 -2.2353 0.9678
-5.1663 5.9218 -2.2337 0.9678
-5.2021 5.8889 -2.2333 0.9679
-5.2376 5.8557 -2.2330 0.9679
-5.3430 5.7550 -2.2320 0.9679
-5.4122 5.6868 -2.2314 0.9679
-5.4464 5.6524 -2.2310 0.9679
-5.4805 5.6178 -2.2307 0.9679
-5.6802 5.4059 -2.2288 0.9679
-5.7126 5.3699 -2.2285 0.9679
-5.7449 5.3337 -2.2281 0.9679
-5.8404 5.2240 -2.2272 0.9679
-5.9029 5.1499 -2.2265 0.9679
-5.9949 5.0374 -2.2256 0.9680
-6.0251 4.9995 -2.2253 0.9680
-6.0551 4.9614 -2.2250 0.9680
-6.1420 4.9070 -2.2345 0.9678
-6.3017 4.9081 -2.2703 0.9673
-6.4721 4.9135 -2.3096 0.9668
-6.5596 4.9162 -2.3299 0.9665
-6.6485 4.9189 -2.3507 0.9662
-6.7390 4.9217 -2.3719 0.9659
-6.7713 4.8814 -2.3726 0.9659
-6.8004 4.8388 -2.3722 0.9659
-6.9143 4.6666 -2.3710 0.9659
-6.9421 4.6231 -2.3707 0.9659
-6.9697 4.5795 -2.3704 0.9659
-7.1292 4.3144 -2.3685 0.9659
-7.2301 4.1346 -2.3673 0.9660
-7.2788 4.0439 -2.3667 0.9660
-7.3028 3.9983 -2.3664 0.9660
-7.3264 3.9526 -2.3661 0.9660
-7.3729 3.8607 -2.3655 0.9660
-7.4184 3.7683 -2.3649 0.9660
-7.4406 3.7219 -2.3647 0.9660
-7.4626 3.6754 -2.3644 0.9660
-7.4842 3.6287 -2.3641 0.9660
-7.5268 3.5350 -2.3635 0.9660
-7.5883 3.3936 -2.3627 0.9660
-7.6083 3.3462 -2.3624 0.9660
-7.6280 3.2987 -2.3621 0.9660
-7.6473 3.2511 -2.3619 0.9660
-7.6664 3.2034 -2.3616 0.9660
-7.7037 3.1076 -2.3611 0.9660
-7.7219 3.0595 -2.3608 0.9661
-7.7574 2.9631 -2.3603 0.9661
-7.7747 2.9148 -2.3600 0.9661
-7.7917 2.8663 -2.3597 0.9661
-7.8410 2.7204 -2.3590 0.9661
-7.8724 2.6227 -2.3585 0.9661
-7.8876 2.5736 -2.3582 0.9661
-7.9025 2.5246 -2.3580 0.9661
-7.9172 2.4754 -2.3577 0.9661
-7.9315 2.4261 -2.3575 0.9661
-7.9455 2.3768 -2.3572 0.9661
-7.9858 2.2283 -2.3565 0.9661
-8.0234 2.0791 -2.3558 0.9661
-8.0692 1.8793 -2.3549 0.9661
-8.0799 1.8292 -2.3547 0.9661
-8.1101 1.6785 -2.3540 0.9661
-8.1196 1.6282 -2.3538 0.9661
-8.1377 1.5273 -2.3533 0.9662
-8.1700 1.3251 -2.3525 0.9662
-8.1773 1.2744 -2.3523 0.9662
-8.1844 1.2237 -2.3521 0.9662
-8.1911 1.1730 -2.3519 0.9662
-8.1975 1.1222 -2.3517 0.9662
-8.2036 1.0714 -2.3515 0.9662
-8.2093 1.0206 -2.3513 0.9662
-8.2294 0.8170 -2.3505 0.9662
-8.2375 0.7150 -2.3502 0.9662
-8.2412 0.6640 -2.3500 0.9662
-8.2445 0.6130 -2.3498 0.9662
-8.2502 0.5108 -2.3494 0.9662
-8.2526 0.4598 -2.3493 0.9662
-8.2546 0.4087 -2.3491 0.9662
-8.2564 0.3576 -2.3489 0.9662
-8.2606 0.0511 -2.3479 0.9662
-8.0361 -0.0994 -2.3489 0.9671
-8.0348 -0.1491 -2.3488 0.9671
-8.0333 -0.1988 -2.3486 0.9671
-8.0314 -0.2484 -2.3485 0.9671
-8.0292 -0.2981 -2.3483 0.9671
-8.0267 -0.3477 -2.3482 0.9671
-8.0240 -0.3973 -2.3481 0.9671
-8.0175 -0.4965 -2.3478 0.9671
-8.0099 -0.5955 -2.3475 0.9671
-7.9962 -0.7439 -2.3471 0.9671
-7.9910 -0.7933 -2.3470 0.9671
-7.9855 -0.8426 -2.3469 0.9671
-7.9798 -0.8920 -2.3468 0.9671
-7.9674 -0.9905 -2.3466 0.9671
-7.9607 -1.0397 -2.3464 0.9671
-7.9390 -1.1871 -2.3461 0.9671
-7.9311 -1.2361 -2.3460 0.9671
-7.8968 -1.4316 -2.3456 0.9671
-7.8875 -1.4804 -2.3455 0.9671
-7.8680 -1.5777 -2.3454 0.9671
-7.8578 -1.6263 -2.3453 0.9671
-7.8254 -1.7716 -2.3450 0.9671
-7.8141 -1.8199 -2.3449 0.9671
-7.7782 -1.9643 -2.3447 0.9671
-7.7657 -2.0123 -2.3447 0.9671
-7.6987 -2.2511 -2.3443 0.9671
-7.6844 -2.2987 -2.3443 0.9671
-7.6699 -2.3461 -2.3442 0.9671
-7.6551 -2.3934 -2.3442 0.9671
-7.6400 -2.4407 -2.3441 0.9671
-7.5929 -2.5818 -2.3440 0.9671
-7.5767 -2.6287 -2.3439 0.9671
-7.5601 -2.6754 -2.3439 0.9671
-7.4732 -2.9077 -2.3437 0.9671
-7.3988 -3.0915 -2.3436 0.9671
-7.3794 -3.1372 -2.3436 0.9671
-7.3400 -3.2281 -2.3436 0.9671
-7.2994 -3.3187 -2.3435 0.9671
-7.2787 -3.3637 -2.3435 0.9671
-7.2577 -3.4087 -2.3435 0.9671
-7.2150 -3.4982 -2.3435 0.9671
-7.1932 -3.5427 -2.3435 0.9671
-7.1489 -3.6314 -2.3435 0.9671
-7.1263 -3.6756 -2.3435 0.9671
-7.1035 -3.7196 -2.3435 0.9671
-7.0803 -3.7635 -2.3436 0.9671
-7.0095 -3.8942 -2.3436 0.9671
-6.9112 -4.0666 -2.3437 0.9671
-6.8606 -4.1519 -2.3437 0.9671
-6.8089 -4.2365 -2.3438 0.9671
-6.7827 -4.2786 -2.3438 0.9671
-6.7025 -4.4039 -2.3440 0.9671
-6.6753 -4.4454 -2.3440 0.9671
-6.6200 -4.5278 -2.3441 0.9671
-6.4776 -4.7308 -2.3444 0.9671
-6.4484 -4.7709 -2.3444 0.9671
-6.3893 -4.8506 -2.3446 0.9671
-6.3594 -4.8901 -2.3446 0.9671
-6.3292 -4.9295 -2.3447 0.9671
-6.2681 -5.0077 -2.3449 0.9671
-6.2372 -5.0466 -2.3449 0.9671
-6.2061 -5.0852 -2.3450 0.9671
-6.1431 -5.1619 -2.3452 0.9671
-6.1113 -5.2000 -2.3453 0.9671
-6.0793 -5.2379 -2.3453 0.9671
-6.0470 -5.2756 -2.3454 0.9671
-5.9488 -5.3875 -2.3457 0.9671
-5.9156 -5.4244 -2.3458 0.9671
-5.8822 -5.4611 -2.3459 0.9671
-5.8147 -5.5339 -2.3461 0.9671
-5.7806 -5.5700 -2.3462 0.9671
-5.7463 -5.6060 -2.3463 0.9671
-5.7118 -5.6416 -2.3464 0.9671
-5.6421 -5.7124 -2.3466 0.9671
-5.6070 -5.7475 -2.3468 0.9671
-5.5716 -5.7823 -2.3469 0.9671
-5.5002 -5.8514 -2.3471 0.9671
-5.4280 -5.9196 -2.3474 0.9671
-5.3916 -5.9533 -2.3475 0.9671
-5.3550 -5.9869 -2.3476 0.9671
-5.2811 -6.0534 -2.3479 0.9671
-5.1688 -6.1514 -2.3483 0.9671
-5.0547 -6.2474 -2.3487 0.9671
-4.9777 -6.3102 -2.3490 0.9671
-4.8999 -6.3721 -2.3493 0.9671
-4.8607 -6.4027 -2.3495 0.9671
-4.7818 -6.4632 -2.3498 0.9671
-4.7420 -6.4931 -2.3500 0.9670
-4.6217 -6.5813 -2.3505 0.9670
-4.4998 -6.6674 -2.3510 0.9670
-4.4177 -6.7235 -2.3513 0.9670
-4.2932 -6.8059 -2.3518 0.9670
-4.2513 -6.8329 -2.3520 0.9670
-4.2093 -6.8595 -2.3522 0.9670
-4.0397 -6.9638 -2.3530 0.9670
-3.9969 -6.9892 -2.3532 0.9670
-3.8240 -7.0883 -2.3540 0.9670
-3.7804 -7.1125 -2.3542 0.9670
-3.7367 -7.1363 -2.3544 0.9670
-3.6929 -7.1599 -2.3546 0.9670
-3.6047 -7.2063 -2.3550 0.9670
-3.5603 -7.2291 -2.3552 0.9670
-3.5159 -7.2517 -2.3554 0.9670
-3.4713 -7.2739 -2.3556 0.9670
-3.4265 -7.2959 -2.3559 0.9670
-3.3367 -7.3391 -2.3563 0.9670
-3.2915 -7.3603 -2.3565 0.9670
-3.2009 -7.4019 -2.3570 0.9670
-3.1553 -7.4222 -2.3572 0.9669
-3.1097 -7.4423 -2.3574 0.9669
-3.0639 -7.4621 -2.3577 0.9669
-3.0180 -7.4817 -2.3579 0.9669
-2.9720 -7.5010 -2.3581 0.9669
-2.9258 -7.5200 -2.3584 0.9669
-2.6933 -7.6107 -2.3596 0.9669
-2.6464 -7.6280 -2.3598 0.9669
-2.5995 -7.6450 -2.3600 0.9669
-2.3631 -7.7258 -2.3613 0.9669
-2.3156 -7.7412 -2.3616 0.9669
-2.1244 -7.7995 -2.3626 0.9669
-2.0763 -7.8133 -2.3629 0.9669
-1.9316 -7.8532 -2.3637 0.9669
-1.8348 -7.8783 -2.3642 0.9669
-1.7376 -7.9022 -2.3648 0.9668
-1.5423 -7.9465 -2.3659 0.9668
-1.4933 -7.9568 -2.3661 0.9668
-1.4443 -7.9668 -2.3664 0.9668
-1.3460 -7.9860 -2.3670 0.9668
-1.1980 -8.0125 -2.3679 0.9668
-1.0495 -8.0363 -2.3687 0.9668
-0.9503 -8.0507 -2.3693 0.9668
-0.9006 -8.0574 -2.3696 0.9668
-0.7512 -8.0758 -2.3705 0.9668
-0.7014 -8.0813 -2.3708 0.9668
-0.6515 -8.0865 -2.3711 0.9668
-0.5516 -8.0961 -2.3717 0.9667
-0.2510 -8.1173 -2.3736 0.9667
-0.2009 -8.1198 -2.3739 0.9667
-0.1507 -8.1219 -2.3742 0.9667
-0.1004 -8.1238 -2.3745 0.9667
0.0000 -8.1266 -2.3752 0.9667
0.0503 -8.1275 -2.3755 0.9667
0.2012 -8.1285 -2.3764 0.9667
0.4024 -8.1254 -2.3777 0.9667
0.5533 -8.1199 -2.3787 0.9667
0.7041 -8.1116 -2.3797 0.9666
0.9552 -8.0916 -2.3814 0.9666
1.1557 -8.0701 -2.3827 0.9666
1.2058 -8.0640 -2.3831 0.9666
1.2558 -8.0575 -2.3834 0.9666
1.3058 -8.0507 -2.3837 0.9666
1.4057 -8.0363 -2.3844 0.9666
1.5054 -8.0206 -2.3851 0.9666
1.5552 -8.0123 -2.3854 0.9666
1.8530 -7.9560 -2.3875 0.9665
1.9024 -7.9455 -2.3879 0.9665
1.9518 -7.9348 -2.3882 0.9665
2.1978 -7.8764 -2.3900 0.9665
2.2957 -7.8510 -2.3907 0.9665
2.3446 -7.8378 -2.3910 0.9665
2.3933 -7.8243 -2.3914 0.9665
2.4421 -7.8105 -2.3917 0.9665
2.4907 -7.7964 -2.3921 0.9665
2.5392 -7.7820 -2.3925 0.9665
2.5877 -7.7673 -2.3928 0.9665
2.6843 -7.7370 -2.3935 0.9664
2.8287 -7.6893 -2.3946 0.9664
2.8766 -7.6728 -2.3950 0.9664
3.0198 -7.6215 -2.3960 0.9664
3.1148 -7.5859 -2.3967 0.9664
3.1621 -7.5676 -2.3971 0.9664
3.3034 -7.5110 -2.3982 0.9664
3.3503 -7.4916 -2.3985 0.9664
3.4438 -7.4518 -2.3993 0.9664
3.5830 -7.3900 -2.4003 0.9664
3.6292 -7.3688 -2.4007 0.9663
3.6753 -7.3473 -2.4011 0.9663
3.7670 -7.3035 -2.4018 0.9663
3.8127 -7.2812 -2.4022 0.9663
3.8582 -7.2585 -2.4025 0.9663
3.9036 -7.2356 -2.4029 0.9663
3.9489 -7.2124 -2.4032 0.9663
4.1285 -7.1168 -2.4047 0.9663
4.2175 -7.0674 -2.4054 0.9663
4.3499 -6.9910 -2.4065 0.9663
4.4373 -6.9388 -2.4072 0.9663
4.4808 -6.9123 -2.4076 0.9663
4.5242 -6.8854 -2.4079 0.9662
4.6104 -6.8310 -2.4087 0.9662
4.6959 -6.7755 -2.4094 0.9662
4.7384 -6.7473 -2.4097 0.9662
4.7808 -6.7189 -2.4101 0.9662
4.8229 -6.6902 -2.4105 0.9662
5.0312 -6.5428 -2.4123 0.9662
5.0723 -6.5125 -2.4126 0.9662
5.1133 -6.4819 -2.4130 0.9662
5.1540 -6.4512 -2.4133 0.9662
5.2349 -6.3888 -2.4140 0.9662
5.2751 -6.3572 -2.4144 0.9662
5.3151 -6.3254 -2.4147 0.9662
5.3549 -6.2934 -2.4151 0.9662
5.3946 -6.2610 -2.4155 0.9661
5.4339 -6.2285 -2.4158 0.9661
5.4732 -6.1957 -2.4162 0.9661
5.5122 -6.1626 -2.4165 0.9661
5.5510 -6.1293 -2.4169 0.9661
5.5896 -6.0957 -2.4172 0.9661
5.6280 -6.0619 -2.4176 0.9661
5.7042 -5.9936 -2.4183 0.9661
5.7420 -5.9591 -2.4186 0.9661
5.8169 -5.8893 -2.4193 0.9661
5.8541 -5.8540 -2.4197 0.9661
5.8910 -5.8186 -2.4200 0.9661
5.9277 -5.7829 -2.4204 0.9661
5.9642 -5.7469 -2.4207 0.9661
6.0724 -5.6377 -2.4217 0.9661
6.2135 -5.4888 -2.4231 0.9660
6.2482 -5.4511 -2.4234 0.9660
6.2827 -5.4131 -2.4238 0.9660
6.5499 -5.1014 -2.4265 0.9660
6.6143 -5.0214 -2.4271 0.9660
6.7090 -4.8998 -2.4281 0.9660
6.7401 -4.8589 -2.4284 0.9660
6.7710 -4.8177 -2.4288 0.9660
6.8015 -4.7764 -2.4291 0.9660
6.8319 -4.7349 -2.4294 0.9660
6.8620 -4.6932 -2.4297 0.9659
6.9505 -4.5669 -2.4307 0.9659
6.9796 -4.5244 -2.4310 0.9659
7.0369 -4.4389 -2.4316 0.9659
7.0651 -4.3958 -2.4320 0.9659
7.0930 -4.3526 -2.4323 0.9659
7.1207 -4.3092 -2.4326 0.9659
7.2022 -4.1780 -2.4335 0.9659
7.2288 -4.1339 -2.4338 0.9659
7.3325 -3.9558 -2.4350 0.9659
7.5033 -3.6379 -2.4371 0.9658
7.5722 -3.4993 -2.4380 0.9658
7.5946 -3.4529 -2.4383 0.9658
7.6167 -3.4062 -2.4386 0.9658
7.6813 -3.2655 -2.4394 0.9658
7.7228 -3.1709 -2.4400 0.9658
7.8590 -2.8360 -2.4419 0.9658
7.8772 -2.7876 -2.4422 0.9658
7.8952 -2.7392 -2.4424 0.9658
7.9128 -2.6906 -2.4427 0.9658
7.9472 -2.5930 -2.4432 0.9658
7.9639 -2.5441 -2.4435 0.9658
8.0123 -2.3967 -2.4443 0.9657
8.0278 -2.3474 -2.4445 0.9657
8.0579 -2.2484 -2.4450 0.9657
8.0724 -2.1987 -2.4453 0.9657
8.0867 -2.1489 -2.4455 0.9657
8.1006 -2.0991 -2.4458 0.9657
8.1276 -1.9992 -2.4462 0.9657
8.1406 -1.9490 -2.4465 0.9657
8.1533 -1.8988 -2.4467 0.9657
8.2009 -1.6972 -2.4477 0.9657
8.2120 -1.6466 -2.4479 0.9657
8.2228 -1.5960 -2.4481 0.9657
8.2434 -1.4945 -2.4486 0.9657
8.2628 -1.3926 -2.4490 0.9657
8.2720 -1.3416 -2.4492 0.9657
8.3273 -0.9830 -2.4507 0.9657
8.3339 -0.9316 -2.4509 0.9657
8.3402 -0.8801 -2.4511 0.9657
8.3571 -0.7254 -2.4517 0.9656
8.3711 -0.5703 -2.4523 0.9656
8.3751 -0.5186 -2.4525 0.9656
8.3787 -0.4668 -2.4526 0.9656
8.3821 -0.4150 -2.4528 0.9656
8.3878 -0.3113 -2.4532 0.9656
8.3939 -0.1557 -2.4537 0.9656
8.3964 -0.0519 -2.4541 0.9656
8.3971 0.0000 -2.4542 0.9656
8.3975 0.0519 -2.4544 0.9656
8.3974 0.1558 -2.4547 0.9656
8.3968 0.2078 -2.4549 0.9656
8.3959 0.2597 -2.4550 0.9656
8.3890 0.4673 -2.4556 0.9656
8.3864 0.5193 -2.4558 0.9656
8.3835 0.5712 -2.4559 0.9656
8.3768 0.6749 -2.4562 0.9656
8.3642 0.8303 -2.4566 0.9656
8.3542 0.9338 -2.4569 0.9656
8.3428 1.0372 -2.4571 0.9656
8.3302 1.1404 -2.4574 0.9656
8.3162 1.2434 -2.4576 0.9656
8.3088 1.2949 -2.4577 0.9656
8.3010 1.3464 -2.4578 0.9656
8.2844 1.4490 -2.4580 0.9656
8.2665 1.5515 -2.4582 0.9656
8.2571 1.6027 -2.4583 0.9656
8.2373 1.7048 -2.4585 0.9656
8.2162 1.8067 -2.4587 0.9655
8.2052 1.8575 -2.4588 0.9655
8.1322 2.1610 -2.4593 0.9655
8.1189 2.2114 -2.4594 0.9655
8.1054 2.2616 -2.4594 0.9655
8.0915 2.3117 -2.4595 0.9655
8.0626 2.4118 -2.4596 0.9655
8.0171 2.5611 -2.4598 0.9655
7.9852 2.6602 -2.4599 0.9655
7.9349 2.8080 -2.4600 0.9655
7.8635 3.0035 -2.4602 0.9655
7.8260 3.1007 -2.4603 0.9655
7.7871 3.1974 -2.4603 0.9655
7.7673 3.2455 -2.4603 0.9655
7.7059 3.3891 -2.4604 0.9655
7.6419 3.5315 -2.4604 0.9655
7.6199 3.5787 -2.4604 0.9655
7.5976 3.6258 -2.4604 0.9655
7.5522 3.7195 -2.4605 0.9655
7.5056 3.8126 -2.4604 0.9655
7.4819 3.8589 -2.4604 0.9655
7.4578 3.9051 -2.4604 0.9655
7.3840 4.0427 -2.4604 0.9655
7.3075 4.1789 -2.4603 0.9655
7.2815 4.2240 -2.4603 0.9655
7.2285 4.3136 -2.4602 0.9655
7.1469 4.4468 -2.4601 0.9655
7.0911 4.5347 -2.4601 0.9655
7.0054 4.6652 -2.4599 0.9655
6.9762 4.7083 -2.4599 0.9655
6.9469 4.7513 -2.4598 0.9655
6.8873 4.8366 -2.4597 0.9655
6.7958 4.9631 -2.4595 0.9655
6.7335 5.0466 -2.4594 0.9655
6.7020 5.0879 -2.4593 0.9655
6.6702 5.1292 -2.4592 0.9655
6.6058 5.2109 -2.4591 0.9655
6.5733 5.2515 -2.4590 0.9655
6.4741 5.3720 -2.4587 0.9655
6.4404 5.4117 -2.4586 0.9656
6.3726 5.4905 -2.4585 0.9656
6.3382 5.5296 -2.4584 0.9656
6.2688 5.6071 -2.4582 0.9656
6.2338 5.6455 -2.4581 0.9656
6.1352 5.6257 -2.4328 0.9659
6.0174 5.5866 -2.3998 0.9664
5.7016 5.4939 -2.3141 0.9675
5.6363 5.4986 -2.3014 0.9677
5.5325 5.6013 -2.3010 0.9677
5.4975 5.6351 -2.3009 0.9677
5.4623 5.6688 -2.3008 0.9677
5.4268 5.7021 -2.3007 0.9677
5.3912 5.7353 -2.3005 0.9677
5.3553 5.7682 -2.3004 0.9677
5.2829 5.8333 -2.3002 0.9677
5.2098 5.8975 -2.2999 0.9677
5.1358 5.9608 -2.2996 0.9677
5.0986 5.9921 -2.2995 0.9677
5.0234 6.0539 -2.2992 0.9677
4.9475 6.1148 -2.2989 0.9678
4.9093 6.1449 -2.2987 0.9678
4.8323 6.2043 -2.2984 0.9678
4.7935 6.2336 -2.2983 0.9678
4.7545 6.2628 -2.2981 0.9678
4.7154 6.2916 -2.2980 0.9678
4.6761 6.3202 -2.2978 0.9678
4.5969 6.3766 -2.2975 0.9678
4.5570 6.4045 -2.2973 0.9678
4.5170 6.4320 -2.2971 0.9678
4.4768 6.4594 -2.2970 0.9678
4.4364 6.4865 -2.2968 0.9678
4.3552 6.5398 -2.2964 0.9678
4.3143 6.5661 -2.2963 0.9678
4.2321 6.6179 -2.2959 0.9678
4.1908 6.6434 -2.2957 0.9678
4.1076 6.6937 -2.2953 0.9678
4.0238 6.7428 -2.2950 0.9678
3.9395 6.7909 -2.2946 0.9678
3.8971 6.8146 -2.2944 0.9678
3.8545 6.8380 -2.2942 0.9678
3.7690 6.8839 -2.2938 0.9678
3.6397 6.9508 -2.2932 0.9678
3.5962 6.9725 -2.2929 0.9678
3.5527 6.9939 -2.2927 0.9678
3.2890 7.1169 -2.2914 0.9679
3.2446 7.1364 -2.2912 0.9679
3.2001 7.1557 -2.2910 0.9679
3.0659 7.2117 -2.2903 0.9679
3.0210 7.2298 -2.2901 0.9679
2.9307 7.2652 -2.2896 0.9679
2.8854 7.2824 -2.2894 0.9679
2.8401 7.2994 -2.2892 0.9679
2.7490 7.3325 -2.2887 0.9679
2.7033 7.3486 -2.2885 0.9679
2.4736 7.4248 -2.2873 0.9679
2.4273 7.4392 -2.2871 0.9679
2.2417 7.4937 -2.2861 0.9679
2.0547 7.5436 -2.2851 0.9679
2.0078 7.5553 -2.2848 0.9679
1.9608 7.5667 -2.2846 0.9680
1.9137 7.5778 -2.2843 0.9680
1.8667 7.5887 -2.2840 0.9680
1.6302 7.6383 -2.2827 0.9680
1.5828 7.6474 -2.2825 0.9680
1.4877 7.6646 -2.2819 0.9680
1.3924 7.6805 -2.2814 0.9680
1.3447 7.6881 -2.2811 0.9680
1.2493 7.7023 -2.2806 0.9680
1.2014 7.7089 -2.2803 0.9680
1.1536 7.7153 -2.2800 0.9680
1.1058 7.7213 -2.2797 0.9680
1.0579 7.7271 -2.2795 0.9680
0.9140 7.7425 -2.2786 0.9680
0.8179 7.7512 -2.2780 0.9680
0.7699 7.7552 -2.2778 0.9680
0.7218 7.7588 -2.2775 0.9680
0.6737 7.7622 -2.2772 0.9681
0.6257 7.7652 -2.2769 0.9681
0.5776 7.7679 -2.2766 0.9681
0.4464 7.2097 -2.1112 0.9703
0.3343 6.0002 -1.7564 0.9753
0.2888 7.7780 -2.2748 0.9681
0.1167 6.2874 -1.8379 0.9741
0.0781 6.3133 -1.8453 0.9740
-0.0384 6.2105 -1.8152 0.9745
-0.0769 6.2125 -1.8159 0.9744
-0.1153 6.2147 -1.8167 0.9744
-0.1924 6.2196 -1.8187 0.9744
-0.2310 6.2222 -1.8198 0.9744
-0.4306 6.3202 -1.8515 0.9739
-0.4699 6.3210 -1.8525 0.9739
-0.5808 6.2427 -1.8324 0.9742
-0.6637 6.2901 -1.8486 0.9740
-0.7001 6.2637 -1.8421 0.9741
-0.7437 6.3001 -1.8541 0.9739
-0.8262 6.3261 -1.8646 0.9738
-0.9481 6.3408 -1.8738 0.9736
-1.1529 6.3592 -1.8889 0.9734
-1.1883 6.1221 -1.8227 0.9743
-1.4010 6.3713 -1.9066 0.9732
-1.3896 6.1383 -1.8394 0.9741
-1.4789 6.3499 -1.9056 0.9732
-1.5462 6.2859 -1.8919 0.9734
-1.6095 6.3732 -1.9212 0.9730
-1.6800 6.3220 -1.9119 0.9731
-1.8417 6.4463 -1.9594 0.9724
-1.8680 6.3884 -1.9453 0.9726
-1.8524 6.1926 -1.8892 0.9734
-2.0534 6.4276 -1.9721 0.9723
-2.1473 6.4456 -1.9856 0.9721
-2.1876 6.4335 -1.9860 0.9721
-2.3207 6.4310 -1.9982 0.9719
-2.4200 6.4550 -2.0148 0.9717
-2.4676 6.4601 -2.0211 0.9716
-2.5113 6.4545 -2.0242 0.9716
-2.5958 6.4351 -2.0280 0.9715
-2.6485 6.4505 -2.0380 0.9714
-2.6085 6.2428 -1.9775 0.9722
-2.8032 6.4824 -2.0642 0.9710
-2.8921 6.2582 -2.0150 0.9717
-3.1403 6.2780 -2.0516 0.9712
-3.1964 6.2925 -2.0628 0.9710
-3.2461 6.2936 -2.0697 0.9709
-3.4418 6.5730 -2.1685 0.9696
-3.4874 6.5611 -2.1717 0.9695
-3.5511 6.5823 -2.1859 0.9693
-3.4596 6.3189 -2.1055 0.9704
-3.5616 6.3183 -2.1198 0.9702
-3.6157 6.3226 -2.1287 0.9701
-3.8488 6.5411 -2.2182 0.9689
-3.9021 6.5388 -2.2255 0.9688
-3.9424 6.5145 -2.2255 0.9688
-4.0536 6.5150 -2.2426 0.9685
-4.1326 6.4625 -2.2420 0.9685
-4.1719 6.4358 -2.2416 0.9685
-4.2110 6.4089 -2.2413 0.9685
-4.2499 6.3818 -2.2410 0.9686
-4.3272 6.3269 -2.2403 0.9686
-4.5174 6.1855 -2.2386 0.9686
-4.6293 6.0979 -2.2376 0.9686
-4.6663 6.0683 -2.2373 0.9686
-4.7030 6.0384 -2.2370 0.9686
-4.7396 6.0083 -2.2367 0.9686
-4.7759 5.9781 -2.2363 0.9686
-4.9195 5.8547 -2.2350 0.9686
-4.9549 5.8233 -2.2347 0.9686
-5.0251 5.7599 -2.2341 0.9686
-5.0598 5.7279 -2.2337 0.9687
-5.1288 5.6632 -2.2331 0.9687
-5.1630 5.6306 -2.2328 0.9687
-5.2308 5.5647 -2.2321 0.9687
-5.2643 5.5315 -2.2318 0.9687
-5.2977 5.4980 -2.2315 0.9687
-5.3638 5.4306 -2.2309 0.9687
-5.3965 5.3965 -2.2306 0.9687
-5.4290 5.3623 -2.2302 0.9687
-5.4612 5.3279 -2.2299 0.9687
-5.5252 5.2584 -2.2293 0.9687
-5.5568 5.2234 -2.2290 0.9687
-5.5882 5.1882 -2.2287 0.9687
-5.6194 5.1529 -2.2284 0.9687
-5.6812 5.0816 -2.2277 0.9687
-5.7117 5.0456 -2.2274 0.9687
-5.7721 4.9732 -2.2268 0.9687
-5.8019 4.9368 -2.2265 0.9688
-5.8316 4.9001 -2.2262 0.9688
-6.0417 4.8884 -2.2714 0.9681
-6.1218 4.8908 -2.2901 0.9679
-6.2032 4.8934 -2.3092 0.9676
-6.3701 4.8984 -2.3486 0.9671
-6.4557 4.9010 -2.3689 0.9668
-6.5004 4.8719 -2.3743 0.9667
-6.7264 4.5397 -2.3718 0.9667
-6.8068 4.4125 -2.3709 0.9668
-6.8591 4.3268 -2.3703 0.9668
-6.9104 4.2406 -2.3697 0.9668
-6.9356 4.1972 -2.3694 0.9668
-6.9605 4.1538 -2.3691 0.9668
-6.9853 4.1101 -2.3688 0.9668
-7.0338 4.0224 -2.3682 0.9668
-7.0577 3.9783 -2.3679 0.9668
-7.0813 3.9342 -2.3676 0.9668
-7.1046 3.8898 -2.3673 0.9668
-7.1730 3.7560 -2.3665 0.9668
-7.1952 3.7111 -2.3662 0.9668
-7.3022 3.4848 -2.3648 0.9668
-7.3228 3.4392 -2.3645 0.9668
-7.3431 3.3935 -2.3643 0.9669
-7.3631 3.3476 -2.3640 0.9669
-7.3828 3.3017 -2.3637 0.9669
-7.4022 3.2556 -2.3634 0.9669
-7.4214 3.2094 -2.3632 0.9669
-7.4402 3.1630 -2.3629 0.9669
-7.4588 3.1166 -2.3627 0.9669
-7.4771 3.0701 -2.3624 0.9669
-7.5129 2.9767 -2.3619 0.9669
-7.5303 2.9299 -2.3616 0.9669
-7.5475 2.8829 -2.3614 0.9669
-7.5809 2.7888 -2.3608 0.9669
-7.5972 2.7415 -2.3606 0.9669
-7.6289 2.6468 -2.3601 0.9669
-7.6443 2.5993 -2.3598 0.9669
-7.6594 2.5517 -2.3596 0.9669
-7.6888 2.4563 -2.3591 0.9669
-7.7031 2.4084 -2.3589 0.9669
-7.7171 2.3605 -2.3586 0.9669
-7.7572 2.2163 -2.3579 0.9669
-7.7700 2.1681 -2.3577 0.9669
-7.8182 1.9744 -2.3568 0.9670
-7.8405 1.8772 -2.3563 0.9670
-7.8513 1.8285 -2.3561 0.9670
-7.8719 1.7310 -2.3557 0.9670
-7.9004 1.5842 -2.3550 0.9670
-7.9094 1.5352 -2.3548 0.9670
-7.9180 1.4861 -2.3546 0.9670
-7.9263 1.4370 -2.3544 0.9670
-7.9344 1.3878 -2.3542 0.9670
-7.9421 1.3386 -2.3540 0.9670
-7.9496 1.2893 -2.3538 0.9670
-7.9636 1.1907 -2.3534 0.9670
-7.9702 1.1414 -2.3532 0.9670
-7.9933 0.9436 -2.3524 0.9670
-8.0031 0.8445 -2.3521 0.9670
-8.0117 0.7453 -2.3517 0.9670
-8.0191 0.6461 -2.3513 0.9670
-8.0253 0.5468 -2.3510 0.9670
-8.0279 0.4971 -2.3508 0.9670
-8.0303 0.4474 -2.3507 0.9670
-8.0355 0.2983 -2.3502 0.9670
-8.0374 0.1989 -2.3498 0.9671
-7.8255 -0.0484 -2.3504 0.9678
-7.8218 -0.1935 -2.3500 0.9679
-7.8200 -0.2419 -2.3498 0.9679
-7.8179 -0.2902 -2.3497 0.9679
-7.8155 -0.3386 -2.3496 0.9679
-7.8128 -0.3868 -2.3494 0.9679
-7.8098 -0.4351 -2.3493 0.9679
-7.7950 -0.6280 -2.3488 0.9679
-7.7858 -0.7243 -2.3485 0.9679
-7.7755 -0.8205 -2.3483 0.9679
-7.7699 -0.8685 -2.3482 0.9679
-7.7578 -0.9644 -2.3480 0.9679
-7.7446 -1.0602 -2.3478 0.9679
-7.7375 -1.1081 -2.3477 0.9679
-7.7302 -1.1558 -2.3476 0.9679
-7.7226 -1.2036 -2.3475 0.9679
-7.7146 -1.2513 -2.3474 0.9679
-7.7065 -1.2989 -2.3473 0.9679
-7.6892 -1.3940 -2.3471 0.9679
-7.6801 -1.4415 -2.3470 0.9679
-7.6708 -1.4889 -2.3469 0.9679
-7.6611 -1.5362 -2.3468 0.9679
-7.6512 -1.5835 -2.3467 0.9679
-7.6197 -1.7250 -2.3465 0.9679
-7.5973 -1.8190 -2.3463 0.9679
-7.5491 -2.0061 -2.3461 0.9679
-7.5363 -2.0527 -2.3460 0.9679
-7.4964 -2.1920 -2.3458 0.9679
-7.4825 -2.2383 -2.3458 0.9679
-7.4684 -2.2845 -2.3457 0.9679
-7.4242 -2.4224 -2.3456 0.9679
-7.3776 -2.5596 -2.3454 0.9679
-7.3615 -2.6052 -2.3454 0.9679
-7.3452 -2.6506 -2.3453 0.9679
-7.3285 -2.6959 -2.3453 0.9679
-7.2769 -2.8313 -2.3452 0.9679
-7.2592 -2.8762 -2.3452 0.9679
-7.2229 -2.9657 -2.3451 0.9679
-7.2044 -3.0103 -2.3451 0.9679
-7.1855 -3.0548 -2.3451 0.9679
-7.1665 -3.0991 -2.3451 0.9679
-7.1472 -3.1434 -2.3451 0.9679
-7.1275 -3.1875 -2.3451 0.9679
-7.0671 -3.3191 -2.3450 0.9679
-7.0255 -3.4063 -2.3450 0.9679
-7.0043 -3.4496 -2.3450 0.9679
-6.9168 -3.6219 -2.3450 0.9679
-6.8486 -3.7496 -2.3451 0.9679
-6.8253 -3.7920 -2.3451 0.9679
-6.8018 -3.8341 -2.3451 0.9679
-6.7297 -3.9598 -2.3452 0.9679
-6.6803 -4.0428 -2.3452 0.9679
-6.6300 -4.1252 -2.3453 0.9679
-6.6045 -4.1662 -2.3453 0.9679
-6.5787 -4.2070 -2.3454 0.9679
-6.5527 -4.2477 -2.3454 0.9679
-6.5263 -4.2882 -2.3455 0.9679
-6.4731 -4.3688 -2.3455 0.9679
-6.4461 -4.4088 -2.3456 0.9679
-6.3636 -4.5279 -2.3457 0.9679
-6.3356 -4.5673 -2.3458 0.9679
-6.2503 -4.6844 -2.3460 0.9679
-6.2214 -4.7231 -2.3460 0.9679
-6.1922 -4.7616 -2.3461 0.9679
-6.1332 -4.8381 -2.3462 0.9679
-6.1034 -4.8761 -2.3463 0.9679
-5.9817 -5.0262 -2.3466 0.9679
-5.9507 -5.0633 -2.3467 0.9679
-5.9195 -5.1002 -2.3468 0.9679
-5.8880 -5.1369 -2.3469 0.9679
-5.8563 -5.1734 -2.3470 0.9679
-5.7924 -5.2459 -2.3471 0.9679
-5.7600 -5.2818 -2.3472 0.9679
-5.7275 -5.3175 -2.3473 0.9679
-5.6618 -5.3884 -2.3475 0.9679
-5.5952 -5.4585 -2.3477 0.9679
-5.5616 -5.4933 -2.3478 0.9679
-5.3904 -5.6639 -2.3484 0.9679
-5.3205 -5.7307 -2.3486 0.9679
-5.1782 -5.8618 -2.3491 0.9679
-5.0327 -5.9895 -2.3497 0.9679
-4.9216 -6.0829 -2.3501 0.9678
-4.8842 -6.1136 -2.3502 0.9678
-4.8466 -6.1441 -2.3504 0.9678
-4.7709 -6.2043 -2.3507 0.9678
-4.7327 -6.2341 -2.3508 0.9678
-4.6944 -6.2637 -2.3510 0.9678
-4.5783 -6.3509 -2.3515 0.9678
-4.5000 -6.4079 -2.3518 0.9678
-4.4606 -6.4361 -2.3519 0.9678
-4.3813 -6.4917 -2.3523 0.9678
-4.3413 -6.5191 -2.3524 0.9678
-4.3012 -6.5463 -2.3526 0.9678
-4.2205 -6.6000 -2.3530 0.9678
-4.1800 -6.6265 -2.3531 0.9678
-4.0983 -6.6787 -2.3535 0.9678
-4.0160 -6.7299 -2.3539 0.9678
-3.8914 -6.8049 -2.3544 0.9678
-3.8496 -6.8294 -2.3546 0.9678
-3.7655 -6.8776 -2.3550 0.9678
-3.7231 -6.9013 -2.3552 0.9678
-3.6807 -6.9248 -2.3554 0.9678
-3.5954 -6.9710 -2.3558 0.9678
-3.5525 -6.9937 -2.3560 0.9678
-3.3361 -7.1033 -2.3570 0.9678
-3.2924 -7.1245 -2.3572 0.9678
-3.2046 -7.1659 -2.3577 0.9677
-3.1163 -7.2063 -2.3581 0.9677
-3.0275 -7.2457 -2.3586 0.9677
-2.9382 -7.2840 -2.3590 0.9677
-2.8485 -7.3212 -2.3595 0.9677
-2.8034 -7.3394 -2.3597 0.9677
-2.7129 -7.3750 -2.3602 0.9677
-2.3469 -7.5062 -2.3621 0.9677
-2.2543 -7.5363 -2.3626 0.9677
-2.1147 -7.5792 -2.3634 0.9677
-2.0681 -7.5930 -2.3636 0.9677
-2.0213 -7.6065 -2.3639 0.9677
-1.8804 -7.6452 -2.3646 0.9677
-1.7389 -7.6813 -2.3654 0.9676
-1.5014 -7.7358 -2.3668 0.9676
-1.4537 -7.7458 -2.3671 0.9676
-1.4059 -7.7556 -2.3673 0.9676
-1.2623 -7.7831 -2.3682 0.9676
-1.2143 -7.7917 -2.3684 0.9676
-1.0699 -7.8156 -2.3693 0.9676
-1.0217 -7.8230 -2.3696 0.9676
-0.9734 -7.8301 -2.3699 0.9676
-0.9250 -7.8370 -2.3701 0.9676
-0.8283 -7.8497 -2.3707 0.9676
-0.7313 -7.8613 -2.3713 0.9676
-0.6828 -7.8667 -2.3716 0.9676
-0.4395 -7.8889 -2.3731 0.9675
-0.2932 -7.8987 -2.3740 0.9675
-0.2444 -7.9014 -2.3743 0.9675
-0.0978 -7.9076 -2.3752 0.9675
-0.0488 -7.9091 -2.3755 0.9675
0.0490 -7.9112 -2.3761 0.9675
0.0979 -7.9117 -2.3764 0.9675
0.1469 -7.9121 -2.3768 0.9675
0.3916 -7.9089 -2.3783 0.9675
0.4896 -7.9056 -2.3790 0.9675
0.5875 -7.9011 -2.3796 0.9675
0.6364 -7.8983 -2.3799 0.9674
0.6853 -7.8953 -2.3803 0.9674
0.7343 -7.8920 -2.3806 0.9674
0.8320 -7.8845 -2.3812 0.9674
0.9297 -7.8757 -2.3819 0.9674
0.9786 -7.8709 -2.3822 0.9674
1.0274 -7.8658 -2.3825 0.9674
1.1249 -7.8547 -2.3832 0.9674
1.2222 -7.8423 -2.3839 0.9674
1.2709 -7.8357 -2.3842 0.9674
1.3196 -7.8288 -2.3845 0.9674
1.4651 -7.8062 -2.3855 0.9674
1.5136 -7.7981 -2.3859 0.9674
1.6104 -7.7810 -2.3865 0.9674
1.6587 -7.7720 -2.3869 0.9674
1.7552 -7.7531 -2.3875 0.9673
1.8034 -7.7432 -2.3879 0.9673
1.8996 -7.7225 -2.3886 0.9673
1.9476 -7.7117 -2.3889 0.9673
2.0434 -7.6892 -2.3896 0.9673
2.0912 -7.6775 -2.3899 0.9673
2.1389 -7.6655 -2.3903 0.9673
2.1866 -7.6533 -2.3906 0.9673
2.2818 -7.6278 -2.3913 0.9673
2.3293 -7.6147 -2.3916 0.9673
2.3766 -7.6012 -2.3920 0.9673
2.5183 -7.5591 -2.3930 0.9673
2.6124 -7.5296 -2.3937 0.9673
2.7061 -7.4988 -2.3944 0.9673
2.7528 -7.4830 -2.3948 0.9672
2.8460 -7.4506 -2.3955 0.9672
2.8924 -7.4339 -2.3958 0.9672
2.9388 -7.4170 -2.3961 0.9672
2.9850 -7.3997 -2.3965 0.9672
3.0312 -7.3822 -2.3968 0.9672
3.0772 -7.3644 -2.3972 0.9672
3.2147 -7.3092 -2.3982 0.9672
3.3512 -7.2515 -2.3993 0.9672
3.4867 -7.1913 -2.4004 0.9672
3.5316 -7.1706 -2.4007 0.9672
3.6211 -7.1285 -2.4014 0.9672
3.6657 -7.1070 -2.4018 0.9672
3.7544 -7.0632 -2.4025 0.9671
3.7985 -7.0409 -2.4028 0.9671
3.8865 -6.9954 -2.4035 0.9671
3.9302 -6.9723 -2.4039 0.9671
4.0173 -6.9251 -2.4046 0.9671
4.0607 -6.9012 -2.4049 0.9671
4.1469 -6.8524 -2.4056 0.9671
4.1898 -6.8277 -2.4060 0.9671
4.3600 -6.7259 -2.4074 0.9671
4.4860 -6.6467 -2.4084 0.9671
4.6105 -6.5652 -2.4095 0.9670
4.6517 -6.5375 -2.4098 0.9670
4.6927 -6.5096 -2.4102 0.9670
4.8148 -6.4242 -2.4112 0.9670
4.8551 -6.3952 -2.4116 0.9670
4.8953 -6.3660 -2.4119 0.9670
4.9353 -6.3365 -2.4123 0.9670
4.9751 -6.3068 -2.4126 0.9670
5.0147 -6.2768 -2.4130 0.9670
5.0934 -6.2161 -2.4137 0.9670
5.1325 -6.1853 -2.4140 0.9670
5.2869 -6.0600 -2.4154 0.9670
5.3250 -6.0280 -2.4157 0.9670
5.3630 -5.9958 -2.4161 0.9670
5.4383 -5.9307 -2.4168 0.9670
5.4756 -5.8978 -2.4171 0.9669
5.5128 -5.8647 -2.4174 0.9669
5.6955 -5.6954 -2.4191 0.9669
5.7671 -5.6261 -2.4198 0.9669
5.8026 -5.5911 -2.4202 0.9669
5.8378 -5.5558 -2.4205 0.9669
5.8729 -5.5204 -2.4208 0.9669
5.9077 -5.4848 -2.4212 0.9669
5.9424 -5.4489 -2.4215 0.9669
5.9767 -5.4128 -2.4218 0.9669
6.0109 -5.3764 -2.4222 0.9669
6.0786 -5.3031 -2.4228 0.9669
6.1121 -5.2662 -2.4232 0.9669
6.1454 -5.2290 -2.4235 0.9669
6.1785 -5.1916 -2.4238 0.9669
6.2439 -5.1161 -2.4245 0.9668
6.2763 -5.0781 -2.4248 0.9668
6.4034 -4.9239 -2.4261 0.9668
6.4962 -4.8062 -2.4270 0.9668
6.5267 -4.7666 -2.4274 0.9668
6.5569 -4.7267 -2.4277 0.9668
6.6460 -4.6061 -2.4286 0.9668
6.6752 -4.5655 -2.4289 0.9668
6.7042 -4.5247 -2.4293 0.9668
6.7329 -4.4837 -2.4296 0.9668
6.7613 -4.4426 -2.4299 0.9668
6.9798 -4.1069 -2.4323 0.9667
7.0318 -4.0212 -2.4329 0.9667
7.0828 -3.9349 -2.4335 0.9667
7.1571 -3.8042 -2.4344 0.9667
7.2054 -3.7163 -2.4350 0.9667
7.3211 -3.4938 -2.4364 0.9667
7.3872 -3.3586 -2.4373 0.9667
7.4087 -3.3132 -2.4375 0.9667
7.4714 -3.1763 -2.4384 0.9667
7.5119 -3.0843 -2.4389 0.9667
7.5316 -3.0381 -2.4392 0.9667
7.6261 -2.8054 -2.4405 0.9666
7.6618 -2.7114 -2.4410 0.9666
7.7298 -2.5221 -2.4421 0.9666
7.7620 -2.4268 -2.4426 0.9666
7.7777 -2.3790 -2.4428 0.9666
7.8228 -2.2350 -2.4436 0.9666
7.8373 -2.1868 -2.4438 0.9666
7.8653 -2.0901 -2.4443 0.9666
7.8788 -2.0416 -2.4445 0.9666
7.9050 -1.9444 -2.4450 0.9666
7.9176 -1.8957 -2.4452 0.9666
7.9420 -1.7979 -2.4457 0.9666
7.9537 -1.7489 -2.4459 0.9666
7.9870 -1.6015 -2.4466 0.9666
8.0076 -1.5029 -2.4470 0.9665
8.0175 -1.4535 -2.4472 0.9665
8.0270 -1.4040 -2.4475 0.9665
8.0362 -1.3544 -2.4477 0.9665
8.0451 -1.3048 -2.4479 0.9665
8.0621 -1.2054 -2.4483 0.9665
8.0700 -1.1556 -2.4485 0.9665
8.0777 -1.1058 -2.4487 0.9665
8.0850 -1.0559 -2.4489 0.9665
8.1052 -0.9060 -2.4495 0.9665
8.1277 -0.7055 -2.4503 0.9665
8.1325 -0.6552 -2.4505 0.9665
8.1413 -0.5547 -2.4509 0.9665
8.1451 -0.5043 -2.4510 0.9665
8.1487 -0.4540 -2.4512 0.9665
8.1598 -0.2524 -2.4519 0.9665
8.1617 -0.2019 -2.4521 0.9665
8.1634 -0.1515 -2.4523 0.9665
8.1647 -0.1010 -2.4524 0.9665
8.1658 -0.0505 -2.4526 0.9665
8.1664 0.0000 -2.4527 0.9665
8.1668 0.0505 -2.4529 0.9665
8.1660 0.2020 -2.4534 0.9665
8.1651 0.2526 -2.4535 0.9665
8.1639 0.3031 -2.4537 0.9665
8.1606 0.4041 -2.4540 0.9665
8.1583 0.4546 -2.4541 0.9664
8.1558 0.5050 -2.4543 0.9664
8.1342 0.8075 -2.4551 0.9664
8.1294 0.8578 -2.4552 0.9664
8.1244 0.9081 -2.4553 0.9664
8.1133 1.0086 -2.4556 0.9664
8.1074 1.0588 -2.4557 0.9664
8.1010 1.1090 -2.4558 0.9664
8.0944 1.1592 -2.4559 0.9664
8.0874 1.2093 -2.4560 0.9664
8.0725 1.3093 -2.4562 0.9664
8.0391 1.5088 -2.4566 0.9664
8.0005 1.7075 -2.4570 0.9664
7.9901 1.7570 -2.4571 0.9664
7.9793 1.8064 -2.4572 0.9664
7.9453 1.9543 -2.4574 0.9664
7.9333 2.0035 -2.4575 0.9664
7.9210 2.0525 -2.4576 0.9664
7.9084 2.1015 -2.4577 0.9664
7.8954 2.1505 -2.4577 0.9664
7.8822 2.1993 -2.4578 0.9664
7.8686 2.2481 -2.4579 0.9664
7.8406 2.3454 -2.4580 0.9664
7.7652 2.5869 -2.4583 0.9664
7.7493 2.6349 -2.4583 0.9664
7.7330 2.6829 -2.4584 0.9664
7.6994 2.7784 -2.4584 0.9664
7.6822 2.8260 -2.4585 0.9664
7.6647 2.8735 -2.4585 0.9664
7.6469 2.9209 -2.4586 0.9664
7.6288 2.9682 -2.4586 0.9664
7.6104 3.0153 -2.4586 0.9664
7.5534 3.1561 -2.4587 0.9664
7.5338 3.2028 -2.4587 0.9664
7.5139 3.2493 -2.4587 0.9664
7.3884 3.5259 -2.4588 0.9664
7.3664 3.5716 -2.4588 0.9664
7.3217 3.6624 -2.4588 0.9664
7.2989 3.7076 -2.4588 0.9664
7.2524 3.7975 -2.4588 0.9664
7.1806 3.9314 -2.4587 0.9664
7.1561 3.9757 -2.4587 0.9664
7.1063 4.0638 -2.4587 0.9664
7.0294 4.1948 -2.4586 0.9664
6.9768 4.2813 -2.4585 0.9664
6.9501 4.3243 -2.4585 0.9664
6.9231 4.3671 -2.4585 0.9664
6.8959 4.4098 -2.4584 0.9664
6.8405 4.4946 -2.4583 0.9664
6.8125 4.5367 -2.4583 0.9664
6.7842 4.5787 -2.4582 0.9664
6.7556 4.6204 -2.4582 0.9664
6.7267 4.6620 -2.4581 0.9664
6.6682 4.7446 -2.4580 0.9664
6.6386 4.7857 -2.4579 0.9664
6.6087 4.8265 -2.4579 0.9664
6.5786 4.8671 -2.4578 0.9664
6.5175 4.9479 -2.4577 0.9664
6.4554 5.0278 -2.4575 0.9664
6.4240 5.0675 -2.4575 0.9664
6.3923 5.1069 -2.4574 0.9664
6.3604 5.1462 -2.4573 0.9664
6.3283 5.1853 -2.4572 0.9664
6.2632 5.2628 -2.4570 0.9664
6.1638 5.3774 -2.4568 0.9664
6.1302 5.4152 -2.4567 0.9664
6.0963 5.4528 -2.4566 0.9664
6.0622 5.4902 -2.4565 0.9664
5.9933 5.5643 -2.4563 0.9664
5.7787 5.4996 -2.3960 0.9672
5.5789 5.4426 -2.3409 0.9680
5.4835 5.4160 -2.3148 0.9683
5.3803 5.4473 -2.2996 0.9685
5.3463 5.4802 -2.2995 0.9685
5.3120 5.5128 -2.2993 0.9685
5.2776 5.5453 -2.2992 0.9685
5.1022 5.7042 -2.2986 0.9685
5.0665 5.7354 -2.2985 0.9685
5.0307 5.7663 -2.2983 0.9685
4.9946 5.7969 -2.2982 0.9685
4.9584 5.8274 -2.2981 0.9685
4.9220 5.8576 -2.2979 0.9686
4.8486 5.9173 -2.2976 0.9686
4.7744 5.9760 -2.2974 0.9686
4.6995 6.0338 -2.2971 0.9686
4.6618 6.0624 -2.2969 0.9686
4.6239 6.0907 -2.2968 0.9686
4.5092 6.1742 -2.2963 0.9686
4.4706 6.2015 -2.2961 0.9686
4.4319 6.2286 -2.2960 0.9686
4.3929 6.2554 -2.2958 0.9686
4.3539 6.2820 -2.2956 0.9686
4.2752 6.3344 -2.2953 0.9686
4.2356 6.3603 -2.2951 0.9686
4.1959 6.3859 -2.2949 0.9686
4.1160 6.4363 -2.2946 0.9686
3.9542 6.5341 -2.2939 0.9686
3.8314 6.6047 -2.2933 0.9686
3.7902 6.6277 -2.2931 0.9686
3.7488 6.6504 -2.2929 0.9686
3.7073 6.6729 -2.2927 0.9686
3.6238 6.7171 -2.2923 0.9686
3.4554 6.8023 -2.2915 0.9686
3.4129 6.8229 -2.2913 0.9686
3.3704 6.8433 -2.2911 0.9686
3.3277 6.8633 -2.2909 0.9686
3.1557 6.9410 -2.2900 0.9687
3.0256 6.9963 -2.2894 0.9687
2.9820 7.0142 -2.2892 0.9687
2.9382 7.0319 -2.2890 0.9687
2.8505 7.0663 -2.2885 0.9687
2.8065 7.0831 -2.2883 0.9687
2.6738 7.1319 -2.2876 0.9687
2.5849 7.1630 -2.2872 0.9687
2.5403 7.1781 -2.2869 0.9687
2.4060 7.2218 -2.2862 0.9687
2.3160 7.2495 -2.2858 0.9687
2.2708 7.2629 -2.2855 0.9687
2.2257 7.2761 -2.2853 0.9687
2.1804 7.2889 -2.2851 0.9687
2.1351 7.3015 -2.2848 0.9687
2.0441 7.3258 -2.2843 0.9687
1.9529 7.3489 -2.2838 0.9687
1.9072 7.3601 -2.2836 0.9687
1.8157 7.3815 -2.2831 0.9688
1.7698 7.3917 -2.2828 0.9688
1.7239 7.4017 -2.2826 0.9688
1.6779 7.4114 -2.2823 0.9688
1.4008 7.4634 -2.2808 0.9688
1.3545 7.4711 -2.2805 0.9688
1.2617 7.4855 -2.2800 0.9688
1.2152 7.4923 -2.2797 0.9688
1.1687 7.4988 -2.2794 0.9688
1.1222 7.5050 -2.2792 0.9688
1.0756 7.5109 -2.2789 0.9688
1.0290 7.5165 -2.2786 0.9688
0.8891 7.5316 -2.2778 0.9688
0.8424 7.5360 -2.2775 0.9688
0.7957 7.5402 -2.2772 0.9688
0.7022 7.5475 -2.2767 0.9688
0.6554 7.5508 -2.2764 0.9688
0.6087 7.5538 -2.2761 0.9688
0.3343 6.0000 -1.8049 0.9752
0.3746 7.5643 -2.2747 0.9689
0.2809 7.5664 -2.2741 0.9689
0.2139 6.9146 -2.0778 0.9715
0.1165 6.2788 -1.8861 0.9741
0.0780 6.3047 -1.8937 0.9740
0.0390 6.3140 -1.8964 0.9740
-0.2331 6.2781 -1.8869 0.9741
-0.2708 6.2521 -1.8795 0.9742
-0.3377 6.0611 -1.8233 0.9750
-0.3755 6.0641 -1.8248 0.9749
-0.4513 6.0702 -1.8282 0.9749
-0.6142 6.1872 -1.8674 0.9744
-0.6503 6.1627 -1.8612 0.9745
-0.6984 6.2485 -1.8884 0.9741
-0.7440 6.3026 -1.9061 0.9738
-0.7858 6.3205 -1.9130 0.9737
-0.8256 6.3213 -1.9147 0.9737
-0.8650 6.3187 -1.9155 0.9737
-0.8997 6.2829 -1.9063 0.9738
-0.9868 6.3316 -1.9246 0.9736
-1.1040 6.3115 -1.9244 0.9736
-1.1609 6.4032 -1.9545 0.9732
-1.1484 6.1188 -1.8698 0.9743
-1.1882 6.1220 -1.8730 0.9743
-1.2786 6.3762 -1.9532 0.9732
-1.3186 6.3712 -1.9541 0.9732
-1.3983 6.3590 -1.9555 0.9732
-1.5479 6.2932 -1.9465 0.9733
-1.5989 6.3311 -1.9612 0.9731
-1.6340 6.3056 -1.9564 0.9732
-1.6977 6.3886 -1.9854 0.9728
-1.7539 6.4394 -2.0045 0.9725
-1.7978 6.4429 -2.0090 0.9724
-1.8067 6.1786 -1.9334 0.9735
-1.9552 6.3919 -2.0076 0.9725
-2.1001 6.4364 -2.0334 0.9721
-2.1397 6.4227 -2.0333 0.9721
-2.3379 6.4785 -2.0686 0.9716
-2.3747 6.4554 -2.0659 0.9717
-2.4677 6.4603 -2.0771 0.9715
-2.5065 6.4422 -2.0762 0.9715
-2.5664 6.4773 -2.0926 0.9713
-2.6007 6.4471 -2.0880 0.9714
-2.6482 6.4497 -2.0941 0.9713
-2.6892 6.4360 -2.0950 0.9713
-2.7287 6.4185 -2.0948 0.9713
-2.7759 6.4192 -2.1005 0.9712
-2.7505 6.2539 -2.0520 0.9719
-2.7985 6.2578 -2.0589 0.9718
-2.9652 6.5220 -2.1518 0.9705
-2.8920 6.2580 -2.0706 0.9716
-3.0437 6.4807 -2.1504 0.9705
-3.0684 6.4297 -2.1398 0.9707
-3.1228 6.4408 -2.1498 0.9705
-3.1402 6.2778 -2.1082 0.9711
-3.2457 6.2930 -2.1267 0.9709
-3.4225 6.5361 -2.2159 0.9697
-3.4766 6.5408 -2.2248 0.9695
-3.5480 6.5766 -2.2444 0.9693
-3.6705 6.5117 -2.2451 0.9693
-3.7101 6.4879 -2.2447 0.9693
-3.7496 6.4639 -2.2444 0.9693
-3.7890 6.4396 -2.2441 0.9693
-3.8672 6.3904 -2.2434 0.9693
-3.9448 6.3402 -2.2428 0.9693
-4.0218 6.2891 -2.2421 0.9693
-4.0600 6.2632 -2.2418 0.9693
-4.0981 6.2371 -2.2415 0.9693
-4.2112 6.1573 -2.2405 0.9693
-4.2486 6.1303 -2.2402 0.9693
-4.3597 6.0478 -2.2392 0.9693
-4.3964 6.0199 -2.2389 0.9693
-4.6127 5.8476 -2.2370 0.9694
-4.6834 5.7885 -2.2363 0.9694
-4.7184 5.7586 -2.2360 0.9694
-4.7533 5.7285 -2.2357 0.9694
-4.7880 5.6982 -2.2354 0.9694
-4.8224 5.6676 -2.2351 0.9694
-4.8567 5.6369 -2.2348 0.9694
-5.0251 5.4802 -2.2332 0.9694
-5.0582 5.4483 -2.2329 0.9694
-5.0911 5.4161 -2.2326 0.9694
-5.2206 5.2856 -2.2313 0.9694
-5.2525 5.2525 -2.2310 0.9695
-5.3156 5.1857 -2.2304 0.9695
-5.3468 5.1520 -2.2301 0.9695
-5.4696 5.0155 -2.2289 0.9695
-5.5297 4.9461 -2.2283 0.9695
-5.5595 4.9112 -2.2280 0.9695
-5.6491 4.8673 -2.2396 0.9693
-5.7951 4.8695 -2.2734 0.9689
-5.9485 4.8741 -2.3098 0.9684
-6.0270 4.8765 -2.3285 0.9681
-6.1068 4.8788 -2.3476 0.9679
-6.1878 4.8812 -2.3671 0.9676
-6.2409 4.8608 -2.3759 0.9675
-6.2700 4.8214 -2.3756 0.9675
-6.3275 4.7423 -2.3750 0.9675
-6.3840 4.6625 -2.3744 0.9675
-6.4396 4.5820 -2.3737 0.9675
-6.4670 4.5415 -2.3734 0.9675
-6.4941 4.5008 -2.3731 0.9675
-6.5477 4.4191 -2.3725 0.9675
-6.6001 4.3367 -2.3720 0.9676
-6.6516 4.2536 -2.3714 0.9676
-6.6770 4.2119 -2.3711 0.9676
-6.7021 4.1700 -2.3708 0.9676
-6.7269 4.1280 -2.3705 0.9676
-6.7758 4.0435 -2.3699 0.9676
-6.8704 3.8728 -2.3688 0.9676
-6.9161 3.7866 -2.3682 0.9676
-6.9386 3.7433 -2.3679 0.9676
-6.9608 3.6999 -2.3677 0.9676
-6.9828 3.6564 -2.3674 0.9676
-7.0044 3.6127 -2.3671 0.9676
-7.0469 3.5250 -2.3666 0.9676
-7.0884 3.4368 -2.3660 0.9676
-7.1087 3.3925 -2.3658 0.9676
-7.1485 3.3036 -2.3652 0.9676
-7.1872 3.2142 -2.3647 0.9677
-7.2792 2.9888 -2.3634 0.9677
-7.3310 2.8523 -2.3626 0.9677
-7.3477 2.8067 -2.3624 0.9677
-7.3641 2.7609 -2.3621 0.9677
-7.3803 2.7150 -2.3619 0.9677
-7.3962 2.6690 -2.3617 0.9677
-7.4118 2.6230 -2.3614 0.9677
-7.4569 2.4842 -2.3607 0.9677
-7.4855 2.3913 -2.3602 0.9677
-7.5131 2.2981 -2.3597 0.9677
-7.5264 2.2514 -2.3595 0.9677
-7.5769 2.0638 -2.3586 0.9677
-7.5888 2.0167 -2.3584 0.9677
-7.6117 1.9223 -2.3579 0.9677
-7.6541 1.7328 -2.3571 0.9678
-7.6640 1.6853 -2.3569 0.9678
-7.7006 1.4947 -2.3560 0.9678
-7.7172 1.3991 -2.3556 0.9678
-7.7251 1.3512 -2.3554 0.9678
-7.7326 1.3033 -2.3552 0.9678
-7.7535 1.1593 -2.3546 0.9678
-7.7599 1.1113 -2.3545 0.9678
-7.7718 1.0150 -2.3541 0.9678
-7.7875 0.8705 -2.3535 0.9678
-7.7921 0.8222 -2.3533 0.9678
-7.7965 0.7740 -2.3532 0.9678
-7.8005 0.7257 -2.3530 0.9678
-7.8109 0.5807 -2.3525 0.9678
-7.8138 0.5324 -2.3523 0.9678
-7.8164 0.4840 -2.3521 0.9678
-7.8187 0.4356 -2.3520 0.9678
-7.8207 0.3873 -2.3518 0.9678
-7.8224 0.3389 -2.3516 0.9678
-7.8238 0.2905 -2.3515 0.9678
-7.8249 0.2420 -2.3513 0.9678
-7.8263 0.1452 -2.3510 0.9678
-7.8265 0.0968 -2.3509 0.9678
-7.8264 0.0484 -2.3507 0.9678
-7.6230 -0.0943 -2.3516 0.9686
-7.6142 -0.3298 -2.3509 0.9686
-7.6116 -0.3769 -2.3507 0.9686
-7.6055 -0.4709 -2.3505 0.9686
-7.5983 -0.5649 -2.3502 0.9686
-7.5900 -0.6588 -2.3500 0.9686
-7.5753 -0.7994 -2.3497 0.9686
-7.5698 -0.8462 -2.3495 0.9686
-7.5642 -0.8929 -2.3494 0.9686
-7.5581 -0.9396 -2.3493 0.9686
-7.5453 -1.0329 -2.3491 0.9686
-7.5312 -1.1261 -2.3489 0.9686
-7.5238 -1.1726 -2.3488 0.9686
-7.5161 -1.2191 -2.3487 0.9686
-7.5082 -1.2654 -2.3486 0.9686
-7.4999 -1.3118 -2.3485 0.9686
-7.4825 -1.4044 -2.3484 0.9686
-7.4734 -1.4506 -2.3483 0.9686
-7.4445 -1.5888 -2.3480 0.9686
-7.4342 -1.6347 -2.3479 0.9686
-7.4129 -1.7264 -2.3478 0.9686
-7.3550 -1.9545 -2.3475 0.9686
-7.3426 -1.9999 -2.3474 0.9686
-7.3299 -2.0452 -2.3473 0.9686
-7.2901 -2.1807 -2.3472 0.9686
-7.2763 -2.2257 -2.3471 0.9687
-7.2333 -2.3602 -2.3470 0.9687
-7.1879 -2.4938 -2.3468 0.9687
-7.1563 -2.5824 -2.3468 0.9687
-7.1401 -2.6266 -2.3467 0.9687
-7.1236 -2.6707 -2.3467 0.9687
-7.0898 -2.7585 -2.3466 0.9687
-7.0726 -2.8022 -2.3466 0.9687
-7.0372 -2.8895 -2.3466 0.9687
-7.0192 -2.9329 -2.3465 0.9687
-6.9823 -3.0194 -2.3465 0.9687
-6.8854 -3.2338 -2.3465 0.9687
-6.8652 -3.2763 -2.3465 0.9687
-6.8449 -3.3187 -2.3464 0.9687
-6.8242 -3.3610 -2.3464 0.9687
-6.8033 -3.4031 -2.3465 0.9687
-6.7607 -3.4870 -2.3465 0.9687
-6.7171 -3.5704 -2.3465 0.9687
-6.6725 -3.6532 -2.3465 0.9687
-6.6498 -3.6945 -2.3465 0.9687
-6.6269 -3.7355 -2.3465 0.9687
-6.6038 -3.7765 -2.3466 0.9687
-6.5803 -3.8173 -2.3466 0.9687
-6.5327 -3.8985 -2.3466 0.9687
-6.4596 -4.0192 -2.3467 0.9687
-6.4347 -4.0591 -2.3468 0.9687
-6.4096 -4.0989 -2.3468 0.9687
-6.3842 -4.1385 -2.3468 0.9687
-6.3586 -4.1780 -2.3469 0.9687
-6.3327 -4.2173 -2.3469 0.9687
-6.3067 -4.2564 -2.3470 0.9687
-6.2803 -4.2954 -2.3470 0.9687
-6.2538 -4.3343 -2.3471 0.9687
-6.1175 -4.5261 -2.3473 0.9686
-6.0895 -4.5639 -2.3474 0.9686
-6.0614 -4.6016 -2.3474 0.9686
-6.0043 -4.6765 -2.3476 0.9686
-5.9170 -4.7875 -2.3478 0.9686
-5.8875 -4.8242 -2.3479 0.9686
-5.8278 -4.8970 -2.3480 0.9686
-5.7365 -5.0048 -2.3483 0.9686
-5.6434 -5.1109 -2.3485 0.9686
-5.4837 -5.2840 -2.3490 0.9686
-5.4512 -5.3180 -2.3491 0.9686
-5.4184 -5.3519 -2.3492 0.9686
-5.3523 -5.4190 -2.3494 0.9686
-5.3190 -5.4522 -2.3495 0.9686
-5.2854 -5.4853 -2.3496 0.9686
-5.2516 -5.5181 -2.3498 0.9686
-5.2177 -5.5508 -2.3499 0.9686
-5.1835 -5.5832 -2.3500 0.9686
-5.1491 -5.6154 -2.3501 0.9686
-5.0798 -5.6793 -2.3503 0.9686
-5.0097 -5.7423 -2.3506 0.9686
-4.9388 -5.8044 -2.3509 0.9686
-4.9031 -5.8352 -2.3510 0.9686
-4.7584 -5.9561 -2.3515 0.9686
-4.6849 -6.0152 -2.3518 0.9686
-4.6479 -6.0444 -2.3520 0.9686
-4.6107 -6.0734 -2.3521 0.9686
-4.4982 -6.1591 -2.3526 0.9686
-4.4603 -6.1872 -2.3527 0.9686
-4.3840 -6.2428 -2.3530 0.9686
-4.2294 -6.3510 -2.3537 0.9686
-4.0325 -6.4811 -2.3545 0.9686
-3.9926 -6.5064 -2.3547 0.9686
-3.9526 -6.5315 -2.3549 0.9685
-3.9125 -6.5563 -2.3551 0.9685
-3.8721 -6.5809 -2.3552 0.9685
-3.8316 -6.6052 -2.3554 0.9685
-3.7910 -6.6293 -2.3556 0.9685
-3.7502 -6.6531 -2.3558 0.9685
-3.7093 -6.6767 -2.3560 0.9685
-3.6270 -6.7232 -2.3564 0.9685
-3.5442 -6.7686 -2.3568 0.9685
-3.4608 -6.8131 -2.3571 0.9685
-3.4189 -6.8349 -2.3573 0.9685
-3.3768 -6.8565 -2.3575 0.9685
-3.3346 -6.8779 -2.3577 0.9685
-3.2923 -6.8990 -2.3580 0.9685
-3.1646 -6.9607 -2.3586 0.9685
-3.1218 -6.9807 -2.3588 0.9685
-3.0788 -7.0005 -2.3590 0.9685
-2.9926 -7.0394 -2.3594 0.9685
-2.9492 -7.0584 -2.3596 0.9685
-2.9058 -7.0771 -2.3599 0.9685
-2.8623 -7.0957 -2.3601 0.9685
-2.7748 -7.1319 -2.3605 0.9685
-2.7309 -7.1496 -2.3608 0.9685
-2.6869 -7.1670 -2.3610 0.9685
-2.6428 -7.1842 -2.3612 0.9685
-2.5985 -7.2011 -2.3614 0.9685
-2.5542 -7.2177 -2.3617 0.9685
-2.4653 -7.2502 -2.3621 0.9685
