ply
format ascii 1.0
element vertex 1595
property float32 x
property float32 y
property float32 z
property float32 I
end_header
8.3501 1.5672 -2.4148 0.9653
8.3420 1.6191 -2.4153 0.9653
8.3336 1.6711 -2.4158 0.9653
8.3249 1.7229 -2.4163 0.9653
8.3158 1.7748 -2.4168 0.9653
8.2967 1.8782 -2.4178 0.9652
8.2316 2.1875 -2.4209 0.9652
8.2197 2.2388 -2.4214 0.9652
8.2074 2.2901 -2.4219 0.9652
8.1948 2.3413 -2.4224 0.9652
8.1818 2.3924 -2.4229 0.9652
8.1550 2.4944 -2.4239 0.9652
8.1411 2.5454 -2.4244 0.9652
8.1268 2.5962 -2.4249 0.9651
8.1123 2.6469 -2.4254 0.9651
8.0974 2.6976 -2.4259 0.9651
8.0823 2.7482 -2.4264 0.9651
8.0668 2.7987 -2.4269 0.9651
8.0016 2.9998 -2.4289 0.9651
7.9845 3.0498 -2.4293 0.9651
7.9313 3.1994 -2.4308 0.9651
7.9130 3.2490 -2.4313 0.9651
7.8561 3.3973 -2.4328 0.9650
7.8365 3.4465 -2.4332 0.9650
7.8166 3.4956 -2.4337 0.9650
7.7550 3.6422 -2.4352 0.9650
7.7338 3.6908 -2.4357 0.9650
7.6906 3.7876 -2.4366 0.9650
7.6685 3.8359 -2.4371 0.9650
7.6461 3.8840 -2.4376 0.9650
7.6234 3.9320 -2.4380 0.9650
7.5772 4.0275 -2.4390 0.9649
7.4809 4.2169 -2.4408 0.9649
7.4310 4.3108 -2.4418 0.9649
7.3799 4.4040 -2.4427 0.9649
7.3276 4.4966 -2.4436 0.9649
7.3010 4.5427 -2.4441 0.9649
7.2741 4.5886 -2.4445 0.9649
7.1637 4.7706 -2.4463 0.9648
7.1353 4.8157 -2.4467 0.9648
7.1067 4.8606 -2.4472 0.9648
7.0191 4.9943 -2.4485 0.9648
6.9894 5.0385 -2.4489 0.9648
6.9593 5.0826 -2.4494 0.9648
6.8674 5.2136 -2.4507 0.9648
6.8362 5.2568 -2.4511 0.9648
6.7730 5.3428 -2.4520 0.9648
6.7410 5.3855 -2.4524 0.9648
6.5769 5.5961 -2.4545 0.9647
6.5433 5.6376 -2.4549 0.9647
6.5094 5.6789 -2.4553 0.9647
6.4752 5.7200 -2.4557 0.9647
6.3711 5.8421 -2.4569 0.9647
6.3359 5.8823 -2.4573 0.9647
6.3004 5.9223 -2.4577 0.9647
6.2286 6.0017 -2.4585 0.9647
6.1924 6.0411 -2.4589 0.9647
6.0757 6.0010 -2.4272 0.9651
5.6382 5.8514 -2.3096 0.9668
5.5906 5.8742 -2.3049 0.9668
5.5192 5.9447 -2.3056 0.9668
5.4831 5.9797 -2.3059 0.9668
5.4469 6.0143 -2.3063 0.9668
5.4104 6.0488 -2.3066 0.9668
5.3367 6.1170 -2.3073 0.9668
5.2622 6.1844 -2.3080 0.9668
5.1868 6.2508 -2.3086 0.9668
5.1487 6.2836 -2.3090 0.9668
5.0720 6.3486 -2.3096 0.9668
5.0334 6.3807 -2.3099 0.9668
4.9945 6.4126 -2.3102 0.9668
4.9554 6.4442 -2.3106 0.9668
4.9161 6.4756 -2.3109 0.9668
4.8767 6.5068 -2.3112 0.9668
4.7971 6.5684 -2.3118 0.9667
4.7570 6.5987 -2.3121 0.9667
4.6355 6.6885 -2.3130 0.9667
4.5947 6.7179 -2.3133 0.9667
4.5536 6.7470 -2.3136 0.9667
4.5124 6.7759 -2.3139 0.9667
4.4293 6.8328 -2.3144 0.9667
4.3875 6.8609 -2.3147 0.9667
4.3455 6.8887 -2.3150 0.9667
4.2610 6.9436 -2.3155 0.9667
4.1757 6.9974 -2.3161 0.9667
4.1329 7.0239 -2.3163 0.9667
4.0898 7.0501 -2.3166 0.9667
4.0032 7.1018 -2.3171 0.9667
3.9596 7.1271 -2.3174 0.9667
3.9159 7.1523 -2.3176 0.9667
3.8720 7.1771 -2.3179 0.9667
3.7837 7.2260 -2.3184 0.9666
3.7394 7.2500 -2.3186 0.9666
3.6948 7.2737 -2.3188 0.9666
3.6501 7.2972 -2.3191 0.9666
3.4245 7.4102 -2.3202 0.9666
3.3789 7.4319 -2.3204 0.9666
3.2873 7.4745 -2.3209 0.9666
3.2413 7.4954 -2.3211 0.9666
3.1026 7.5562 -2.3217 0.9666
3.0094 7.5953 -2.3221 0.9666
2.7742 7.6878 -2.3230 0.9666
2.6793 7.7227 -2.3234 0.9666
2.6317 7.7397 -2.3235 0.9666
2.4882 7.7889 -2.3240 0.9666
2.3438 7.8353 -2.3245 0.9666
2.2954 7.8501 -2.3247 0.9666
2.1984 7.8789 -2.3250 0.9666
2.1498 7.8928 -2.3251 0.9666
2.0033 7.9328 -2.3255 0.9665
1.9053 7.9578 -2.3258 0.9665
1.8562 7.9699 -2.3259 0.9665
1.8069 7.9816 -2.3260 0.9665
1.7082 8.0042 -2.3262 0.9665
1.5597 8.0356 -2.3266 0.9665
1.5100 8.0454 -2.3267 0.9665
1.4106 8.0642 -2.3269 0.9665
1.3607 8.0731 -2.3270 0.9665
1.3108 8.0817 -2.3271 0.9665
1.1608 8.1054 -2.3273 0.9665
1.0604 8.1197 -2.3275 0.9665
0.9600 8.1327 -2.3276 0.9665
0.8594 8.1444 -2.3277 0.9665
0.8090 8.1498 -2.3278 0.9665
0.7082 8.1596 -2.3279 0.9665
0.6578 8.1639 -2.3279 0.9665
0.6073 8.1680 -2.3280 0.9665
0.5568 8.1718 -2.3280 0.9665
0.5062 8.1752 -2.3281 0.9665
0.4556 8.1783 -2.3281 0.9665
0.3545 8.1835 -2.3282 0.9665
0.1014 8.1909 -2.3283 0.9665
0.0000 8.1916 -2.3283 0.9665
-0.0506 8.1915 -2.3283 0.9665
-0.1013 8.1910 -2.3283 0.9665
-0.2532 8.1877 -2.3283 0.9665
-0.3039 8.1859 -2.3283 0.9665
-0.3545 8.1838 -2.3283 0.9665
-0.4051 8.1814 -2.3282 0.9665
-0.5062 8.1756 -2.3282 0.9665
-0.6073 8.1685 -2.3281 0.9665
-0.6578 8.1645 -2.3281 0.9665
-0.7083 8.1602 -2.3281 0.9665
-0.8091 8.1505 -2.3280 0.9665
-0.8595 8.1452 -2.3279 0.9665
-0.9601 8.1336 -2.3278 0.9665
-1.0104 8.1273 -2.3278 0.9665
-1.0606 8.1207 -2.3277 0.9665
-1.1108 8.1137 -2.3277 0.9665
-1.1609 8.1065 -2.3276 0.9665
-1.2110 8.0989 -2.3275 0.9665
-1.3609 8.0743 -2.3273 0.9665
-1.4107 8.0654 -2.3272 0.9665
-1.5599 8.0370 -2.3270 0.9665
-1.7085 8.0056 -2.3267 0.9665
-1.8565 7.9715 -2.3264 0.9665
-1.9057 7.9595 -2.3263 0.9665
-2.0038 7.9345 -2.3260 0.9665
-2.0527 7.9215 -2.3259 0.9665
-2.1016 7.9083 -2.3258 0.9665
-2.1503 7.8947 -2.3257 0.9665
-2.2475 7.8666 -2.3254 0.9666
-2.2960 7.8521 -2.3253 0.9666
-2.2892 7.4840 -2.2244 0.9680
-2.3280 7.2875 -2.1744 0.9687
-2.4367 6.8855 -2.0760 0.9701
-2.5296 6.8764 -2.0825 0.9700
-2.6875 6.9073 -2.1066 0.9696
-2.7409 6.9178 -2.1149 0.9695
-2.9039 6.9497 -2.1408 0.9692
-2.9591 6.9604 -2.1497 0.9690
-3.0748 6.9913 -2.1708 0.9687
-3.3344 7.4561 -2.3215 0.9666
-3.5165 7.3687 -2.3207 0.9666
-3.5618 7.3461 -2.3205 0.9666
-3.6067 7.3233 -2.3202 0.9666
-3.6963 7.2767 -2.3198 0.9666
-3.7409 7.2530 -2.3196 0.9666
-3.8296 7.2047 -2.3191 0.9666
-3.9613 7.1303 -2.3184 0.9666
-4.0484 7.0792 -2.3179 0.9667
-4.0917 7.0533 -2.3177 0.9667
-4.1347 7.0271 -2.3174 0.9667
-4.1776 7.0006 -2.3171 0.9667
-4.2204 6.9739 -2.3169 0.9667
-4.2630 6.9469 -2.3166 0.9667
-4.3054 6.9196 -2.3164 0.9667
-4.3476 6.8921 -2.3161 0.9667
-4.4731 6.8078 -2.3153 0.9667
-4.5559 6.7504 -2.3147 0.9667
-4.5970 6.7212 -2.3145 0.9667
-4.6379 6.6919 -2.3142 0.9667
-4.6786 6.6622 -2.3139 0.9667
-4.7191 6.6323 -2.3136 0.9667
-4.7595 6.6022 -2.3133 0.9667
-4.7996 6.5718 -2.3130 0.9667
-4.9581 6.4478 -2.3118 0.9667
-4.9972 6.4162 -2.3115 0.9667
-5.1897 6.2544 -2.3100 0.9668
-5.2652 6.1880 -2.3093 0.9668
-5.3398 6.1207 -2.3087 0.9668
-5.3768 6.0867 -2.3083 0.9668
-5.4136 6.0524 -2.3080 0.9668
-5.4501 6.0180 -2.3077 0.9668
-5.4865 5.9833 -2.3073 0.9668
-5.5225 5.9484 -2.3070 0.9668
-5.5584 5.9132 -2.3067 0.9668
-5.5940 5.8779 -2.3063 0.9668
-5.7687 5.6978 -2.3046 0.9668
-5.9042 5.5499 -2.3032 0.9669
-5.9375 5.5124 -2.3028 0.9669
-6.1291 5.3472 -2.3119 0.9667
-6.5923 5.4701 -2.4348 0.9650
-6.6808 5.4742 -2.4549 0.9647
-6.7134 5.4318 -2.4545 0.9647
-6.8096 5.3037 -2.4533 0.9647
-6.8723 5.2172 -2.4524 0.9648
-6.9033 5.1738 -2.4520 0.9648
-6.9944 5.0422 -2.4507 0.9648
-7.0242 4.9979 -2.4503 0.9648
-7.0537 4.9535 -2.4499 0.9648
-7.0830 4.9090 -2.4494 0.9648
-7.1120 4.8642 -2.4490 0.9648
-7.1971 4.7289 -2.4477 0.9648
-7.2524 4.6378 -2.4468 0.9648
-7.3065 4.5461 -2.4459 0.9648
-7.3332 4.5000 -2.4455 0.9649
-7.3595 4.4537 -2.4450 0.9649
-7.4113 4.3608 -2.4441 0.9649
-7.4367 4.3141 -2.4436 0.9649
-7.5355 4.1257 -2.4418 0.9649
-7.5594 4.0782 -2.4413 0.9649
-7.5831 4.0307 -2.4409 0.9649
-7.6064 3.9829 -2.4404 0.9649
-7.6522 3.8871 -2.4395 0.9649
-7.6746 3.8389 -2.4390 0.9649
-7.7185 3.7422 -2.4381 0.9650
-7.7400 3.6938 -2.4376 0.9650
-7.7612 3.6451 -2.4371 0.9650
-7.7821 3.5963 -2.4367 0.9650
-7.8818 3.3507 -2.4343 0.9650
-7.9008 3.3012 -2.4338 0.9650
-7.9195 3.2517 -2.4333 0.9650
-7.9378 3.2020 -2.4328 0.9650
-7.9559 3.1522 -2.4323 0.9650
-8.0082 3.0023 -2.4309 0.9651
-8.0576 2.8515 -2.4294 0.9651
-8.0735 2.8010 -2.4289 0.9651
-8.1042 2.6999 -2.4279 0.9651
-8.1191 2.6491 -2.4274 0.9651
-8.1619 2.4965 -2.4259 0.9651
-8.1887 2.3944 -2.4249 0.9651
-8.2387 2.1894 -2.4229 0.9652
-8.2503 2.1379 -2.4224 0.9652
-8.2834 1.9832 -2.4209 0.9652
-8.3135 1.8281 -2.4194 0.9652
-8.3230 1.7763 -2.4189 0.9652
-8.3408 1.6725 -2.4179 0.9652
-8.3492 1.6205 -2.4174 0.9653
-8.3651 1.5165 -2.4164 0.9653
-8.3726 1.4644 -2.4158 0.9653
-8.3797 1.4123 -2.4153 0.9653
-8.4050 1.2036 -2.4133 0.9653
-8.4104 1.1514 -2.4128 0.9653
-8.4292 0.9422 -2.4107 0.9653
-8.4331 0.8899 -2.4102 0.9654
-8.4366 0.8375 -2.4097 0.9654
-8.4453 0.6804 -2.4082 0.9654
-8.4475 0.6280 -2.4077 0.9654
-8.4511 0.5233 -2.4066 0.9654
-8.4523 0.4709 -2.4061 0.9654
-8.4539 0.3662 -2.4051 0.9654
-8.4542 0.3138 -2.4046 0.9654
-8.4522 0.1045 -2.4025 0.9655
-8.4509 0.0522 -2.4020 0.9655
-8.2148 -0.0508 -2.4010 0.9663
-8.2101 -0.1523 -2.4000 0.9664
-8.2073 -0.2031 -2.3995 0.9664
-8.2042 -0.2538 -2.3990 0.9664
-8.2008 -0.3045 -2.3985 0.9664
-8.1971 -0.3551 -2.3980 0.9664
-8.1930 -0.4057 -2.3975 0.9664
-8.1887 -0.4562 -2.3970 0.9664
-8.1790 -0.5573 -2.3960 0.9664
-8.1495 -0.8091 -2.3935 0.9664
-8.1426 -0.8592 -2.3931 0.9665
-8.1355 -0.9094 -2.3926 0.9665
-8.1203 -1.0095 -2.3916 0.9665
-8.0952 -1.1593 -2.3901 0.9665
-8.0862 -1.2091 -2.3896 0.9665
-8.0769 -1.2588 -2.3891 0.9665
-8.0575 -1.3581 -2.3882 0.9665
-8.0367 -1.4570 -2.3872 0.9665
-8.0034 -1.6049 -2.3857 0.9666
-7.9918 -1.6540 -2.3853 0.9666
-7.9798 -1.7030 -2.3848 0.9666
-7.9675 -1.7520 -2.3843 0.9666
-7.9549 -1.8009 -2.3838 0.9666
-7.9288 -1.8984 -2.3829 0.9666
-7.9154 -1.9469 -2.3824 0.9666
-7.8875 -2.0439 -2.3814 0.9666
-7.8731 -2.0922 -2.3809 0.9666
-7.8283 -2.2366 -2.3795 0.9666
-7.7809 -2.3800 -2.3781 0.9667
-7.7645 -2.4276 -2.3776 0.9667
-7.7478 -2.4751 -2.3772 0.9667
-7.7308 -2.5224 -2.3767 0.9667
-7.6960 -2.6169 -2.3758 0.9667
-7.6782 -2.6639 -2.3753 0.9667
-7.6417 -2.7576 -2.3744 0.9667
-7.6230 -2.8043 -2.3739 0.9667
-7.5848 -2.8972 -2.3730 0.9667
-7.5653 -2.9435 -2.3726 0.9667
-7.5455 -2.9896 -2.3721 0.9667
-7.5051 -3.0816 -2.3712 0.9668
-7.4844 -3.1273 -2.3708 0.9668
-7.4635 -3.1729 -2.3703 0.9668
-7.3992 -3.3090 -2.3690 0.9668
-7.3550 -3.3990 -2.3681 0.9668
-7.3324 -3.4437 -2.3676 0.9668
-7.2633 -3.5772 -2.3663 0.9668
-7.2396 -3.6214 -2.3659 0.9668
-7.2158 -3.6654 -2.3655 0.9668
-7.1673 -3.7530 -2.3646 0.9668
-7.0155 -4.0120 -2.3620 0.9669
-6.9629 -4.0970 -2.3612 0.9669
-6.9362 -4.1392 -2.3608 0.9669
-6.8821 -4.2232 -2.3599 0.9669
-6.8546 -4.2649 -2.3595 0.9669
-6.7708 -4.3891 -2.3583 0.9669
-6.7424 -4.4301 -2.3579 0.9669
-6.6556 -4.5521 -2.3567 0.9670
-6.6262 -4.5924 -2.3563 0.9670
-6.5966 -4.6325 -2.3559 0.9670
-6.5667 -4.6724 -2.3555 0.9670
-6.5062 -4.7517 -2.3547 0.9670
-6.4757 -4.7911 -2.3543 0.9670
-6.4449 -4.8302 -2.3539 0.9670
-6.3825 -4.9080 -2.3532 0.9670
-6.3510 -4.9465 -2.3528 0.9670
-6.2874 -5.0231 -2.3520 0.9670
-6.2227 -5.0988 -2.3513 0.9670
-6.1901 -5.1364 -2.3509 0.9670
-6.0909 -5.2479 -2.3498 0.9671
-6.0574 -5.2847 -2.3494 0.9671
-6.0237 -5.3212 -2.3491 0.9671
-5.9897 -5.3575 -2.3487 0.9671
-5.9556 -5.3936 -2.3484 0.9671
-5.8168 -5.5360 -2.3470 0.9671
-5.7816 -5.5710 -2.3466 0.9671
-5.7462 -5.6058 -2.3463 0.9671
-5.6748 -5.6748 -2.3456 0.9671
-5.6388 -5.7090 -2.3452 0.9671
-5.5661 -5.7766 -2.3446 0.9671
-5.5295 -5.8101 -2.3442 0.9671
-5.4927 -5.8434 -2.3439 0.9671
-5.4185 -5.9092 -2.3433 0.9671
-5.3811 -5.9418 -2.3429 0.9671
-5.3435 -5.9741 -2.3426 0.9671
-5.3058 -6.0062 -2.3423 0.9672
-5.2678 -6.0381 -2.3420 0.9672
-5.1528 -6.1323 -2.3410 0.9672
-5.0753 -6.1940 -2.3404 0.9672
-5.0362 -6.2245 -2.3401 0.9672
-4.9180 -6.3144 -2.3392 0.9672
-4.7982 -6.4021 -2.3383 0.9672
-4.7579 -6.4309 -2.3381 0.9672
-4.7175 -6.4594 -2.3378 0.9672
-4.6769 -6.4877 -2.3375 0.9672
-4.5952 -6.5435 -2.3369 0.9672
-4.5129 -6.5983 -2.3364 0.9672
-4.3463 -6.7048 -2.3353 0.9672
-4.2621 -6.7566 -2.3348 0.9673
-4.2198 -6.7821 -2.3346 0.9673
-4.0060 -6.9056 -2.3333 0.9673
-3.9194 -6.9532 -2.3328 0.9673
-3.8324 -6.9998 -2.3324 0.9673
-3.7008 -7.0676 -2.3317 0.9673
-3.6124 -7.1115 -2.3313 0.9673
-3.5680 -7.1330 -2.3310 0.9673
-3.5235 -7.1543 -2.3308 0.9673
-3.3443 -7.2367 -2.3300 0.9673
-3.2540 -7.2762 -2.3296 0.9673
-3.1632 -7.3147 -2.3292 0.9673
-3.0720 -7.3521 -2.3288 0.9673
-2.9804 -7.3883 -2.3285 0.9673
-2.8883 -7.4235 -2.3281 0.9673
-2.7495 -7.4742 -2.3276 0.9674
-2.7030 -7.4905 -2.3274 0.9674
-2.6565 -7.5065 -2.3273 0.9674
-2.6098 -7.5223 -2.3271 0.9674
-2.4223 -7.5826 -2.3265 0.9674
-2.2808 -7.6248 -2.3261 0.9674
-2.2335 -7.6383 -2.3259 0.9674
-2.1861 -7.6515 -2.3258 0.9674
-2.0434 -7.6895 -2.3254 0.9674
-1.8042 -7.7470 -2.3248 0.9674
-1.6600 -7.7780 -2.3245 0.9674
-1.5635 -7.7973 -2.3243 0.9674
-1.5152 -7.8065 -2.3242 0.9674
-1.4184 -7.8240 -2.3240 0.9674
-1.3215 -7.8404 -2.3238 0.9674
-1.2243 -7.8556 -2.3237 0.9674
-1.1756 -7.8628 -2.3236 0.9674
-1.1270 -7.8696 -2.3235 0.9674
-1.0782 -7.8762 -2.3234 0.9674
-1.0295 -7.8825 -2.3234 0.9674
-0.9807 -7.8885 -2.3233 0.9674
-0.9319 -7.8942 -2.3233 0.9674
-0.7852 -7.9096 -2.3231 0.9674
-0.6873 -7.9183 -2.3230 0.9674
-0.5402 -7.9293 -2.3229 0.9674
-0.4421 -7.9351 -2.3228 0.9674
-0.3930 -7.9376 -2.3228 0.9674
-0.3439 -7.9398 -2.3227 0.9674
-0.2948 -7.9417 -2.3227 0.9674
-0.1474 -7.9456 -2.3227 0.9674
-0.0983 -7.9463 -2.3226 0.9674
0.0000 -7.9469 -2.3226 0.9674
0.0492 -7.9467 -2.3226 0.9674
0.2948 -7.9414 -2.3226 0.9674
0.3930 -7.9373 -2.3227 0.9674
0.4421 -7.9348 -2.3227 0.9674
0.4912 -7.9320 -2.3227 0.9674
0.5892 -7.9254 -2.3228 0.9674
0.6382 -7.9217 -2.3228 0.9674
0.6872 -7.9178 -2.3228 0.9674
0.7851 -7.9089 -2.3229 0.9674
0.8340 -7.9040 -2.3229 0.9674
0.9318 -7.8935 -2.3230 0.9674
0.9806 -7.8877 -2.3231 0.9674
1.1268 -7.8687 -2.3232 0.9674
1.1755 -7.8618 -2.3233 0.9674
1.2727 -7.8471 -2.3234 0.9674
1.3213 -7.8393 -2.3235 0.9674
1.4182 -7.8229 -2.3237 0.9674
1.4666 -7.8142 -2.3237 0.9674
1.5150 -7.8053 -2.3238 0.9674
1.6115 -7.7866 -2.3240 0.9674
1.6597 -7.7767 -2.3241 0.9674
1.7078 -7.7666 -2.3242 0.9674
1.7559 -7.7562 -2.3243 0.9674
1.8519 -7.7346 -2.3245 0.9674
1.8997 -7.7233 -2.3246 0.9674
1.9475 -7.7118 -2.3247 0.9674
2.0906 -7.6754 -2.3250 0.9674
2.1381 -7.6628 -2.3251 0.9674
2.1856 -7.6498 -2.3253 0.9674
2.2329 -7.6365 -2.3254 0.9674
2.3275 -7.6092 -2.3256 0.9674
2.4217 -7.5807 -2.3259 0.9674
2.4687 -7.5660 -2.3260 0.9674
2.5156 -7.5510 -2.3262 0.9674
2.5624 -7.5358 -2.3263 0.9674
2.7023 -7.4884 -2.3268 0.9674
2.7487 -7.4720 -2.3269 0.9674
2.7950 -7.4554 -2.3271 0.9674
2.8413 -7.4385 -2.3272 0.9674
3.1622 -7.3123 -2.3284 0.9673
3.2981 -7.2541 -2.3290 0.9673
3.3431 -7.2342 -2.3292 0.9673
3.3881 -7.2139 -2.3294 0.9673
3.4329 -7.1935 -2.3296 0.9673
3.4776 -7.1727 -2.3298 0.9673
3.6553 -7.0870 -2.3306 0.9673
3.7872 -7.0199 -2.3312 0.9673
3.8309 -6.9970 -2.3314 0.9673
3.8744 -6.9738 -2.3317 0.9673
3.9179 -6.9504 -2.3319 0.9673
4.1755 -6.8044 -2.3333 0.9673
4.2179 -6.7791 -2.3335 0.9673
4.2602 -6.7536 -2.3338 0.9673
4.3024 -6.7278 -2.3340 0.9673
4.3444 -6.7018 -2.3343 0.9673
4.4279 -6.6490 -2.3348 0.9673
4.4694 -6.6222 -2.3350 0.9673
4.5930 -6.5404 -2.3358 0.9672
4.6747 -6.4846 -2.3364 0.9672
4.7958 -6.3990 -2.3372 0.9672
4.8359 -6.3700 -2.3375 0.9672
4.8758 -6.3407 -2.3377 0.9672
4.9155 -6.3112 -2.3380 0.9672
4.9550 -6.2814 -2.3383 0.9672
4.9944 -6.2515 -2.3386 0.9672
5.0336 -6.2212 -2.3389 0.9672
5.0726 -6.1907 -2.3392 0.9672
5.1114 -6.1600 -2.3395 0.9672
5.1886 -6.0979 -2.3401 0.9672
5.2269 -6.0665 -2.3404 0.9672
5.2650 -6.0348 -2.3407 0.9672
5.3029 -6.0029 -2.3410 0.9672
5.3781 -5.9385 -2.3416 0.9672
5.4896 -5.8400 -2.3426 0.9672
5.5264 -5.8068 -2.3429 0.9671
5.5993 -5.7396 -2.3435 0.9671
5.6355 -5.7056 -2.3439 0.9671
5.7428 -5.6025 -2.3449 0.9671
5.8133 -5.5326 -2.3455 0.9671
5.9860 -5.3542 -2.3473 0.9671
6.0536 -5.2814 -2.3480 0.9671
6.1203 -5.2077 -2.3487 0.9671
6.1533 -5.1705 -2.3491 0.9671
6.1861 -5.1331 -2.3494 0.9671
6.2187 -5.0956 -2.3498 0.9671
6.2833 -5.0198 -2.3505 0.9670
6.3469 -4.9433 -2.3513 0.9670
6.4096 -4.8660 -2.3520 0.9670
6.4713 -4.7879 -2.3528 0.9670
6.5019 -4.7485 -2.3531 0.9670
6.5921 -4.6293 -2.3543 0.9670
6.6217 -4.5893 -2.3547 0.9670
6.6802 -4.5085 -2.3555 0.9670
6.7090 -4.4679 -2.3559 0.9670
6.7661 -4.3860 -2.3567 0.9670
6.8221 -4.3035 -2.3575 0.9669
6.8498 -4.2619 -2.3579 0.9669
6.8772 -4.2202 -2.3583 0.9669
6.9043 -4.1783 -2.3587 0.9669
6.9312 -4.1363 -2.3591 0.9669
6.9579 -4.0940 -2.3595 0.9669
7.0105 -4.0091 -2.3603 0.9669
7.0364 -3.9663 -2.3607 0.9669
7.0620 -3.9234 -2.3612 0.9669
7.1863 -3.7065 -2.3633 0.9669
7.3041 -3.4857 -2.3654 0.9668
7.3269 -3.4411 -2.3658 0.9668
7.3936 -3.3065 -2.3672 0.9668
7.4993 -3.0792 -2.3694 0.9668
7.5594 -2.9412 -2.3707 0.9668
7.5788 -2.8949 -2.3712 0.9668
7.5981 -2.8486 -2.3716 0.9667
7.6899 -2.6148 -2.3739 0.9667
7.7416 -2.4731 -2.3753 0.9667
7.7582 -2.4257 -2.3757 0.9667
7.7746 -2.3781 -2.3762 0.9667
7.7907 -2.3304 -2.3767 0.9667
7.8372 -2.1868 -2.3781 0.9667
7.8667 -2.0905 -2.3790 0.9666
7.9089 -1.9454 -2.3804 0.9666
7.9223 -1.8968 -2.3809 0.9666
7.9355 -1.8482 -2.3814 0.9666
7.9483 -1.7994 -2.3819 0.9666
7.9732 -1.7016 -2.3828 0.9666
7.9852 -1.6527 -2.3833 0.9666
8.0301 -1.4558 -2.3852 0.9666
8.0606 -1.3073 -2.3867 0.9665
8.0702 -1.2578 -2.3871 0.9665
8.0884 -1.1583 -2.3881 0.9665
8.0971 -1.1085 -2.3886 0.9665
8.1054 -1.0586 -2.3891 0.9665
8.1135 -1.0087 -2.3896 0.9665
8.1212 -0.9587 -2.3901 0.9665
8.1426 -0.8083 -2.3915 0.9665
8.1553 -0.7079 -2.3925 0.9665
8.1721 -0.5568 -2.3940 0.9664
8.1771 -0.5063 -2.3945 0.9664
8.1861 -0.4053 -2.3955 0.9664
8.1938 -0.3042 -2.3965 0.9664
8.1973 -0.2536 -2.3970 0.9664
8.2078 -0.0508 -2.3989 0.9664
8.2097 -0.0000 -2.3994 0.9664
8.2124 0.1016 -2.4004 0.9664
8.2134 0.1524 -2.4009 0.9663
8.2140 0.2032 -2.4014 0.9663
8.2142 0.3049 -2.4024 0.9663
8.2132 0.4067 -2.4034 0.9663
8.2110 0.5084 -2.4044 0.9663
8.2094 0.5593 -2.4049 0.9663
8.2027 0.7120 -2.4064 0.9663
8.1998 0.7628 -2.4069 0.9663
8.1932 0.8645 -2.4079 0.9662
8.1599 1.2201 -2.4114 0.9662
8.1539 1.2708 -2.4119 0.9662
8.1475 1.3214 -2.4124 0.9662
8.1409 1.3721 -2.4129 0.9662
8.1339 1.4227 -2.4134 0.9662
8.1190 1.5238 -2.4144 0.9662
8.1111 1.5743 -2.4149 0.9662
8.0944 1.6752 -2.4159 0.9661
8.0763 1.7759 -2.4169 0.9661
8.0668 1.8262 -2.4173 0.9661
8.0570 1.8764 -2.4178 0.9661
8.0033 2.1268 -2.4203 0.9661
7.9916 2.1767 -2.4208 0.9661
7.9796 2.2265 -2.4213 0.9661
7.9547 2.3260 -2.4223 0.9661
7.8424 2.7209 -2.4261 0.9660
7.8113 2.8188 -2.4271 0.9660
7.7622 2.9650 -2.4285 0.9660
7.7280 3.0619 -2.4295 0.9660
7.7104 3.1103 -2.4300 0.9659
7.6926 3.1585 -2.4304 0.9659
7.6744 3.2066 -2.4309 0.9659
7.6559 3.2547 -2.4314 0.9659
7.5789 3.4457 -2.4333 0.9659
7.4759 3.6819 -2.4356 0.9659
7.4326 3.7755 -2.4365 0.9659
7.4105 3.8221 -2.4370 0.9658
7.3424 3.9612 -2.4384 0.9658
7.3192 4.0073 -2.4388 0.9658
7.2956 4.0532 -2.4393 0.9658
7.1984 4.2355 -2.4411 0.9658
7.1734 4.2807 -2.4415 0.9658
7.1481 4.3258 -2.4419 0.9658
7.1225 4.3707 -2.4424 0.9658
7.0966 4.4155 -2.4428 0.9658
7.0705 4.4601 -2.4433 0.9658
7.0172 4.5488 -2.4441 0.9658
6.9902 4.5929 -2.4446 0.9657
6.9629 4.6369 -2.4450 0.9657
6.9353 4.6807 -2.4455 0.9657
6.9075 4.7243 -2.4459 0.9657
6.8793 4.7678 -2.4463 0.9657
6.8509 4.8111 -2.4467 0.9657
6.7640 4.9399 -2.4480 0.9657
6.7345 4.9825 -2.4484 0.9657
6.7047 5.0249 -2.4489 0.9657
6.6137 5.1511 -2.4501 0.9657
6.5203 5.2755 -2.4513 0.9657
6.4886 5.3166 -2.4517 0.9656
6.4567 5.3576 -2.4521 0.9656
6.4245 5.3982 -2.4525 0.9656
6.3920 5.4387 -2.4529 0.9656
6.2930 5.5591 -2.4541 0.9656
6.2258 5.6383 -2.4549 0.9656
6.1918 5.6776 -2.4553 0.9656
6.1575 5.7167 -2.4557 0.9656
6.1230 5.7556 -2.4561 0.9656
6.0882 5.7943 -2.4565 0.9656
6.0532 5.8327 -2.4568 0.9656
6.0180 5.8709 -2.4572 0.9656
5.9825 5.9089 -2.4576 0.9656
5.8190 5.8914 -2.4202 0.9661
5.7098 5.8528 -2.3898 0.9665
5.4994 5.7784 -2.3314 0.9673
5.4098 5.7551 -2.3085 0.9676
5.2220 5.9114 -2.3053 0.9677
5.1861 5.9444 -2.3056 0.9677
5.1500 5.9772 -2.3060 0.9677
5.0403 6.0743 -2.3069 0.9676
5.0033 6.1062 -2.3072 0.9676
4.8534 6.2314 -2.3085 0.9676
4.8154 6.2621 -2.3088 0.9676
4.7388 6.3229 -2.3094 0.9676
4.7002 6.3529 -2.3097 0.9676
4.6614 6.3827 -2.3100 0.9676
4.5044 6.4993 -2.3112 0.9676
4.4647 6.5278 -2.3114 0.9676
4.3847 6.5841 -2.3120 0.9676
4.3444 6.6119 -2.3123 0.9676
4.3039 6.6394 -2.3126 0.9676
4.2633 6.6667 -2.3128 0.9676
4.2225 6.6937 -2.3131 0.9676
4.1403 6.7470 -2.3136 0.9675
4.0990 6.7732 -2.3139 0.9675
3.9739 6.8504 -2.3147 0.9675
3.8897 6.9005 -2.3152 0.9675
3.8474 6.9252 -2.3154 0.9675
3.7194 6.9976 -2.3161 0.9675
3.6333 7.0444 -2.3166 0.9675
3.5901 7.0675 -2.3168 0.9675
3.5466 7.0903 -2.3171 0.9675
3.5031 7.1128 -2.3173 0.9675
3.3715 7.1786 -2.3180 0.9675
3.3273 7.1999 -2.3182 0.9675
3.2830 7.2210 -2.3184 0.9675
3.2386 7.2419 -2.3186 0.9675
3.1494 7.2826 -2.3190 0.9675
3.0145 7.3417 -2.3196 0.9675
2.9693 7.3608 -2.3198 0.9675
2.9239 7.3796 -2.3200 0.9675
2.8329 7.4164 -2.3204 0.9675
2.7414 7.4521 -2.3207 0.9675
2.6494 7.4865 -2.3211 0.9674
2.5570 7.5198 -2.3214 0.9674
2.4641 7.5519 -2.3217 0.9674
2.4175 7.5675 -2.3219 0.9674
2.3708 7.5828 -2.3220 0.9674
2.2302 7.6270 -2.3225 0.9674
2.0887 7.6685 -2.3229 0.9674
2.0413 7.6817 -2.3230 0.9674
1.9464 7.7072 -2.3233 0.9674
1.8988 7.7195 -2.3234 0.9674
1.8034 7.7432 -2.3237 0.9674
1.7555 7.7546 -2.3238 0.9674
1.7076 7.7657 -2.3239 0.9674
1.6596 7.7765 -2.3240 0.9674
1.5153 7.8070 -2.3243 0.9674
1.3219 7.8434 -2.3247 0.9674
1.2735 7.8517 -2.3248 0.9674
1.1277 7.8748 -2.3251 0.9674
1.0790 7.8819 -2.3251 0.9674
1.0303 7.8887 -2.3252 0.9674
0.9815 7.8951 -2.3253 0.9674
0.9327 7.9012 -2.3253 0.9674
0.8838 7.9071 -2.3254 0.9674
0.8349 7.9126 -2.3255 0.9674
0.7370 7.9227 -2.3256 0.9674
0.6390 7.9315 -2.3257 0.9674
0.5900 7.9355 -2.3257 0.9674
0.4918 7.9424 -2.3258 0.9674
0.3935 7.9482 -2.3259 0.9674
0.3444 7.9506 -2.3259 0.9674
0.1969 7.9558 -2.3260 0.9674
0.1477 7.9569 -2.3260 0.9674
0.0492 7.9582 -2.3260 0.9674
0.0000 7.9584 -2.3260 0.9674
-0.0492 7.9583 -2.3260 0.9674
-0.1476 7.9571 -2.3260 0.9674
-0.2460 7.9546 -2.3260 0.9674
-0.2952 7.9529 -2.3260 0.9674
-0.3444 7.9508 -2.3260 0.9674
-0.4427 7.9458 -2.3259 0.9674
-0.5409 7.9396 -2.3259 0.9674
-0.7371 7.9233 -2.3258 0.9674
-0.7861 7.9185 -2.3257 0.9674
-0.8350 7.9133 -2.3257 0.9674
-0.8839 7.9078 -2.3256 0.9674
-0.9328 7.9021 -2.3256 0.9674
-1.0304 7.8896 -2.3255 0.9674
-1.1279 7.8758 -2.3253 0.9674
-1.2251 7.8608 -2.3252 0.9674
-1.2737 7.8528 -2.3251 0.9674
-1.3706 7.8359 -2.3250 0.9674
-1.4190 7.8270 -2.3249 0.9674
-1.4673 7.8178 -2.3248 0.9674
-1.5638 7.7985 -2.3246 0.9674
-1.6119 7.7884 -2.3245 0.9674
-1.8037 7.7448 -2.3241 0.9674
-1.8992 7.7211 -2.3239 0.9674
-1.9468 7.7088 -2.3238 0.9674
-2.0418 7.6834 -2.3236 0.9674
-2.0892 7.6702 -2.3234 0.9674
-2.1364 7.6567 -2.3233 0.9674
-2.1836 7.6430 -2.3232 0.9674
-2.2307 7.6289 -2.3231 0.9674
-2.2777 7.6145 -2.3229 0.9674
-2.2891 7.4837 -2.2873 0.9679
-2.3280 7.2872 -2.2359 0.9686
-2.3468 7.1923 -2.2112 0.9690
-2.3651 7.0994 -2.1870 0.9693
-2.3831 7.0085 -2.1635 0.9696
-2.4030 6.9263 -2.1427 0.9699
-2.4365 6.8851 -2.1346 0.9700
-2.4796 6.8713 -2.1351 0.9700
-2.7407 6.9171 -2.1746 0.9695
-2.7945 6.9277 -2.1833 0.9693
-3.0745 6.9906 -2.2320 0.9687
-3.3285 7.2026 -2.3190 0.9675
-3.4168 7.1596 -2.3186 0.9675
-3.4607 7.1377 -2.3184 0.9675
-3.5044 7.1155 -2.3182 0.9675
-3.6348 7.0473 -2.3175 0.9675
-3.8490 6.9281 -2.3164 0.9675
-3.8914 6.9035 -2.3162 0.9675
-3.9336 6.8786 -2.3159 0.9675
-3.9757 6.8534 -2.3157 0.9675
-4.0176 6.8279 -2.3154 0.9675
-4.0593 6.8023 -2.3152 0.9675
-4.1422 6.7501 -2.3147 0.9675
-4.1834 6.7236 -2.3144 0.9675
-4.2653 6.6698 -2.3139 0.9675
-4.3060 6.6426 -2.3137 0.9675
-4.3465 6.6151 -2.3134 0.9676
-4.4269 6.5593 -2.3129 0.9676
-4.5856 6.4447 -2.3118 0.9676
-4.6248 6.4154 -2.3115 0.9676
-4.6638 6.3859 -2.3112 0.9676
-4.8180 6.2655 -2.3100 0.9676
-4.9689 6.1412 -2.3088 0.9676
-5.0061 6.1096 -2.3085 0.9676
-5.1165 6.0132 -2.3076 0.9676
-5.1529 5.9806 -2.3073 0.9676
-5.1891 5.9478 -2.3070 0.9676
-5.2250 5.9148 -2.3066 0.9676
-5.2608 5.8816 -2.3063 0.9677
-5.2963 5.8481 -2.3060 0.9677
-5.3316 5.8144 -2.3057 0.9677
-5.4016 5.7464 -2.3050 0.9677
-5.4707 5.6775 -2.3043 0.9677
-5.6061 5.5372 -2.3030 0.9677
-5.6725 5.4658 -2.3023 0.9677
-5.7053 5.4298 -2.3020 0.9677
-5.7379 5.3936 -2.3016 0.9677
-5.7703 5.3572 -2.3012 0.9677
-6.2097 5.3502 -2.3956 0.9664
-6.3234 5.3804 -2.4266 0.9660
-6.4287 5.4019 -2.4542 0.9656
-6.4610 5.3611 -2.4538 0.9656
-6.4929 5.3202 -2.4534 0.9656
-6.5247 5.2791 -2.4530 0.9656
-6.5561 5.2378 -2.4526 0.9656
-6.5873 5.1963 -2.4522 0.9656
-6.6182 5.1546 -2.4518 0.9656
-6.6792 5.0707 -2.4510 0.9657
-6.7980 4.9006 -2.4493 0.9657
-6.8558 4.8145 -2.4485 0.9657
-6.8842 4.7712 -2.4481 0.9657
-6.9403 4.6841 -2.4472 0.9657
-6.9953 4.5963 -2.4464 0.9657
-7.0223 4.5521 -2.4459 0.9657
-7.0491 4.5078 -2.4455 0.9657
-7.1018 4.4187 -2.4446 0.9657
-7.1278 4.3740 -2.4442 0.9657
-7.1534 4.3290 -2.4438 0.9658
-7.1787 4.2839 -2.4433 0.9658
-7.2038 4.2387 -2.4429 0.9658
-7.2530 4.1477 -2.4420 0.9658
-7.2772 4.1021 -2.4415 0.9658
-7.3011 4.0562 -2.4411 0.9658
-7.3710 3.9179 -2.4398 0.9658
-7.4383 3.7784 -2.4384 0.9658
-7.5029 3.6377 -2.4370 0.9658
-7.5238 3.5906 -2.4366 0.9659
-7.5445 3.5433 -2.4361 0.9659
-7.6046 3.4008 -2.4347 0.9659
-7.6240 3.3530 -2.4343 0.9659
-7.6620 3.2573 -2.4333 0.9659
-7.7342 3.0644 -2.4314 0.9659
-7.7685 2.9674 -2.4305 0.9659
-7.7851 2.9187 -2.4300 0.9659
-7.8176 2.8210 -2.4291 0.9660
-7.8488 2.7231 -2.4281 0.9660
-7.8639 2.6739 -2.4276 0.9660
-7.9075 2.5261 -2.4262 0.9660
-7.9482 2.3776 -2.4247 0.9660
-7.9862 2.2283 -2.4233 0.9660
-7.9982 2.1785 -2.4228 0.9660
-8.0099 2.1286 -2.4223 0.9661
-8.0324 2.0285 -2.4213 0.9661
-8.0432 1.9784 -2.4208 0.9661
-8.0536 1.9282 -2.4203 0.9661
-8.0637 1.8780 -2.4199 0.9661
-8.0831 1.7774 -2.4189 0.9661
-8.0923 1.7270 -2.4184 0.9661
-8.1011 1.6766 -2.4179 0.9661
-8.1097 1.6261 -2.4174 0.9661
-8.1258 1.5251 -2.4164 0.9661
-8.1477 1.3732 -2.4149 0.9662
-8.1544 1.3225 -2.4144 0.9662
-8.1607 1.2719 -2.4139 0.9662
-8.1668 1.2211 -2.4134 0.9662
-8.1779 1.1196 -2.4124 0.9662
-8.1830 1.0687 -2.4119 0.9662
-8.1877 1.0179 -2.4114 0.9662
-8.1922 0.9670 -2.4110 0.9662
-8.2001 0.8653 -2.4100 0.9662
-8.2036 0.8144 -2.4095 0.9662
-8.2068 0.7635 -2.4090 0.9662
-8.2144 0.6107 -2.4075 0.9663
-8.2202 0.4070 -2.4055 0.9663
-8.2209 0.3561 -2.4050 0.9663
-8.2212 0.3052 -2.4045 0.9663
-8.2210 0.2034 -2.4035 0.9663
-7.9956 -0.0000 -2.4015 0.9672
-7.9804 -0.2962 -2.3986 0.9672
-7.9730 -0.3948 -2.3976 0.9672
-7.9688 -0.4440 -2.3971 0.9672
-7.9643 -0.4932 -2.3966 0.9672
-7.9544 -0.5914 -2.3957 0.9672
-7.9372 -0.7384 -2.3942 0.9673
-7.9243 -0.8362 -2.3933 0.9673
-7.9102 -0.9337 -2.3923 0.9673
-7.9027 -0.9825 -2.3918 0.9673
-7.8949 -1.0311 -2.3913 0.9673
-7.8784 -1.1282 -2.3904 0.9673
-7.8320 -1.3699 -2.3880 0.9673
-7.8218 -1.4180 -2.3875 0.9673
-7.7895 -1.5620 -2.3861 0.9674
-7.7782 -1.6098 -2.3857 0.9674
-7.7299 -1.8003 -2.3838 0.9674
-7.7171 -1.8477 -2.3833 0.9674
-7.7041 -1.8950 -2.3829 0.9674
-7.6770 -1.9894 -2.3819 0.9674
-7.6631 -2.0364 -2.3815 0.9674
-7.6489 -2.0833 -2.3810 0.9674
-7.6196 -2.1770 -2.3801 0.9674
-7.5735 -2.3166 -2.3787 0.9675
-7.5414 -2.4092 -2.3778 0.9675
-7.5249 -2.4553 -2.3773 0.9675
-7.4911 -2.5472 -2.3764 0.9675
-7.4562 -2.6387 -2.3755 0.9675
-7.4018 -2.7750 -2.3742 0.9675
-7.3831 -2.8202 -2.3738 0.9675
-7.3449 -2.9102 -2.3729 0.9675
-7.3057 -2.9997 -2.3720 0.9676
-7.2653 -3.0887 -2.3711 0.9676
-7.2447 -3.1329 -2.3707 0.9676
-7.2239 -3.1771 -2.3702 0.9676
-7.1598 -3.3088 -2.3689 0.9676
-7.1379 -3.3524 -2.3685 0.9676
-7.0477 -3.5254 -2.3668 0.9676
-7.0011 -3.6110 -2.3660 0.9676
-6.9774 -3.6536 -2.3655 0.9676
-6.9047 -3.7804 -2.3643 0.9677
-6.8551 -3.8641 -2.3635 0.9677
-6.8298 -3.9058 -2.3631 0.9677
-6.8044 -3.9472 -2.3626 0.9677
-6.6464 -4.1926 -2.3602 0.9677
-6.6193 -4.2329 -2.3598 0.9677
-6.5363 -4.3528 -2.3586 0.9677
-6.4798 -4.4319 -2.3579 0.9677
-6.4224 -4.5102 -2.3571 0.9678
-6.3934 -4.5491 -2.3567 0.9678
-6.3048 -4.6646 -2.3556 0.9678
-6.2446 -4.7407 -2.3548 0.9678
-6.1836 -4.8161 -2.3541 0.9678
-6.1216 -4.8907 -2.3533 0.9678
-6.0588 -4.9645 -2.3526 0.9678
-6.0270 -5.0011 -2.3522 0.9678
-5.9950 -5.0375 -2.3519 0.9678
-5.9629 -5.0737 -2.3515 0.9678
-5.9305 -5.1097 -2.3511 0.9678
-5.8651 -5.1811 -2.3504 0.9678
-5.8320 -5.2165 -2.3501 0.9678
-5.7988 -5.2517 -2.3497 0.9679
-5.7654 -5.2866 -2.3494 0.9679
-5.7317 -5.3214 -2.3490 0.9679
-5.6638 -5.3903 -2.3484 0.9679
-5.6296 -5.4245 -2.3480 0.9679
-5.5951 -5.4584 -2.3477 0.9679
-5.5256 -5.5256 -2.3470 0.9679
-5.4553 -5.5920 -2.3464 0.9679
-5.4199 -5.6248 -2.3460 0.9679
-5.3842 -5.6575 -2.3457 0.9679
-5.3484 -5.6899 -2.3454 0.9679
-5.2762 -5.7540 -2.3448 0.9679
-5.2032 -5.8172 -2.3441 0.9679
-5.1295 -5.8796 -2.3435 0.9679
-5.0176 -5.9714 -2.3426 0.9679
-4.9799 -6.0016 -2.3423 0.9680
-4.8659 -6.0906 -2.3414 0.9680
-4.8276 -6.1198 -2.3411 0.9680
-4.7890 -6.1488 -2.3408 0.9680
-4.7503 -6.1776 -2.3405 0.9680
-4.7115 -6.2061 -2.3403 0.9680
-4.5544 -6.3177 -2.3391 0.9680
-4.5147 -6.3450 -2.3389 0.9680
-4.3947 -6.4254 -2.3381 0.9680
-4.3544 -6.4518 -2.3378 0.9680
-4.3139 -6.4779 -2.3375 0.9680
-4.2733 -6.5037 -2.3373 0.9680
-4.2325 -6.5293 -2.3370 0.9680
-4.1506 -6.5797 -2.3365 0.9680
-4.1093 -6.6046 -2.3363 0.9680
-4.0680 -6.6291 -2.3360 0.9680
-4.0265 -6.6535 -2.3358 0.9680
-3.8591 -6.7483 -2.3348 0.9681
-3.8169 -6.7713 -2.3346 0.9681
-3.7322 -6.8167 -2.3342 0.9681
-3.6040 -6.8828 -2.3335 0.9681
-3.5611 -6.9044 -2.3333 0.9681
-3.5180 -6.9256 -2.3331 0.9681
-3.2569 -7.0477 -2.3318 0.9681
-3.2130 -7.0671 -2.3316 0.9681
-3.1248 -7.1051 -2.3313 0.9681
-3.0806 -7.1237 -2.3311 0.9681
-3.0363 -7.1420 -2.3309 0.9681
-2.9918 -7.1601 -2.3307 0.9681
-2.9026 -7.1955 -2.3303 0.9681
-2.7229 -7.2629 -2.3297 0.9681
-2.6777 -7.2791 -2.3295 0.9681
-2.6325 -7.2951 -2.3293 0.9681
-2.5417 -7.3261 -2.3290 0.9681
-2.4962 -7.3411 -2.3289 0.9681
-2.4506 -7.3560 -2.3287 0.9681
-2.4049 -7.3705 -2.3286 0.9681
-2.2673 -7.4125 -2.3281 0.9681
-2.2213 -7.4259 -2.3280 0.9681
-2.1752 -7.4391 -2.3279 0.9681
-2.0365 -7.4769 -2.3275 0.9682
-1.9901 -7.4890 -2.3274 0.9682
-1.9437 -7.5007 -2.3272 0.9682
-1.8506 -7.5235 -2.3270 0.9682
-1.7104 -7.5554 -2.3267 0.9682
-1.6636 -7.5655 -2.3266 0.9682
-1.5698 -7.5849 -2.3264 0.9682
-1.5228 -7.5941 -2.3263 0.9682
-1.3815 -7.6202 -2.3260 0.9682
-1.2870 -7.6361 -2.3258 0.9682
-1.2397 -7.6437 -2.3257 0.9682
-0.9551 -7.6830 -2.3253 0.9682
-0.9076 -7.6886 -2.3253 0.9682
-0.8124 -7.6988 -2.3252 0.9682
-0.6217 -7.7160 -2.3250 0.9682
-0.5739 -7.7195 -2.3249 0.9682
-0.5262 -7.7228 -2.3249 0.9682
-0.3350 -7.7330 -2.3248 0.9682
-0.2393 -7.7364 -2.3247 0.9682
-0.0957 -7.7394 -2.3247 0.9682
-0.0479 -7.7398 -2.3247 0.9682
0.0479 -7.7397 -2.3246 0.9682
0.1914 -7.7375 -2.3246 0.9682
0.2871 -7.7346 -2.3247 0.9682
0.3350 -7.7328 -2.3247 0.9682
0.3828 -7.7306 -2.3247 0.9682
0.4306 -7.7281 -2.3247 0.9682
0.4784 -7.7254 -2.3247 0.9682
0.5261 -7.7223 -2.3248 0.9682
0.6216 -7.7154 -2.3248 0.9682
0.7170 -7.7074 -2.3249 0.9682
0.8123 -7.6982 -2.3250 0.9682
0.8599 -7.6931 -2.3250 0.9682
0.9551 -7.6822 -2.3251 0.9682
1.0026 -7.6764 -2.3251 0.9682
1.1449 -7.6570 -2.3253 0.9682
1.1923 -7.6500 -2.3254 0.9682
1.2396 -7.6427 -2.3254 0.9682
1.2868 -7.6351 -2.3255 0.9682
1.3813 -7.6191 -2.3257 0.9682
1.5695 -7.5837 -2.3260 0.9682
1.6633 -7.5642 -2.3262 0.9682
1.7569 -7.5437 -2.3264 0.9682
1.8502 -7.5220 -2.3266 0.9682
1.8968 -7.5108 -2.3267 0.9682
1.9897 -7.4874 -2.3269 0.9682
2.0361 -7.4754 -2.3270 0.9682
2.2668 -7.4108 -2.3276 0.9682
2.3585 -7.3830 -2.3279 0.9681
2.4500 -7.3541 -2.3281 0.9681
2.4956 -7.3393 -2.3283 0.9681
2.6770 -7.2771 -2.3288 0.9681
2.7221 -7.2609 -2.3290 0.9681
2.7671 -7.2444 -2.3292 0.9681
2.8121 -7.2276 -2.3293 0.9681
2.8569 -7.2106 -2.3295 0.9681
2.9463 -7.1757 -2.3298 0.9681
2.9909 -7.1579 -2.3300 0.9681
3.0796 -7.1214 -2.3303 0.9681
3.2119 -7.0647 -2.3309 0.9681
3.3433 -7.0056 -2.3314 0.9681
3.3868 -6.9853 -2.3316 0.9681
3.7731 -6.7915 -2.3335 0.9681
3.8154 -6.7687 -2.3337 0.9681
3.8576 -6.7456 -2.3339 0.9681
3.8996 -6.7223 -2.3341 0.9681
3.9415 -6.6987 -2.3344 0.9681
3.9832 -6.6749 -2.3346 0.9681
4.0663 -6.6264 -2.3350 0.9681
4.1076 -6.6018 -2.3353 0.9680
4.1488 -6.5769 -2.3355 0.9680
4.2307 -6.5264 -2.3360 0.9680
4.2714 -6.5008 -2.3363 0.9680
4.3120 -6.4750 -2.3365 0.9680
4.3524 -6.4488 -2.3368 0.9680
4.4727 -6.3691 -2.3375 0.9680
4.5125 -6.3420 -2.3378 0.9680
4.5522 -6.3147 -2.3380 0.9680
4.5917 -6.2871 -2.3383 0.9680
4.6310 -6.2594 -2.3386 0.9680
4.6702 -6.2313 -2.3388 0.9680
4.7092 -6.2030 -2.3391 0.9680
4.8251 -6.1168 -2.3399 0.9680
4.9396 -6.0284 -2.3408 0.9680
5.0897 -5.9073 -2.3420 0.9680
5.1268 -5.8765 -2.3423 0.9680
5.1637 -5.8454 -2.3426 0.9679
5.2370 -5.7826 -2.3432 0.9679
5.2733 -5.7509 -2.3435 0.9679
5.3455 -5.6867 -2.3441 0.9679
5.3812 -5.6543 -2.3444 0.9679
5.4522 -5.5888 -2.3450 0.9679
5.4875 -5.5558 -2.3454 0.9679
5.5224 -5.5224 -2.3457 0.9679
5.5919 -5.4552 -2.3463 0.9679
5.6263 -5.4213 -2.3467 0.9679
5.6605 -5.3871 -2.3470 0.9679
5.6945 -5.3528 -2.3473 0.9679
5.7619 -5.2835 -2.3480 0.9679
5.8285 -5.2133 -2.3487 0.9679
5.8943 -5.1424 -2.3494 0.9679
5.9269 -5.1066 -2.3497 0.9679
5.9913 -5.0343 -2.3504 0.9678
6.0233 -4.9979 -2.3508 0.9678
6.0864 -4.9246 -2.3515 0.9678
6.1487 -4.8504 -2.3522 0.9678
6.2102 -4.7754 -2.3529 0.9678
6.3007 -4.6616 -2.3540 0.9678
6.3599 -4.5848 -2.3548 0.9678
6.5038 -4.3895 -2.3567 0.9678
6.5319 -4.3499 -2.3570 0.9678
6.6147 -4.2301 -2.3582 0.9677
6.6419 -4.1898 -2.3586 0.9677
6.7480 -4.0269 -2.3602 0.9677
6.7739 -3.9858 -2.3606 0.9677
6.7996 -3.9445 -2.3610 0.9677
6.8250 -3.9030 -2.3614 0.9677
6.8998 -3.7777 -2.3626 0.9677
6.9484 -3.6933 -2.3634 0.9677
6.9723 -3.6509 -2.3638 0.9677
7.0194 -3.5657 -2.3647 0.9677
7.0426 -3.5228 -2.3651 0.9676
7.0655 -3.4798 -2.3655 0.9676
7.0881 -3.4367 -2.3659 0.9676
7.1105 -3.3934 -2.3663 0.9676
7.1326 -3.3499 -2.3668 0.9676
7.1545 -3.3063 -2.3672 0.9676
7.1761 -3.2626 -2.3676 0.9676
7.2393 -3.1306 -2.3689 0.9676
7.2801 -3.0419 -2.3698 0.9676
7.3199 -2.9528 -2.3706 0.9676
7.3394 -2.9080 -2.3711 0.9676
7.3775 -2.8180 -2.3719 0.9676
7.4505 -2.6366 -2.3737 0.9675
7.4680 -2.5910 -2.3742 0.9675
7.5023 -2.4994 -2.3750 0.9675
7.5191 -2.4534 -2.3755 0.9675
7.5517 -2.3611 -2.3764 0.9675
7.5985 -2.2219 -2.3778 0.9675
7.6136 -2.1752 -2.3782 0.9675
7.6284 -2.1285 -2.3787 0.9675
7.6428 -2.0817 -2.3791 0.9675
7.7237 -1.7988 -2.3819 0.9674
7.7362 -1.7514 -2.3823 0.9674
7.7719 -1.6085 -2.3837 0.9674
7.7833 -1.5607 -2.3842 0.9674
7.8355 -1.3206 -2.3866 0.9674
7.8450 -1.2724 -2.3870 0.9674
7.8543 -1.2241 -2.3875 0.9673
7.8633 -1.1758 -2.3880 0.9673
7.8885 -1.0303 -2.3894 0.9673
7.9037 -0.9330 -2.3903 0.9673
7.9109 -0.8843 -2.3908 0.9673
7.9178 -0.8355 -2.3913 0.9673
7.9244 -0.7867 -2.3918 0.9673
7.9307 -0.7378 -2.3923 0.9673
7.9367 -0.6889 -2.3927 0.9673
7.9622 -0.4436 -2.3951 0.9672
7.9664 -0.3945 -2.3956 0.9672
7.9828 -0.1481 -2.3980 0.9672
7.9852 -0.0988 -2.3985 0.9672
7.9873 -0.0494 -2.3990 0.9672
7.9890 -0.0000 -2.3995 0.9672
7.9905 0.0494 -2.4000 0.9672
7.9916 0.0988 -2.4004 0.9672
7.9925 0.1483 -2.4009 0.9672
7.9930 0.1978 -2.4014 0.9672
7.9932 0.2472 -2.4019 0.9672
7.9921 0.3957 -2.4033 0.9671
7.9882 0.5442 -2.4048 0.9671
7.9863 0.5937 -2.4053 0.9671
7.9841 0.6433 -2.4058 0.9671
7.9816 0.6927 -2.4063 0.9671
7.9756 0.7917 -2.4072 0.9671
7.9722 0.8413 -2.4077 0.9671
7.9644 0.9401 -2.4087 0.9671
7.9600 0.9896 -2.4092 0.9671
7.9553 1.0390 -2.4097 0.9670
7.9504 1.0884 -2.4101 0.9670
7.9395 1.1871 -2.4111 0.9670
7.9336 1.2364 -2.4116 0.9670
7.9140 1.3843 -2.4130 0.9670
7.8837 1.5808 -2.4150 0.9670
7.8753 1.6299 -2.4155 0.9670
7.8667 1.6789 -2.4159 0.9670
7.8289 1.8745 -2.4179 0.9669
7.8187 1.9232 -2.4183 0.9669
7.7863 2.0691 -2.4198 0.9669
7.7749 2.1177 -2.4202 0.9669
7.7512 2.2146 -2.4212 0.9669
7.7262 2.3111 -2.4221 0.9669
7.7133 2.3593 -2.4226 0.9669
7.7001 2.4075 -2.4231 0.9669
7.6585 2.5514 -2.4245 0.9668
7.6441 2.5992 -2.4250 0.9668
7.6294 2.6469 -2.4254 0.9668
7.6143 2.6946 -2.4259 0.9668
7.5833 2.7896 -2.4268 0.9668
7.5511 2.8843 -2.4278 0.9668
7.5346 2.9315 -2.4282 0.9668
7.5178 2.9786 -2.4287 0.9668
7.4474 3.1661 -2.4306 0.9668
7.3916 3.3056 -2.4319 0.9667
7.3724 3.3518 -2.4324 0.9667
7.3529 3.3980 -2.4328 0.9667
7.2927 3.5358 -2.4342 0.9667
7.2720 3.5815 -2.4346 0.9667
7.2510 3.6271 -2.4351 0.9667
7.2083 3.7178 -2.4360 0.9667
7.1644 3.8081 -2.4369 0.9667
7.1193 3.8978 -2.4378 0.9667
7.0963 3.9425 -2.4382 0.9667
7.0731 3.9870 -2.4386 0.9667
7.0258 4.0756 -2.4395 0.9666
7.0017 4.1197 -2.4399 0.9666
6.9773 4.1637 -2.4404 0.9666
6.9277 4.2512 -2.4412 0.9666
6.8770 4.3381 -2.4421 0.9666
6.7723 4.5100 -2.4438 0.9666
6.7183 4.5950 -2.4446 0.9666
6.6353 4.7212 -2.4459 0.9666
6.5786 4.8045 -2.4467 0.9665
6.5499 4.8459 -2.4471 0.9665
6.4916 4.9282 -2.4479 0.9665
6.4323 5.0098 -2.4487 0.9665
6.3719 5.0906 -2.4495 0.9665
6.3413 5.1307 -2.4499 0.9665
6.3105 5.1707 -2.4503 0.9665
6.2794 5.2104 -2.4507 0.9665
6.2480 5.2501 -2.4511 0.9665
6.2164 5.2894 -2.4515 0.9665
6.1846 5.3286 -2.4519 0.9665
6.0875 5.4450 -2.4530 0.9665
6.0216 5.5216 -2.4538 0.9665
5.9882 5.5595 -2.4542 0.9664
5.8524 5.7094 -2.4557 0.9664
5.8179 5.7464 -2.4560 0.9664
5.7481 5.8196 -2.4568 0.9664
5.5826 5.7937 -2.4165 0.9670
5.2868 5.6944 -2.3338 0.9681
5.1474 5.6837 -2.3031 0.9685
5.0781 5.7485 -2.3037 0.9685
5.0432 5.7806 -2.3041 0.9685
4.9727 5.8441 -2.3047 0.9685
4.9371 5.8756 -2.3050 0.9685
4.9013 5.9068 -2.3053 0.9685
4.7562 6.0294 -2.3065 0.9684
4.7195 6.0595 -2.3068 0.9684
4.6825 6.0894 -2.3071 0.9684
4.6080 6.1483 -2.3077 0.9684
4.5705 6.1775 -2.3080 0.9684
4.5327 6.2064 -2.3083 0.9684
4.4948 6.2351 -2.3086 0.9684
4.4185 6.2918 -2.3091 0.9684
4.2635 6.4022 -2.3102 0.9684
4.2243 6.4292 -2.3105 0.9684
4.1850 6.4559 -2.3108 0.9684
4.1454 6.4824 -2.3110 0.9684
3.9856 6.5859 -2.3121 0.9684
3.8640 6.6609 -2.3128 0.9684
3.8231 6.6854 -2.3131 0.9683
3.7821 6.7096 -2.3133 0.9683
3.7410 6.7335 -2.3135 0.9683
3.6165 6.8038 -2.3143 0.9683
3.5328 6.8494 -2.3147 0.9683
3.4906 6.8718 -2.3149 0.9683
3.4484 6.8939 -2.3152 0.9683
3.4060 6.9157 -2.3154 0.9683
3.3635 6.9373 -2.3156 0.9683
3.3209 6.9587 -2.3158 0.9683
3.2781 6.9797 -2.3160 0.9683
3.1055 7.0611 -2.3168 0.9683
3.0621 7.0808 -2.3170 0.9683
2.9748 7.1193 -2.3174 0.9683
2.8870 7.1567 -2.3178 0.9683
2.8429 7.1750 -2.3180 0.9683
2.7099 7.2282 -2.3185 0.9683
2.5310 7.2952 -2.3192 0.9683
2.4860 7.3112 -2.3194 0.9683
2.3957 7.3424 -2.3197 0.9683
2.3504 7.3575 -2.3198 0.9683
2.2595 7.3870 -2.3201 0.9683
2.2140 7.4013 -2.3203 0.9683
2.1683 7.4153 -2.3204 0.9682
2.1225 7.4290 -2.3206 0.9682
2.0307 7.4556 -2.3208 0.9682
1.9385 7.4810 -2.3211 0.9682
1.8923 7.4932 -2.3212 0.9682
1.7068 7.5393 -2.3217 0.9682
1.6602 7.5500 -2.3218 0.9682
1.6136 7.5605 -2.3219 0.9682
1.5201 7.5806 -2.3221 0.9682
1.4732 7.5901 -2.3222 0.9682
1.4263 7.5994 -2.3223 0.9682
1.3793 7.6084 -2.3224 0.9682
1.2852 7.6255 -2.3226 0.9682
1.2381 7.6336 -2.3227 0.9682
1.1909 7.6413 -2.3228 0.9682
1.0017 7.6694 -2.3231 0.9682
0.8593 7.6873 -2.3232 0.9682
0.7642 7.6978 -2.3234 0.9682
0.6213 7.7111 -2.3235 0.9682
0.5259 7.7185 -2.3236 0.9682
0.4781 7.7217 -2.3236 0.9682
0.3348 7.7296 -2.3237 0.9682
0.2870 7.7316 -2.3238 0.9682
0.1914 7.7346 -2.3238 0.9682
0.0957 7.7365 -2.3238 0.9682
-0.0000 7.7372 -2.3238 0.9682
-0.0478 7.7371 -2.3238 0.9682
-0.1435 7.7359 -2.3238 0.9682
-0.2870 7.7318 -2.3238 0.9682
-0.3826 7.7276 -2.3238 0.9682
-0.4304 7.7250 -2.3238 0.9682
-0.5736 7.7154 -2.3237 0.9682
-0.6690 7.7075 -2.3236 0.9682
-0.7166 7.7031 -2.3236 0.9682
-0.7642 7.6984 -2.3236 0.9682
-0.8594 7.6881 -2.3235 0.9682
-1.0018 7.6703 -2.3233 0.9682
-1.0492 7.6638 -2.3233 0.9682
-1.0965 7.6569 -2.3232 0.9682
-1.1911 7.6423 -2.3231 0.9682
-1.4735 7.5914 -2.3226 0.9682
-1.5203 7.5818 -2.3225 0.9682
-1.6605 7.5514 -2.3222 0.9682
-1.7071 7.5407 -2.3221 0.9682
-1.8928 7.4948 -2.3217 0.9682
-1.9390 7.4826 -2.3216 0.9682
-1.9851 7.4700 -2.3215 0.9682
-2.2145 7.4031 -2.3208 0.9682
-2.2601 7.3888 -2.3207 0.9682
-2.3279 7.2870 -2.2976 0.9686
-2.3830 7.0082 -2.2233 0.9696
-2.4029 6.9259 -2.2018 0.9698
-2.4364 6.8846 -2.1934 0.9700
-2.4794 6.8708 -2.1939 0.9700
-2.6340 6.8957 -2.2170 0.9696
-2.7404 6.9165 -2.2345 0.9694
-2.8486 6.9377 -2.2525 0.9692
-2.9033 6.9484 -2.2618 0.9690
-2.9585 6.9592 -2.2712 0.9689
-3.0742 6.9898 -2.2934 0.9686
-3.1500 7.0436 -2.3174 0.9683
-3.2363 7.0030 -2.3171 0.9683
-3.3648 6.9399 -2.3165 0.9683
-3.6596 6.7834 -2.3150 0.9683
-3.7011 6.7600 -2.3147 0.9683
-3.7837 6.7124 -2.3143 0.9683
-3.8247 6.6882 -2.3140 0.9683
-3.9469 6.6140 -2.3133 0.9683
-4.1869 6.4589 -2.3118 0.9684
-4.2263 6.4322 -2.3116 0.9684
-4.3046 6.3780 -2.3111 0.9684
-4.3434 6.3505 -2.3108 0.9684
-4.4206 6.2948 -2.3103 0.9684
-4.4589 6.2666 -2.3100 0.9684
-4.4971 6.2382 -2.3097 0.9684
-4.5350 6.2096 -2.3094 0.9684
-4.6103 6.1515 -2.3089 0.9684
-4.8679 5.9410 -2.3069 0.9684
-4.9040 5.9100 -2.3066 0.9684
-4.9398 5.8788 -2.3063 0.9684
-5.0108 5.8157 -2.3056 0.9684
-5.0460 5.7838 -2.3053 0.9685
-5.0810 5.7517 -2.3050 0.9685
-5.1157 5.7194 -2.3047 0.9685
-5.1503 5.6869 -2.3044 0.9685
-5.2188 5.6212 -2.3038 0.9685
-5.3200 5.5211 -2.3028 0.9685
-5.3533 5.4873 -2.3025 0.9685
-5.3863 5.4534 -2.3021 0.9685
-5.4518 5.3847 -2.3015 0.9685
-5.4842 5.3502 -2.3011 0.9685
-5.5164 5.3154 -2.3008 0.9685
-5.5483 5.2804 -2.3005 0.9685
-5.8707 5.2510 -2.3657 0.9676
-6.0778 5.3024 -2.4225 0.9669
-6.2205 5.2928 -2.4531 0.9665
-6.2521 5.2534 -2.4527 0.9665
-6.3146 5.1741 -2.4519 0.9665
-6.3455 5.1341 -2.4515 0.9665
-6.4365 5.0131 -2.4504 0.9665
-6.5543 4.8492 -2.4488 0.9665
-6.5831 4.8078 -2.4484 0.9665
-6.6116 4.7662 -2.4480 0.9665
-6.6399 4.7245 -2.4476 0.9665
-6.6678 4.6825 -2.4472 0.9665
-6.6956 4.6404 -2.4467 0.9665
-6.7230 4.5982 -2.4463 0.9666
-6.8561 4.3844 -2.4443 0.9666
-6.9576 4.2105 -2.4426 0.9666
-6.9823 4.1667 -2.4421 0.9666
-7.0067 4.1227 -2.4417 0.9666
-7.0547 4.0344 -2.4409 0.9666
-7.1015 3.9454 -2.4400 0.9666
-7.1245 3.9007 -2.4396 0.9666
-7.1918 3.7658 -2.4382 0.9667
-7.2137 3.7206 -2.4378 0.9667
-7.2352 3.6753 -2.4374 0.9667
-7.2982 3.5385 -2.4360 0.9667
-7.3185 3.4926 -2.4356 0.9667
-7.3387 3.4467 -2.4351 0.9667
-7.3780 3.3544 -2.4342 0.9667
-7.4348 3.2152 -2.4329 0.9667
-7.4712 3.1218 -2.4320 0.9667
-7.5236 2.9810 -2.4306 0.9668
-7.5571 2.8866 -2.4297 0.9668
-7.5893 2.7919 -2.4288 0.9668
-7.6203 2.6967 -2.4278 0.9668
-7.6354 2.6490 -2.4274 0.9668
-7.6502 2.6013 -2.4269 0.9668
-7.7194 2.3612 -2.4245 0.9668
-7.7324 2.3130 -2.4241 0.9669
-7.7450 2.2647 -2.4236 0.9669
-7.7574 2.2163 -2.4231 0.9669
-7.7812 2.1194 -2.4222 0.9669
-7.8037 2.0222 -2.4212 0.9669
-7.8251 1.9248 -2.4203 0.9669
-7.8641 1.7293 -2.4184 0.9669
-7.8817 1.6312 -2.4174 0.9669
-7.8901 1.5821 -2.4169 0.9669
-7.9134 1.4346 -2.4155 0.9670
-7.9205 1.3854 -2.4150 0.9670
-7.9274 1.3361 -2.4145 0.9670
-7.9339 1.2868 -2.4141 0.9670
-7.9401 1.2375 -2.4136 0.9670
-7.9569 1.0893 -2.4121 0.9670
-7.9750 0.8914 -2.4102 0.9670
-7.9854 0.7429 -2.4087 0.9671
-7.9882 0.6933 -2.4082 0.9671
-7.9907 0.6438 -2.4078 0.9671
-7.9964 0.4951 -2.4063 0.9671
-7.9977 0.4456 -2.4058 0.9671
-7.9987 0.3960 -2.4053 0.9671
-7.9998 0.2969 -2.4044 0.9671
-7.9999 0.2474 -2.4039 0.9671
-7.9996 0.1979 -2.4034 0.9671
-7.9982 0.0989 -2.4024 0.9671
-7.9971 0.0494 -2.4019 0.9672
-7.7852 -0.0000 -2.4014 0.9679
-7.7836 -0.0481 -2.4010 0.9679
-7.7793 -0.1444 -2.4000 0.9680
-7.7673 -0.3364 -2.3981 0.9680
-7.7505 -0.5280 -2.3963 0.9680
-7.7456 -0.5759 -2.3958 0.9680
-7.7348 -0.6714 -2.3948 0.9680
-7.7165 -0.8143 -2.3934 0.9680
-7.6802 -1.0514 -2.3911 0.9681
-7.6720 -1.0987 -2.3907 0.9681
-7.6636 -1.1459 -2.3902 0.9681
-7.6549 -1.1930 -2.3897 0.9681
-7.6366 -1.2871 -2.3888 0.9681
-7.6270 -1.3341 -2.3883 0.9681
-7.6070 -1.4277 -2.3874 0.9681
-7.5966 -1.4745 -2.3870 0.9681
-7.5748 -1.5677 -2.3860 0.9681
-7.5636 -1.6142 -2.3856 0.9681
-7.5156 -1.7994 -2.3838 0.9682
-7.4631 -1.9833 -2.3820 0.9682
-7.4062 -2.1656 -2.3802 0.9682
-7.3913 -2.2110 -2.3797 0.9682
-7.3606 -2.3013 -2.3788 0.9682
-7.3449 -2.3464 -2.3784 0.9682
-7.3289 -2.3913 -2.3779 0.9682
-7.3126 -2.4362 -2.3775 0.9683
-7.2792 -2.5255 -2.3766 0.9683
-7.2271 -2.6586 -2.3753 0.9683
-7.1539 -2.8345 -2.3736 0.9683
-7.1157 -2.9217 -2.3727 0.9683
-7.0765 -3.0084 -2.3719 0.9683
-7.0565 -3.0515 -2.3714 0.9683
-6.9739 -3.2229 -2.3698 0.9684
-6.9526 -3.2654 -2.3693 0.9684
-6.9310 -3.3077 -2.3689 0.9684
-6.9092 -3.3499 -2.3685 0.9684
-6.8872 -3.3920 -2.3681 0.9684
-6.8649 -3.4339 -2.3677 0.9684
-6.8423 -3.4757 -2.3673 0.9684
-6.7964 -3.5588 -2.3664 0.9684
-6.7731 -3.6002 -2.3660 0.9684
-6.7496 -3.6414 -2.3656 0.9684
-6.7258 -3.6824 -2.3652 0.9684
-6.7017 -3.7233 -2.3648 0.9684
-6.6775 -3.7640 -2.3644 0.9684
-6.5524 -3.9653 -2.3624 0.9684
-6.5267 -4.0051 -2.3620 0.9685
-6.5007 -4.0447 -2.3616 0.9685
-6.4745 -4.0842 -2.3613 0.9685
-6.4481 -4.1235 -2.3609 0.9685
-6.3945 -4.2015 -2.3601 0.9685
-6.3673 -4.2403 -2.3597 0.9685
-6.3400 -4.2789 -2.3593 0.9685
-6.3123 -4.3173 -2.3590 0.9685
-6.2845 -4.3556 -2.3586 0.9685
-6.2565 -4.3937 -2.3582 0.9685
-6.2282 -4.4316 -2.3578 0.9685
-6.1710 -4.5068 -2.3571 0.9685
-6.1128 -4.5814 -2.3563 0.9685
-6.0538 -4.6552 -2.3556 0.9685
-5.9332 -4.8006 -2.3542 0.9686
-5.9025 -4.8364 -2.3538 0.9686
-5.7776 -4.9780 -2.3524 0.9686
-5.7459 -5.0129 -2.3521 0.9686
-5.6494 -5.1164 -2.3510 0.9686
-5.5841 -5.1844 -2.3504 0.9686
-5.4847 -5.2848 -2.3494 0.9686
-5.4511 -5.3179 -2.3490 0.9686
-5.3150 -5.4481 -2.3478 0.9686
-5.2109 -5.5436 -2.3468 0.9687
-5.0337 -5.6983 -2.3453 0.9687
-4.9616 -5.7586 -2.3447 0.9687
-4.8521 -5.8475 -2.3438 0.9687
-4.7782 -5.9056 -2.3432 0.9687
-4.7410 -5.9343 -2.3429 0.9687
-4.7037 -5.9628 -2.3426 0.9687
-4.6284 -6.0190 -2.3421 0.9687
-4.5526 -6.0744 -2.3415 0.9687
-4.5144 -6.1017 -2.3413 0.9687
-4.4375 -6.1557 -2.3407 0.9687
-4.3989 -6.1823 -2.3405 0.9687
-4.3601 -6.2087 -2.3402 0.9687
-4.3211 -6.2348 -2.3399 0.9687
-4.2820 -6.2608 -2.3397 0.9687
-4.2428 -6.2864 -2.3394 0.9688
-4.1241 -6.3620 -2.3387 0.9688
-4.0442 -6.4112 -2.3382 0.9688
-3.8828 -6.5066 -2.3372 0.9688
-3.8013 -6.5528 -2.3367 0.9688
-3.7603 -6.5755 -2.3365 0.9688
-3.7192 -6.5980 -2.3363 0.9688
-3.6780 -6.6203 -2.3361 0.9688
-3.6367 -6.6423 -2.3358 0.9688
-3.5118 -6.7067 -2.3352 0.9688
-3.3859 -6.7689 -2.3346 0.9688
-3.3437 -6.7892 -2.3344 0.9688
-3.2163 -6.8483 -2.3338 0.9688
-3.1736 -6.8674 -2.3336 0.9688
-3.0880 -6.9051 -2.3332 0.9688
-2.9586 -6.9595 -2.3327 0.9688
-2.9153 -6.9772 -2.3325 0.9688
-2.7848 -7.0285 -2.3320 0.9688
-2.7411 -7.0450 -2.3318 0.9689
-2.6972 -7.0613 -2.3316 0.9689
-2.6534 -7.0774 -2.3315 0.9689
-2.5653 -7.1087 -2.3311 0.9689
-2.5211 -7.1240 -2.3310 0.9689
-2.4325 -7.1537 -2.3307 0.9689
-2.3435 -7.1823 -2.3304 0.9689
-2.2989 -7.1962 -2.3303 0.9689
-2.2094 -7.2233 -2.3300 0.9689
-2.1197 -7.2492 -2.3297 0.9689
-2.0747 -7.2618 -2.3296 0.9689
-2.0297 -7.2741 -2.3295 0.9689
-1.9845 -7.2861 -2.3293 0.9689
-1.9393 -7.2979 -2.3292 0.9689
-1.8941 -7.3093 -2.3291 0.9689
-1.8487 -7.3206 -2.3290 0.9689
-1.8033 -7.3315 -2.3289 0.9689
-1.7124 -7.3526 -2.3287 0.9689
-1.6668 -7.3627 -2.3285 0.9689
-1.5755 -7.3821 -2.3283 0.9689
-1.5297 -7.3914 -2.3283 0.9689
-1.3922 -7.4176 -2.3280 0.9689
-1.2542 -7.4414 -2.3277 0.9689
-1.2081 -7.4487 -2.3276 0.9689
-1.1620 -7.4558 -2.3276 0.9689
-1.1158 -7.4626 -2.3275 0.9689
-1.0696 -7.4692 -2.3274 0.9689
-0.9771 -7.4814 -2.3273 0.9689
-0.9308 -7.4871 -2.3272 0.9689
-0.8845 -7.4925 -2.3272 0.9689
-0.8381 -7.4977 -2.3271 0.9689
-0.7917 -7.5025 -2.3271 0.9689
-0.7452 -7.5071 -2.3270 0.9689
-0.6988 -7.5114 -2.3270 0.9689
-0.6058 -7.5192 -2.3269 0.9689
-0.5593 -7.5227 -2.3268 0.9689
-0.4196 -7.5315 -2.3267 0.9689
-0.3264 -7.5359 -2.3267 0.9689
-0.2332 -7.5392 -2.3266 0.9689
-0.1866 -7.5404 -2.3266 0.9689
-0.0933 -7.5421 -2.3266 0.9689
0.0000 -7.5426 -2.3266 0.9689
0.2332 -7.5390 -2.3266 0.9689
0.2798 -7.5375 -2.3266 0.9689
0.3730 -7.5335 -2.3266 0.9689
0.4196 -7.5311 -2.3266 0.9689
0.4662 -7.5284 -2.3267 0.9689
0.5592 -7.5222 -2.3267 0.9689
0.6058 -7.5188 -2.3267 0.9689
0.6987 -7.5109 -2.3268 0.9689
0.7452 -7.5066 -2.3268 0.9689
0.8380 -7.4970 -2.3269 0.9689
0.8844 -7.4919 -2.3270 0.9689
0.9307 -7.4864 -2.3270 0.9689
0.9770 -7.4806 -2.3271 0.9689
1.2080 -7.4478 -2.3274 0.9689
1.2540 -7.4404 -2.3274 0.9689
1.3461 -7.4248 -2.3276 0.9689
1.5295 -7.3902 -2.3279 0.9689
1.5752 -7.3809 -2.3280 0.9689
1.6209 -7.3713 -2.3281 0.9689
1.6665 -7.3614 -2.3281 0.9689
1.7121 -7.3512 -2.3282 0.9689
1.8030 -7.3301 -2.3284 0.9689
1.8484 -7.3192 -2.3285 0.9689
1.8937 -7.3079 -2.3286 0.9689
1.9841 -7.2846 -2.3289 0.9689
2.0292 -7.2726 -2.3290 0.9689
2.0743 -7.2602 -2.3291 0.9689
2.1192 -7.2476 -2.3292 0.9689
2.2090 -7.2216 -2.3294 0.9689
2.2537 -7.2082 -2.3296 0.9689
2.3874 -7.1664 -2.3300 0.9689
2.4318 -7.1519 -2.3301 0.9689
2.4762 -7.1371 -2.3302 0.9689
2.5204 -7.1221 -2.3304 0.9689
2.5646 -7.1068 -2.3305 0.9689
2.6086 -7.0913 -2.3307 0.9689
2.6526 -7.0755 -2.3308 0.9689
2.6965 -7.0594 -2.3310 0.9689
2.7403 -7.0430 -2.3311 0.9689
2.8711 -6.9925 -2.3316 0.9689
2.9144 -6.9751 -2.3318 0.9689
