ply
format ascii 1.0
element vertex 1596
property float32 x
property float32 y
property float32 z
property float32 I
end_header
4.3448 -4.3448 -2.3551 0.9740
4.3992 -4.2917 -2.3557 0.9740
4.4530 -4.2380 -2.3562 0.9740
4.4796 -4.2108 -2.3565 0.9740
4.5061 -4.1836 -2.3568 0.9740
4.5586 -4.1285 -2.3573 0.9740
4.6105 -4.0728 -2.3579 0.9740
4.6361 -4.0447 -2.3582 0.9740
4.6869 -3.9880 -2.3588 0.9740
4.7619 -3.9019 -2.3597 0.9740
4.7866 -3.8728 -2.3600 0.9740
4.8594 -3.7848 -2.3609 0.9740
4.9071 -3.7254 -2.3615 0.9740
4.9774 -3.6351 -2.3624 0.9739
5.0460 -3.5436 -2.3633 0.9739
5.0684 -3.5128 -2.3637 0.9739
5.0908 -3.4819 -2.3640 0.9739
5.1566 -3.3882 -2.3649 0.9739
5.1781 -3.3567 -2.3653 0.9739
5.1995 -3.3250 -2.3656 0.9739
5.2417 -3.2613 -2.3662 0.9739
5.3636 -3.0672 -2.3682 0.9739
5.3832 -3.0345 -2.3686 0.9739
5.4027 -3.0016 -2.3689 0.9739
5.4409 -2.9354 -2.3696 0.9739
5.4784 -2.8687 -2.3703 0.9739
5.4969 -2.8351 -2.3706 0.9739
5.5509 -2.7339 -2.3717 0.9738
5.6032 -2.6316 -2.3727 0.9738
5.6370 -2.5629 -2.3734 0.9738
5.6536 -2.5283 -2.3738 0.9738
5.6700 -2.4937 -2.3742 0.9738
5.6861 -2.4589 -2.3745 0.9738
5.7021 -2.4241 -2.3749 0.9738
5.7487 -2.3189 -2.3760 0.9738
5.7787 -2.2484 -2.3767 0.9738
5.7934 -2.2129 -2.3770 0.9738
5.8079 -2.1774 -2.3774 0.9738
5.8221 -2.1417 -2.3778 0.9738
5.8500 -2.0703 -2.3785 0.9738
5.8770 -1.9984 -2.3793 0.9738
5.9158 -1.8899 -2.3804 0.9737
5.9283 -1.8535 -2.3808 0.9737
5.9645 -1.7440 -2.3819 0.9737
5.9761 -1.7074 -2.3823 0.9737
5.9987 -1.6339 -2.3830 0.9737
6.0097 -1.5971 -2.3834 0.9737
6.0309 -1.5230 -2.3842 0.9737
6.0512 -1.4488 -2.3849 0.9737
6.0610 -1.4116 -2.3853 0.9737
6.0706 -1.3743 -2.3857 0.9737
6.0800 -1.3370 -2.3861 0.9737
6.0891 -1.2995 -2.3865 0.9737
6.0980 -1.2621 -2.3869 0.9737
6.1067 -1.2245 -2.3872 0.9737
6.1234 -1.1493 -2.3880 0.9737
6.1314 -1.1115 -2.3884 0.9737
6.1391 -1.0738 -2.3888 0.9737
6.1466 -1.0360 -2.3892 0.9737
6.1610 -0.9602 -2.3900 0.9736
6.1678 -0.9222 -2.3904 0.9736
6.1744 -0.8842 -2.3908 0.9736
6.1808 -0.8462 -2.3912 0.9736
6.1869 -0.8080 -2.3915 0.9736
6.1928 -0.7699 -2.3919 0.9736
6.2039 -0.6935 -2.3927 0.9736
6.2091 -0.6552 -2.3931 0.9736
6.2141 -0.6169 -2.3935 0.9736
6.2188 -0.5785 -2.3939 0.9736
6.2233 -0.5402 -2.3943 0.9736
6.2354 -0.4248 -2.3955 0.9736
6.2481 -0.2707 -2.3971 0.9736
6.2507 -0.2321 -2.3975 0.9736
6.2531 -0.1934 -2.3979 0.9736
6.2571 -0.1161 -2.3987 0.9735
6.2587 -0.0774 -2.3991 0.9735
6.2601 -0.0387 -2.3995 0.9735
6.2613 0.0000 -2.3999 0.9735
6.2635 0.1937 -2.4019 0.9735
6.2627 0.2713 -2.4027 0.9735
6.2598 0.3876 -2.4039 0.9735
6.2583 0.4264 -2.4043 0.9735
6.2566 0.4652 -2.4047 0.9735
6.2524 0.5427 -2.4055 0.9735
6.2444 0.6589 -2.4067 0.9735
6.2412 0.6976 -2.4071 0.9735
6.2378 0.7363 -2.4075 0.9735
6.2262 0.8524 -2.4087 0.9734
6.2219 0.8910 -2.4091 0.9734
6.2173 0.9296 -2.4095 0.9734
6.2124 0.9682 -2.4099 0.9734
6.2074 1.0068 -2.4103 0.9734
6.2020 1.0453 -2.4107 0.9734
6.1784 1.1992 -2.4123 0.9734
6.1581 1.3142 -2.4135 0.9734
6.1357 1.4290 -2.4147 0.9734
6.1277 1.4671 -2.4151 0.9734
6.1195 1.5052 -2.4155 0.9734
6.1111 1.5433 -2.4159 0.9734
6.0935 1.6193 -2.4167 0.9734
6.0654 1.7329 -2.4178 0.9733
6.0555 1.7707 -2.4182 0.9733
6.0351 1.8460 -2.4190 0.9733
6.0246 1.8837 -2.4194 0.9733
6.0138 1.9211 -2.4198 0.9733
6.0028 1.9586 -2.4202 0.9733
5.9800 2.0334 -2.4210 0.9733
5.9441 2.1450 -2.4221 0.9733
5.9316 2.1821 -2.4225 0.9733
5.9190 2.2190 -2.4229 0.9733
5.9061 2.2560 -2.4233 0.9733
5.8929 2.2928 -2.4237 0.9733
5.8796 2.3296 -2.4240 0.9733
5.5151 2.3446 -2.2970 0.9747
5.2410 2.3050 -2.1945 0.9758
5.1129 2.2865 -2.1468 0.9763
4.8727 2.2518 -2.0575 0.9773
4.2896 2.1127 -1.8328 0.9797
4.1966 2.0992 -1.7985 0.9801
4.1069 2.0862 -1.7656 0.9805
4.0205 2.0737 -1.7339 0.9808
3.7788 2.0386 -1.6457 0.9818
3.7036 2.0277 -1.6184 0.9821
3.5604 2.0069 -1.5665 0.9826
3.4922 1.9971 -1.5419 0.9829
3.4261 1.9875 -1.5181 0.9832
3.3620 1.9782 -1.4951 0.9834
3.2998 1.9692 -1.4729 0.9837
3.2394 1.9604 -1.4513 0.9839
3.1238 1.9436 -1.4102 0.9844
3.0684 1.9356 -1.3906 0.9846
2.9622 1.9202 -1.3530 0.9850
2.9111 1.9128 -1.3351 0.9852
2.8130 1.8985 -1.3008 0.9856
2.7198 1.8850 -1.2684 0.9859
2.6277 1.9191 -1.2472 0.9862
2.6142 2.0102 -1.2640 0.9860
2.6003 2.1039 -1.2820 0.9858
2.5967 2.1278 -1.2868 0.9857
2.5932 2.1518 -1.2916 0.9857
2.5896 2.1759 -1.2965 0.9856
2.5860 2.2004 -1.3014 0.9856
2.5823 2.2249 -1.3065 0.9855
2.5786 2.2497 -1.3116 0.9854
2.5749 2.2746 -1.3169 0.9854
2.5636 2.3508 -1.3332 0.9852
2.5598 2.3765 -1.3388 0.9851
2.5559 2.4026 -1.3445 0.9851
2.5401 2.5089 -1.3685 0.9848
2.5320 2.5635 -1.3811 0.9847
2.5237 2.6192 -1.3941 0.9845
2.5195 2.6474 -1.4008 0.9845
2.5153 2.6759 -1.4076 0.9844
2.5110 2.7046 -1.4146 0.9843
2.5067 2.7337 -1.4216 0.9842
2.5023 2.7631 -1.4288 0.9842
2.4935 2.8227 -1.4436 0.9840
2.4890 2.8529 -1.4512 0.9839
2.4844 2.8836 -1.4589 0.9838
2.4799 2.9145 -1.4668 0.9837
2.4705 2.9773 -1.4829 0.9836
2.4610 3.0416 -1.4996 0.9834
2.4512 3.1073 -1.5170 0.9832
2.4361 3.2089 -1.5442 0.9829
2.4309 3.2436 -1.5536 0.9828
2.4257 3.2787 -1.5632 0.9827
2.3986 3.4609 -1.6140 0.9821
2.3930 3.4988 -1.6247 0.9820
2.3637 3.6962 -1.6816 0.9814
2.3513 3.7791 -1.7060 0.9811
2.3450 3.8214 -1.7185 0.9810
2.3386 3.8644 -1.7313 0.9808
2.3256 3.9524 -1.7577 0.9805
2.3189 3.9973 -1.7713 0.9804
2.3121 4.0430 -1.7852 0.9802
2.3052 4.0895 -1.7993 0.9801
2.2982 4.1366 -1.8138 0.9799
2.2910 4.1845 -1.8286 0.9798
2.2838 4.2333 -1.8436 0.9796
2.2764 4.2828 -1.8590 0.9794
2.2690 4.3331 -1.8748 0.9793
2.7214 5.3575 -2.3032 0.9746
2.6554 5.3916 -2.3036 0.9746
2.5889 5.4248 -2.3039 0.9746
2.4883 5.4731 -2.3044 0.9746
2.3188 5.5494 -2.3053 0.9746
2.2502 5.5784 -2.3056 0.9746
2.0774 5.6471 -2.3063 0.9746
1.9375 5.6981 -2.3068 0.9745
1.9023 5.7103 -2.3070 0.9745
1.8671 5.7222 -2.3071 0.9745
1.8318 5.7340 -2.3072 0.9745
1.7609 5.7568 -2.3074 0.9745
1.7253 5.7679 -2.3076 0.9745
1.6183 5.7997 -2.3079 0.9745
1.5824 5.8099 -2.3080 0.9745
1.4024 5.8573 -2.3085 0.9745
1.3662 5.8661 -2.3086 0.9745
1.2209 5.8990 -2.3090 0.9745
1.1844 5.9067 -2.3091 0.9745
1.1479 5.9141 -2.3091 0.9745
1.1113 5.9213 -2.3092 0.9745
1.0747 5.9282 -2.3093 0.9745
1.0381 5.9349 -2.3094 0.9745
0.9647 5.9477 -2.3095 0.9745
0.9279 5.9537 -2.3096 0.9745
0.8542 5.9650 -2.3097 0.9745
0.8173 5.9704 -2.3097 0.9745
0.7435 5.9803 -2.3099 0.9745
0.7065 5.9849 -2.3099 0.9745
0.6324 5.9935 -2.3100 0.9745
0.5954 5.9973 -2.3100 0.9745
0.5583 6.0010 -2.3101 0.9745
0.5212 6.0045 -2.3101 0.9745
0.3353 6.0181 -2.3103 0.9745
0.2981 6.0202 -2.3103 0.9745
0.2236 6.0235 -2.3103 0.9745
0.1863 6.0248 -2.3104 0.9745
-0.0000 6.0278 -2.3104 0.9745
-0.0746 6.0273 -2.3104 0.9745
-0.1118 6.0268 -2.3104 0.9745
-0.1491 6.0259 -2.3104 0.9745
-0.1864 6.0249 -2.3104 0.9745
-0.2981 6.0203 -2.3104 0.9745
-0.3725 6.0161 -2.3103 0.9745
-0.4097 6.0136 -2.3103 0.9745
-0.5583 6.0013 -2.3102 0.9745
-0.5954 5.9977 -2.3102 0.9745
-0.6325 5.9938 -2.3101 0.9745
-0.6695 5.9896 -2.3101 0.9745
-0.7065 5.9853 -2.3100 0.9745
-0.7435 5.9807 -2.3100 0.9745
-0.8543 5.9655 -2.3098 0.9745
-0.9647 5.9482 -2.3097 0.9745
-1.0015 5.9419 -2.3096 0.9745
-1.0748 5.9287 -2.3095 0.9745
-1.1480 5.9146 -2.3093 0.9745
-1.2574 5.8917 -2.3091 0.9745
-1.3664 5.8668 -2.3089 0.9745
-1.4025 5.8580 -2.3088 0.9745
-1.4748 5.8397 -2.3086 0.9745
-1.5108 5.8302 -2.3085 0.9745
-1.5468 5.8205 -2.3084 0.9745
-1.5827 5.8106 -2.3083 0.9745
-1.6185 5.8005 -2.3082 0.9745
-1.6900 5.7795 -2.3080 0.9745
-1.7966 5.7463 -2.3077 0.9745
-1.8320 5.7348 -2.3075 0.9745
-1.8674 5.7230 -2.3074 0.9745
-1.9026 5.7111 -2.3073 0.9745
-1.9378 5.6989 -2.3072 0.9745
-2.2163 5.5935 -2.3061 0.9746
-2.2507 5.5794 -2.3060 0.9746
-2.2850 5.5650 -2.3058 0.9746
-2.3192 5.5504 -2.3057 0.9746
-2.3533 5.5356 -2.3055 0.9746
-2.3874 5.5206 -2.3054 0.9746
-2.4213 5.5053 -2.3052 0.9746
-2.5894 5.4259 -2.3044 0.9746
-2.6227 5.4094 -2.3042 0.9746
-2.6560 5.3927 -2.3041 0.9746
-2.7220 5.3587 -2.3037 0.9746
-2.7877 5.3238 -2.3034 0.9746
-2.9497 5.2329 -2.3024 0.9746
-3.0137 5.1952 -2.3021 0.9746
-3.0772 5.1566 -2.3017 0.9746
-3.1402 5.1173 -2.3013 0.9746
-3.1715 5.0973 -2.3011 0.9746
-3.2954 5.0155 -2.3002 0.9746
-3.3261 4.9945 -2.3000 0.9746
-3.3870 4.9521 -2.2996 0.9746
-3.4473 4.9089 -2.2991 0.9746
-3.4773 4.8870 -2.2989 0.9746
-3.5071 4.8649 -2.2987 0.9746
-3.5367 4.8427 -2.2985 0.9746
-3.5662 4.8202 -2.2982 0.9746
-3.5955 4.7975 -2.2980 0.9746
-3.6404 4.7951 -2.3076 0.9745
-3.7429 4.8057 -2.3348 0.9742
-3.7970 4.8134 -2.3499 0.9741
-3.8518 4.8212 -2.3653 0.9739
-3.9072 4.8291 -2.3809 0.9737
-3.9634 4.8371 -2.3969 0.9736
-4.0204 4.8451 -2.4132 0.9734
-4.0781 4.8533 -2.4298 0.9732
-4.1375 4.8626 -2.4472 0.9730
-4.2033 4.8179 -2.4507 0.9730
-4.2325 4.7913 -2.4504 0.9730
-4.2616 4.7645 -2.4501 0.9730
-4.3762 4.6555 -2.4490 0.9730
-4.4602 4.5719 -2.4482 0.9730
-4.5153 4.5153 -2.4476 0.9730
-4.5426 4.4868 -2.4473 0.9730
-4.6234 4.4002 -2.4464 0.9730
-4.6763 4.3415 -2.4458 0.9730
-4.7025 4.3121 -2.4455 0.9730
-4.7285 4.2823 -2.4452 0.9730
-4.7543 4.2524 -2.4449 0.9730
-4.7799 4.2225 -2.4446 0.9730
-4.8556 4.1315 -2.4436 0.9731
-4.8804 4.1008 -2.4433 0.9731
-4.9537 4.0080 -2.4424 0.9731
-5.0016 3.9454 -2.4417 0.9731
-5.0252 3.9139 -2.4414 0.9731
-5.0719 3.8504 -2.4407 0.9731
-5.1177 3.7863 -2.4401 0.9731
-5.1850 3.6892 -2.4391 0.9731
-5.2287 3.6239 -2.4384 0.9731
-5.2717 3.5579 -2.4377 0.9731
-5.2929 3.5248 -2.4374 0.9731
-5.3138 3.4915 -2.4370 0.9731
-5.3551 3.4245 -2.4364 0.9731
-5.3754 3.3908 -2.4360 0.9731
-5.3955 3.3570 -2.4357 0.9731
-5.4350 3.2891 -2.4350 0.9732
-5.4927 3.1863 -2.4339 0.9732
-5.6369 2.9074 -2.4310 0.9732
-5.6873 2.8010 -2.4299 0.9732
-5.7037 2.7654 -2.4296 0.9732
-5.7198 2.7296 -2.4292 0.9732
-5.7357 2.6938 -2.4288 0.9732
-5.7514 2.6579 -2.4285 0.9732
-5.8263 2.4769 -2.4266 0.9732
-5.8406 2.4404 -2.4262 0.9732
-5.8821 2.3306 -2.4251 0.9733
-5.8955 2.2938 -2.4247 0.9733
-5.9216 2.2200 -2.4239 0.9733
-5.9343 2.1830 -2.4236 0.9733
-5.9467 2.1459 -2.4232 0.9733
-6.0054 1.9595 -2.4213 0.9733
-6.0165 1.9220 -2.4209 0.9733
-6.0273 1.8845 -2.4205 0.9733
-6.0378 1.8469 -2.4201 0.9733
-6.0583 1.7715 -2.4193 0.9733
-6.0778 1.6959 -2.4185 0.9733
-6.0963 1.6200 -2.4178 0.9733
-6.1139 1.5440 -2.4170 0.9733
-6.1223 1.5059 -2.4166 0.9734
-6.1747 1.2381 -2.4138 0.9734
-6.1875 1.1613 -2.4130 0.9734
-6.1935 1.1228 -2.4126 0.9734
-6.2049 1.0458 -2.4118 0.9734
-6.2102 1.0072 -2.4114 0.9734
-6.2201 0.9300 -2.4106 0.9734
-6.2247 0.8914 -2.4102 0.9734
-6.2332 0.8141 -2.4094 0.9734
-6.2371 0.7754 -2.4090 0.9734
-6.2407 0.7367 -2.4086 0.9734
-6.2441 0.6979 -2.4082 0.9734
-6.2473 0.6592 -2.4078 0.9734
-6.2529 0.5817 -2.4070 0.9735
-6.2553 0.5429 -2.4066 0.9735
-6.2612 0.4266 -2.4054 0.9735
-6.2627 0.3877 -2.4050 0.9735
-6.2661 0.2326 -2.4034 0.9735
-6.2658 0.0775 -2.4018 0.9735
-6.2651 0.0387 -2.4014 0.9735
-6.1276 0.0000 -2.4010 0.9740
-6.1265 -0.0379 -2.4006 0.9740
-6.1236 -0.1136 -2.3998 0.9740
-6.1197 -0.1893 -2.3990 0.9740
-6.1149 -0.2649 -2.3983 0.9740
-6.1122 -0.3027 -2.3979 0.9741
-6.1025 -0.4158 -2.3967 0.9741
-6.0988 -0.4534 -2.3963 0.9741
-6.0949 -0.4911 -2.3959 0.9741
-6.0908 -0.5287 -2.3955 0.9741
-6.0818 -0.6037 -2.3948 0.9741
-6.0770 -0.6413 -2.3944 0.9741
-6.0719 -0.6787 -2.3940 0.9741
-6.0611 -0.7535 -2.3932 0.9741
-6.0553 -0.7908 -2.3928 0.9741
-6.0493 -0.8282 -2.3924 0.9741
-6.0367 -0.9026 -2.3917 0.9741
-6.0300 -0.9398 -2.3913 0.9741
-6.0160 -1.0140 -2.3905 0.9741
-6.0011 -1.0879 -2.3897 0.9741
-5.9933 -1.1248 -2.3894 0.9741
-5.9770 -1.1985 -2.3886 0.9742
-5.9598 -1.2720 -2.3878 0.9742
-5.9417 -1.3452 -2.3871 0.9742
-5.8926 -1.5270 -2.3852 0.9742
-5.8822 -1.5631 -2.3848 0.9742
-5.8605 -1.6352 -2.3841 0.9742
-5.8265 -1.7429 -2.3829 0.9742
-5.7904 -1.8498 -2.3818 0.9742
-5.7261 -2.0264 -2.3800 0.9742
-5.7126 -2.0614 -2.3796 0.9742
-5.6849 -2.1313 -2.3789 0.9743
-5.6707 -2.1661 -2.3786 0.9743
-5.6564 -2.2008 -2.3782 0.9743
-5.6120 -2.3043 -2.3771 0.9743
-5.5814 -2.3728 -2.3764 0.9743
-5.5658 -2.4069 -2.3760 0.9743
-5.5340 -2.4748 -2.3753 0.9743
-5.5178 -2.5087 -2.3750 0.9743
-5.5013 -2.5423 -2.3746 0.9743
-5.4679 -2.6094 -2.3739 0.9743
-5.3807 -2.7752 -2.3722 0.9743
-5.3444 -2.8407 -2.3715 0.9743
-5.3073 -2.9058 -2.3709 0.9743
-5.2695 -2.9704 -2.3702 0.9743
-5.2113 -3.0663 -2.3692 0.9744
-5.1915 -3.0981 -2.3689 0.9744
-5.0477 -3.3166 -2.3666 0.9744
-5.0264 -3.3474 -2.3663 0.9744
-4.9395 -3.4688 -2.3650 0.9744
-4.8949 -3.5287 -2.3644 0.9744
-4.8723 -3.5584 -2.3641 0.9744
-4.8036 -3.6468 -2.3632 0.9744
-4.7804 -3.6759 -2.3629 0.9744
-4.7333 -3.7338 -2.3622 0.9744
-4.6372 -3.8478 -2.3611 0.9744
-4.6127 -3.8760 -2.3608 0.9744
-4.5881 -3.9039 -2.3605 0.9745
-4.4879 -4.0143 -2.3593 0.9745
-4.4369 -4.0685 -2.3588 0.9745
-4.3852 -4.1220 -2.3582 0.9745
-4.1173 -4.3802 -2.3555 0.9745
-4.0620 -4.4298 -2.3550 0.9745
-4.0340 -4.4544 -2.3547 0.9745
-4.0060 -4.4787 -2.3545 0.9745
-3.9778 -4.5029 -2.3542 0.9745
-3.9494 -4.5270 -2.3540 0.9745
-3.9210 -4.5508 -2.3537 0.9745
-3.8056 -4.6445 -2.3527 0.9745
-3.7177 -4.7129 -2.3520 0.9745
-3.6881 -4.7353 -2.3518 0.9745
-3.5985 -4.8015 -2.3511 0.9746
-3.5078 -4.8660 -2.3504 0.9746
-3.4774 -4.8871 -2.3502 0.9746
-3.3852 -4.9494 -2.3496 0.9746
-3.3542 -4.9698 -2.3493 0.9746
-3.2919 -5.0100 -2.3489 0.9746
-3.2605 -5.0299 -2.3487 0.9746
-3.1975 -5.0689 -2.3483 0.9746
-3.1658 -5.0881 -2.3481 0.9746
-3.1340 -5.1071 -2.3479 0.9746
-3.1021 -5.1260 -2.3477 0.9746
-3.0701 -5.1447 -2.3475 0.9746
-3.0380 -5.1631 -2.3473 0.9746
-2.9410 -5.2173 -2.3467 0.9746
-2.8758 -5.2525 -2.3464 0.9746
-2.7772 -5.3037 -2.3458 0.9746
-2.6444 -5.3692 -2.3451 0.9746
-2.5774 -5.4008 -2.3448 0.9746
-2.5438 -5.4162 -2.3446 0.9746
-2.5101 -5.4315 -2.3445 0.9746
-2.4762 -5.4465 -2.3443 0.9746
-2.4084 -5.4760 -2.3440 0.9746
-2.3743 -5.4904 -2.3439 0.9746
-2.3059 -5.5187 -2.3436 0.9746
-2.2027 -5.5595 -2.3431 0.9746
-2.0989 -5.5984 -2.3427 0.9746
-1.9943 -5.6354 -2.3423 0.9746
-1.8891 -5.6706 -2.3420 0.9746
-1.8186 -5.6929 -2.3417 0.9747
-1.7479 -5.7144 -2.3415 0.9747
-1.7125 -5.7248 -2.3414 0.9747
-1.6414 -5.7451 -2.3412 0.9747
-1.6058 -5.7548 -2.3411 0.9747
-1.5701 -5.7644 -2.3410 0.9747
-1.5343 -5.7738 -2.3409 0.9747
-1.4627 -5.7918 -2.3407 0.9747
-1.2827 -5.8332 -2.3402 0.9747
-1.2103 -5.8482 -2.3401 0.9747
-1.1741 -5.8554 -2.3400 0.9747
-1.1379 -5.8623 -2.3399 0.9747
-1.1015 -5.8690 -2.3398 0.9747
-1.0652 -5.8756 -2.3398 0.9747
-0.9194 -5.8995 -2.3395 0.9747
-0.7732 -5.9198 -2.3393 0.9747
-0.7365 -5.9244 -2.3392 0.9747
-0.6265 -5.9367 -2.3391 0.9747
-0.5897 -5.9404 -2.3391 0.9747
-0.5162 -5.9470 -2.3390 0.9747
-0.4057 -5.9553 -2.3389 0.9747
-0.3689 -5.9576 -2.3389 0.9747
-0.3321 -5.9597 -2.3388 0.9747
-0.1476 -5.9669 -2.3387 0.9747
-0.1107 -5.9677 -2.3387 0.9747
-0.0369 -5.9685 -2.3387 0.9747
0.0369 -5.9686 -2.3387 0.9747
0.0738 -5.9682 -2.3387 0.9747
0.1107 -5.9676 -2.3387 0.9747
0.1476 -5.9668 -2.3387 0.9747
0.1845 -5.9658 -2.3387 0.9747
0.2214 -5.9646 -2.3387 0.9747
0.2583 -5.9631 -2.3387 0.9747
0.3320 -5.9596 -2.3388 0.9747
0.4057 -5.9551 -2.3388 0.9747
0.4425 -5.9526 -2.3388 0.9747
0.4794 -5.9498 -2.3389 0.9747
0.5529 -5.9435 -2.3389 0.9747
0.5897 -5.9401 -2.3389 0.9747
0.6631 -5.9325 -2.3390 0.9747
0.6998 -5.9284 -2.3391 0.9747
0.8097 -5.9147 -2.3392 0.9747
0.8828 -5.9045 -2.3393 0.9747
0.9194 -5.8991 -2.3393 0.9747
0.9558 -5.8934 -2.3394 0.9747
1.1014 -5.8686 -2.3396 0.9747
1.1378 -5.8618 -2.3397 0.9747
1.2464 -5.8402 -2.3399 0.9747
1.3186 -5.8248 -2.3401 0.9747
1.3547 -5.8167 -2.3402 0.9747
1.4984 -5.7823 -2.3405 0.9747
1.5699 -5.7638 -2.3407 0.9747
1.6056 -5.7541 -2.3408 0.9747
1.6768 -5.7344 -2.3410 0.9747
1.7477 -5.7137 -2.3412 0.9747
1.8184 -5.6921 -2.3414 0.9747
1.8537 -5.6810 -2.3415 0.9747
1.9240 -5.6582 -2.3417 0.9747
1.9940 -5.6346 -2.3420 0.9746
2.1678 -5.5718 -2.3426 0.9746
2.2024 -5.5586 -2.3428 0.9746
2.3397 -5.5037 -2.3433 0.9746
2.4419 -5.4604 -2.3437 0.9746
2.7104 -5.3358 -2.3450 0.9746
2.8751 -5.2514 -2.3459 0.9746
2.9078 -5.2339 -2.3460 0.9746
2.9403 -5.2162 -2.3462 0.9746
3.1333 -5.1060 -2.3474 0.9746
3.1651 -5.0870 -2.3475 0.9746
3.1967 -5.0677 -2.3477 0.9746
3.2283 -5.0483 -2.3479 0.9746
3.2910 -5.0088 -2.3483 0.9746
3.3843 -4.9482 -2.3490 0.9746
3.4151 -4.9276 -2.3492 0.9746
3.4764 -4.8859 -2.3496 0.9746
3.5976 -4.8002 -2.3505 0.9746
3.6574 -4.7562 -2.3509 0.9746
3.6871 -4.7340 -2.3512 0.9746
3.7166 -4.7115 -2.3514 0.9745
3.7461 -4.6889 -2.3516 0.9745
3.8045 -4.6431 -2.3521 0.9745
3.8336 -4.6200 -2.3523 0.9745
3.8912 -4.5732 -2.3528 0.9745
3.9483 -4.5256 -2.3533 0.9745
3.9766 -4.5016 -2.3535 0.9745
4.0328 -4.4530 -2.3540 0.9745
4.0607 -4.4285 -2.3543 0.9745
4.0885 -4.4037 -2.3545 0.9745
4.1435 -4.3538 -2.3550 0.9745
4.1980 -4.3031 -2.3556 0.9745
4.2250 -4.2776 -2.3558 0.9745
4.2518 -4.2519 -2.3561 0.9745
4.3051 -4.1999 -2.3566 0.9745
4.3577 -4.1473 -2.3572 0.9745
4.4610 -4.0401 -2.3583 0.9745
4.4864 -4.0129 -2.3585 0.9745
4.5618 -3.9304 -2.3594 0.9745
4.5865 -3.9026 -2.3597 0.9745
4.6356 -3.8465 -2.3602 0.9745
4.6598 -3.8182 -2.3605 0.9745
4.6839 -3.7898 -2.3608 0.9744
4.7316 -3.7325 -2.3614 0.9744
4.7787 -3.6746 -2.3620 0.9744
4.8479 -3.5867 -2.3629 0.9744
4.8706 -3.5571 -2.3632 0.9744
4.9155 -3.4975 -2.3638 0.9744
5.0246 -3.3461 -2.3654 0.9744
5.0458 -3.3154 -2.3657 0.9744
5.0669 -3.2846 -2.3660 0.9744
5.1290 -3.1913 -2.3670 0.9744
5.1695 -3.1285 -2.3676 0.9744
5.1895 -3.0969 -2.3680 0.9744
5.2093 -3.0651 -2.3683 0.9744
5.2288 -3.0332 -2.3686 0.9744
5.2864 -2.9370 -2.3696 0.9744
5.3052 -2.9046 -2.3699 0.9744
5.3423 -2.8396 -2.3706 0.9743
5.3605 -2.8069 -2.3709 0.9743
5.3785 -2.7741 -2.3713 0.9743
5.3963 -2.7412 -2.3716 0.9743
5.4140 -2.7081 -2.3720 0.9743
5.4314 -2.6750 -2.3723 0.9743
5.4656 -2.6083 -2.3730 0.9743
5.4825 -2.5749 -2.3733 0.9743
5.4991 -2.5413 -2.3737 0.9743
5.5155 -2.5076 -2.3740 0.9743
5.5635 -2.4059 -2.3751 0.9743
5.5791 -2.3718 -2.3754 0.9743
5.5945 -2.3376 -2.3758 0.9743
5.6097 -2.3033 -2.3761 0.9743
5.6394 -2.2344 -2.3768 0.9743
5.6540 -2.1999 -2.3772 0.9743
5.6683 -2.1651 -2.3776 0.9743
5.6825 -2.1304 -2.3779 0.9743
5.7236 -2.0255 -2.3790 0.9743
5.7500 -1.9552 -2.3797 0.9742
5.7629 -1.9199 -2.3801 0.9742
5.7755 -1.8845 -2.3804 0.9742
5.7879 -1.8490 -2.3808 0.9742
5.8002 -1.8135 -2.3812 0.9742
5.8239 -1.7421 -2.3819 0.9742
5.8580 -1.6346 -2.3830 0.9742
5.9103 -1.4538 -2.3849 0.9742
5.9297 -1.3810 -2.3856 0.9742
5.9391 -1.3445 -2.3860 0.9742
5.9482 -1.3080 -2.3864 0.9742
5.9572 -1.2714 -2.3868 0.9742
5.9659 -1.2347 -2.3872 0.9742
5.9906 -1.1244 -2.3883 0.9742
5.9984 -1.0874 -2.3887 0.9742
6.0204 -0.9764 -2.3898 0.9741
6.0273 -0.9394 -2.3902 0.9741
6.0583 -0.7532 -2.3921 0.9741
6.0790 -0.6035 -2.3937 0.9741
6.0836 -0.5660 -2.3941 0.9741
6.0922 -0.4909 -2.3948 0.9741
6.1064 -0.3402 -2.3964 0.9741
6.1169 -0.1892 -2.3980 0.9741
6.1190 -0.1514 -2.3983 0.9740
6.1208 -0.1136 -2.3987 0.9740
6.1224 -0.0757 -2.3991 0.9740
6.1257 0.0379 -2.4003 0.9740
6.1268 0.1137 -2.4011 0.9740
6.1269 0.1895 -2.4019 0.9740
6.1261 0.2654 -2.4027 0.9740
6.1254 0.3033 -2.4030 0.9740
6.1244 0.3412 -2.4034 0.9740
6.1231 0.3791 -2.4038 0.9740
6.1217 0.4171 -2.4042 0.9740
6.1200 0.4550 -2.4046 0.9740
6.1180 0.4929 -2.4050 0.9740
6.1135 0.5687 -2.4058 0.9740
6.1108 0.6066 -2.4062 0.9740
6.1080 0.6445 -2.4066 0.9740
6.1048 0.6824 -2.4070 0.9740
6.0901 0.8337 -2.4085 0.9739
6.0858 0.8715 -2.4089 0.9739
6.0765 0.9470 -2.4097 0.9739
6.0715 0.9847 -2.4101 0.9739
6.0608 1.0601 -2.4109 0.9739
6.0492 1.1354 -2.4117 0.9739
6.0431 1.1729 -2.4121 0.9739
6.0367 1.2105 -2.4124 0.9739
6.0232 1.2854 -2.4132 0.9739
6.0087 1.3603 -2.4140 0.9739
5.9934 1.4350 -2.4148 0.9739
5.9853 1.4722 -2.4152 0.9739
5.9598 1.5838 -2.4163 0.9739
5.9509 1.6208 -2.4167 0.9739
5.9417 1.6579 -2.4171 0.9738
5.9323 1.6949 -2.4175 0.9738
5.9226 1.7318 -2.4178 0.9738
5.9127 1.7687 -2.4182 0.9738
5.9026 1.8055 -2.4186 0.9738
5.8923 1.8422 -2.4190 0.9738
5.8709 1.9156 -2.4198 0.9738
5.8134 2.0978 -2.4216 0.9738
5.7369 2.3142 -2.4239 0.9738
5.7233 2.3500 -2.4243 0.9738
5.7096 2.3857 -2.4246 0.9738
5.5132 2.3438 -2.3473 0.9746
5.2393 2.3043 -2.2427 0.9757
4.8298 2.3787 -2.1096 0.9771
4.1954 2.0986 -1.8381 0.9800
4.0194 2.0731 -1.7721 0.9808
3.9360 2.0610 -1.7409 0.9811
3.8556 2.0494 -1.7109 0.9814
3.7026 2.0272 -1.6540 0.9820
3.5595 2.0064 -1.6011 0.9826
3.4913 1.9966 -1.5759 0.9829
3.3612 1.9777 -1.5281 0.9834
3.2387 1.9600 -1.4833 0.9839
3.1801 1.9515 -1.4620 0.9841
3.0678 1.9352 -1.4212 0.9845
2.9105 1.9124 -1.3646 0.9851
2.8125 1.8981 -1.3295 0.9855
2.7653 1.8913 -1.3127 0.9857
2.7193 1.8846 -1.2964 0.9859
2.6744 1.8781 -1.2805 0.9861
2.6210 1.9643 -1.2834 0.9860
2.6176 1.9872 -1.2877 0.9860
2.6142 2.0102 -1.2921 0.9859
2.6107 2.0334 -1.2966 0.9859
2.6003 2.1039 -1.3106 0.9857
2.5967 2.1277 -1.3154 0.9857
2.5931 2.1517 -1.3203 0.9856
2.5749 2.2746 -1.3462 0.9853
2.5711 2.2998 -1.3517 0.9853
2.5674 2.3252 -1.3572 0.9852
2.5636 2.3507 -1.3629 0.9852
2.5597 2.3765 -1.3686 0.9851
2.5559 2.4025 -1.3745 0.9850
2.5520 2.4288 -1.3804 0.9850
2.5481 2.4552 -1.3865 0.9849
2.5441 2.4819 -1.3926 0.9848
2.5320 2.5635 -1.4118 0.9846
2.5279 2.5912 -1.4184 0.9846
2.5237 2.6191 -1.4251 0.9845
2.5195 2.6473 -1.4320 0.9844
2.5153 2.6758 -1.4390 0.9843
2.5110 2.7046 -1.4461 0.9843
2.5023 2.7630 -1.4606 0.9841
2.4979 2.7927 -1.4681 0.9840
2.4935 2.8226 -1.4757 0.9840
2.4844 2.8835 -1.4914 0.9838
2.4609 3.0415 -1.5330 0.9833
2.4561 3.0742 -1.5418 0.9832
2.4511 3.1073 -1.5507 0.9831
2.4462 3.1407 -1.5599 0.9830
2.4411 3.1746 -1.5691 0.9829
2.4361 3.2088 -1.5786 0.9828
2.4309 3.2435 -1.5882 0.9827
2.4204 3.3141 -1.6080 0.9825
2.4151 3.3501 -1.6182 0.9824
2.4041 3.4235 -1.6391 0.9822
2.3986 3.4608 -1.6499 0.9821
2.3815 3.5761 -1.6835 0.9817
2.3756 3.6155 -1.6951 0.9816
2.3696 3.6555 -1.7070 0.9815
2.3575 3.7373 -1.7314 0.9812
2.3450 3.8214 -1.7568 0.9809
2.3255 3.9523 -1.7968 0.9805
2.3120 4.0430 -1.8249 0.9802
2.3051 4.0894 -1.8394 0.9800
2.2838 4.2332 -1.8847 0.9795
2.7568 5.1865 -2.3015 0.9751
2.6285 5.2547 -2.3022 0.9751
2.5311 5.3037 -2.3027 0.9751
2.4984 5.3197 -2.3029 0.9751
2.4328 5.3509 -2.3032 0.9751
2.3003 5.4110 -2.3038 0.9751
2.2670 5.4254 -2.3040 0.9751
2.2335 5.4397 -2.3041 0.9751
2.2000 5.4538 -2.3043 0.9751
2.1326 5.4812 -2.3046 0.9750
1.9969 5.5336 -2.3051 0.9750
1.9285 5.5586 -2.3054 0.9750
1.8942 5.5707 -2.3055 0.9750
1.8598 5.5826 -2.3056 0.9750
1.6519 5.6495 -2.3063 0.9750
1.6170 5.6599 -2.3065 0.9750
1.5821 5.6700 -2.3066 0.9750
1.5471 5.6799 -2.3067 0.9750
1.5120 5.6897 -2.3068 0.9750
1.4768 5.6992 -2.3069 0.9750
1.4416 5.7084 -2.3070 0.9750
1.2647 5.7514 -2.3074 0.9750
1.2292 5.7594 -2.3075 0.9750
1.1936 5.7671 -2.3076 0.9750
1.0865 5.7888 -2.3078 0.9750
1.0507 5.7956 -2.3079 0.9750
0.9431 5.8146 -2.3081 0.9750
0.8711 5.8262 -2.3082 0.9750
0.7990 5.8368 -2.3084 0.9750
0.7630 5.8417 -2.3084 0.9750
0.6545 5.8553 -2.3086 0.9750
0.6183 5.8593 -2.3086 0.9750
0.5458 5.8667 -2.3087 0.9750
0.5095 5.8701 -2.3087 0.9750
0.4369 5.8761 -2.3088 0.9750
0.3278 5.8834 -2.3089 0.9750
0.1822 5.8899 -2.3090 0.9750
0.1457 5.8910 -2.3090 0.9750
0.1093 5.8918 -2.3090 0.9750
0.0729 5.8924 -2.3090 0.9750
0.0364 5.8928 -2.3090 0.9750
-0.0729 5.8924 -2.3090 0.9750
-0.1093 5.8919 -2.3090 0.9750
-0.1822 5.8900 -2.3090 0.9750
-0.2186 5.8888 -2.3090 0.9750
-0.2550 5.8873 -2.3090 0.9750
-0.2914 5.8855 -2.3090 0.9750
-0.5095 5.8703 -2.3088 0.9750
-0.5821 5.8634 -2.3088 0.9750
-0.6183 5.8596 -2.3087 0.9750
-0.7991 5.8371 -2.3085 0.9750
-0.8352 5.8320 -2.3085 0.9750
-0.8712 5.8265 -2.3084 0.9750
-0.9432 5.8150 -2.3083 0.9750
-1.0149 5.8026 -2.3082 0.9750
-1.1223 5.7823 -2.3080 0.9750
-1.1580 5.7750 -2.3079 0.9750
-1.2293 5.7599 -2.3077 0.9750
-1.3003 5.7439 -2.3076 0.9750
-1.3358 5.7355 -2.3075 0.9750
-1.4418 5.7091 -2.3072 0.9750
-1.4770 5.6998 -2.3071 0.9750
-1.6870 5.6396 -2.3065 0.9750
-1.7911 5.6065 -2.3062 0.9750
-1.8256 5.5951 -2.3061 0.9750
-1.8601 5.5834 -2.3060 0.9750
-1.8945 5.5715 -2.3059 0.9750
-1.9972 5.5345 -2.3055 0.9750
-2.0313 5.5218 -2.3054 0.9750
-2.0992 5.4956 -2.3051 0.9750
-2.1330 5.4822 -2.3050 0.9750
-2.1667 5.4686 -2.3048 0.9750
-2.2339 5.4407 -2.3045 0.9750
-2.3340 5.3973 -2.3041 0.9751
-2.3672 5.3824 -2.3039 0.9751
-2.4003 5.3673 -2.3038 0.9751
-2.4333 5.3519 -2.3036 0.9751
-2.5316 5.3048 -2.3032 0.9751
-2.5967 5.2723 -2.3028 0.9751
-2.6290 5.2558 -2.3027 0.9751
-2.6613 5.2390 -2.3025 0.9751
-2.7892 5.1700 -2.3018 0.9751
-2.8209 5.1523 -2.3016 0.9751
-2.8525 5.1344 -2.3014 0.9751
-2.8839 5.1162 -2.3012 0.9751
-2.9153 5.0978 -2.3010 0.9751
-2.9465 5.0793 -2.3009 0.9751
-2.9776 5.0605 -2.3007 0.9751
-3.0702 5.0032 -2.3001 0.9751
-3.1313 4.9639 -2.2997 0.9751
-3.1617 4.9440 -2.2995 0.9751
-3.1919 4.9239 -2.2993 0.9751
-3.2220 4.9037 -2.2991 0.9751
-3.3411 4.8207 -2.2982 0.9751
-3.3998 4.7781 -2.2978 0.9751
-3.4365 4.7671 -2.3026 0.9751
-3.4797 4.7646 -2.3118 0.9750
-3.5280 4.7684 -2.3242 0.9748
-3.6284 4.7795 -2.3513 0.9745
-3.7339 4.7941 -2.3810 0.9742
-3.7877 4.8016 -2.3963 0.9741
-3.8422 4.8093 -2.4120 0.9739
-3.8974 4.8169 -2.4278 0.9737
-4.0230 4.7878 -2.4503 0.9735
-4.0521 4.7623 -2.4501 0.9735
-4.0810 4.7366 -2.4498 0.9735
-4.1669 4.6586 -2.4490 0.9735
-4.1951 4.6322 -2.4488 0.9735
-4.2232 4.6056 -2.4485 0.9735
-4.2789 4.5521 -2.4479 0.9735
-4.3339 4.4978 -2.4474 0.9735
-4.4150 4.4151 -2.4465 0.9735
-4.4683 4.3591 -2.4460 0.9735
-4.5208 4.3025 -2.4454 0.9735
-4.5725 4.2452 -2.4448 0.9736
-4.5981 4.2163 -2.4445 0.9736
-4.6738 4.1288 -2.4436 0.9736
-4.7722 4.0099 -2.4424 0.9736
-4.7963 3.9798 -2.4421 0.9736
-4.8202 3.9496 -2.4417 0.9736
-4.8674 3.8887 -2.4411 0.9736
-4.8907 3.8579 -2.4408 0.9736
-4.9138 3.8271 -2.4405 0.9736
-5.0044 3.7025 -2.4392 0.9736
-5.0265 3.6710 -2.4389 0.9736
-5.0702 3.6076 -2.4382 0.9736
-5.0917 3.5757 -2.4379 0.9736
-5.1963 3.4142 -2.4362 0.9736
-5.2367 3.3488 -2.4356 0.9736
-5.2762 3.2828 -2.4349 0.9737
-5.2957 3.2497 -2.4345 0.9737
-5.3149 3.2164 -2.4342 0.9737
-5.3339 3.1830 -2.4339 0.9737
-5.3528 3.1495 -2.4335 0.9737
-5.3714 3.1160 -2.4332 0.9737
-5.4080 3.0484 -2.4325 0.9737
-5.4612 2.9463 -2.4314 0.9737
-5.4785 2.9120 -2.4311 0.9737
-5.4956 2.8776 -2.4307 0.9737
-5.5125 2.8432 -2.4304 0.9737
-5.5292 2.8087 -2.4300 0.9737
-5.5779 2.7044 -2.4289 0.9737
-5.6092 2.6344 -2.4282 0.9737
-5.6397 2.5641 -2.4275 0.9737
-5.6693 2.4934 -2.4268 0.9737
-5.7258 2.3510 -2.4253 0.9738
-5.7393 2.3152 -2.4249 0.9738
-5.7526 2.2793 -2.4245 0.9738
-5.7658 2.2433 -2.4242 0.9738
-5.7786 2.2073 -2.4238 0.9738
-5.7913 2.1712 -2.4234 0.9738
-5.8037 2.1350 -2.4231 0.9738
-5.8279 2.0624 -2.4223 0.9738
-5.8624 1.9530 -2.4212 0.9738
-5.8734 1.9164 -2.4208 0.9738
-5.8843 1.8798 -2.4204 0.9738
-5.8948 1.8430 -2.4200 0.9738
-5.9052 1.8062 -2.4197 0.9738
-5.9153 1.7694 -2.4193 0.9738
-5.9349 1.6956 -2.4185 0.9738
-5.9535 1.6216 -2.4178 0.9738
-5.9797 1.5101 -2.4166 0.9739
-5.9960 1.4356 -2.4158 0.9739
-6.0039 1.3983 -2.4155 0.9739
-6.0114 1.3609 -2.4151 0.9739
-6.0188 1.3235 -2.4147 0.9739
-6.0259 1.2860 -2.4143 0.9739
-6.0327 1.2485 -2.4139 0.9739
-6.0394 1.2110 -2.4135 0.9739
-6.0458 1.1734 -2.4131 0.9739
-6.0519 1.1358 -2.4127 0.9739
-6.0690 1.0229 -2.4116 0.9739
-6.0743 0.9852 -2.4112 0.9739
-6.0793 0.9474 -2.4108 0.9739
-6.0840 0.9097 -2.4104 0.9739
-6.0885 0.8719 -2.4100 0.9739
-6.1136 0.6069 -2.4073 0.9740
-6.1163 0.5690 -2.4069 0.9740
-6.1187 0.5311 -2.4065 0.9740
-6.1208 0.4931 -2.4061 0.9740
-6.1245 0.4173 -2.4053 0.9740
-6.1281 0.3034 -2.4041 0.9740
-6.1289 0.2655 -2.4037 0.9740
-6.1294 0.2275 -2.4034 0.9740
-6.1298 0.1517 -2.4026 0.9740
-6.1296 0.1137 -2.4022 0.9740
-5.9905 -0.1482 -2.3995 0.9745
-5.9885 -0.1852 -2.3991 0.9745
-5.9863 -0.2222 -2.3987 0.9745
-5.9812 -0.2962 -2.3979 0.9745
-5.9783 -0.3331 -2.3975 0.9745
-5.9644 -0.4805 -2.3960 0.9745
-5.9604 -0.5173 -2.3956 0.9746
-5.9516 -0.5908 -2.3949 0.9746
-5.9258 -0.7739 -2.3930 0.9746
-5.9139 -0.8469 -2.3922 0.9746
-5.8944 -0.9560 -2.3911 0.9746
-5.8729 -1.0647 -2.3900 0.9746
-5.8653 -1.1008 -2.3896 0.9746
-5.8494 -1.1729 -2.3888 0.9746
-5.8326 -1.2448 -2.3881 0.9746
-5.8239 -1.2807 -2.3877 0.9746
-5.7869 -1.4234 -2.3862 0.9746
-5.7463 -1.5651 -2.3848 0.9747
-5.7248 -1.6356 -2.3840 0.9747
-5.7137 -1.6707 -2.3837 0.9747
-5.6908 -1.7407 -2.3830 0.9747
-5.6426 -1.8798 -2.3815 0.9747
-5.6300 -1.9144 -2.3812 0.9747
-5.6173 -1.9489 -2.3808 0.9747
-5.6043 -1.9833 -2.3804 0.9747
-5.5502 -2.1200 -2.3790 0.9747
-5.5361 -2.1540 -2.3787 0.9747
-5.5219 -2.1879 -2.3783 0.9747
-5.5074 -2.2217 -2.3780 0.9747
-5.4928 -2.2553 -2.3776 0.9747
-5.4629 -2.3224 -2.3769 0.9747
-5.4006 -2.4554 -2.3755 0.9748
-5.3683 -2.5213 -2.3748 0.9748
-5.3518 -2.5541 -2.3745 0.9748
-5.3183 -2.6193 -2.3738 0.9748
-5.3013 -2.6518 -2.3735 0.9748
-5.2840 -2.6841 -2.3732 0.9748
-5.2666 -2.7164 -2.3728 0.9748
-5.2311 -2.7805 -2.3722 0.9748
-5.1949 -2.8442 -2.3715 0.9748
-5.1579 -2.9074 -2.3708 0.9748
-5.1201 -2.9702 -2.3702 0.9748
-5.1009 -3.0013 -2.3699 0.9748
-5.0816 -3.0324 -2.3695 0.9748
-5.0423 -3.0942 -2.3689 0.9748
-4.9616 -3.2162 -2.3676 0.9748
-4.8991 -3.3064 -2.3667 0.9749
-4.8779 -3.3362 -2.3664 0.9749
-4.8566 -3.3659 -2.3661 0.9749
-4.7914 -3.4541 -2.3651 0.9749
-4.7694 -3.4832 -2.3648 0.9749
-4.7247 -3.5410 -2.3642 0.9749
-4.6565 -3.6267 -2.3633 0.9749
-4.6101 -3.6831 -2.3628 0.9749
-4.5867 -3.7111 -2.3625 0.9749
-4.5631 -3.7389 -2.3622 0.9749
-4.5154 -3.7941 -2.3616 0.9749
-4.4913 -3.8215 -2.3613 0.9749
-4.4670 -3.8488 -2.3610 0.9749
-4.4180 -3.9028 -2.3605 0.9749
-4.3433 -3.9827 -2.3596 0.9749
-4.3181 -4.0090 -2.3594 0.9749
-4.2672 -4.0612 -2.3588 0.9749
-4.1109 -4.2138 -2.3572 0.9750
-4.0843 -4.2387 -2.3570 0.9750
-4.0575 -4.2634 -2.3567 0.9750
-4.0036 -4.3123 -2.3562 0.9750
-3.9764 -4.3365 -2.3559 0.9750
-3.9491 -4.3606 -2.3557 0.9750
-3.8941 -4.4081 -2.3552 0.9750
-3.8663 -4.4317 -2.3550 0.9750
-3.8385 -4.4551 -2.3547 0.9750
-3.7540 -4.5241 -2.3540 0.9750
-3.6970 -4.5693 -2.3535 0.9750
-3.6395 -4.6137 -2.3530 0.9750
-3.5815 -4.6575 -2.3526 0.9750
-3.5229 -4.7005 -2.3521 0.9750
-3.4934 -4.7218 -2.3519 0.9750
-3.4341 -4.7638 -2.3515 0.9750
-3.4043 -4.7845 -2.3513 0.9750
-3.3140 -4.8454 -2.3506 0.9750
-3.2837 -4.8654 -2.3504 0.9750
-3.2533 -4.8852 -2.3502 0.9750
-3.2227 -4.9048 -2.3500 0.9750
-3.1921 -4.9242 -2.3498 0.9750
-3.1613 -4.9434 -2.3496 0.9750
-3.1304 -4.9625 -2.3494 0.9750
-3.0370 -5.0184 -2.3488 0.9750
-3.0057 -5.0367 -2.3486 0.9750
-2.9427 -5.0727 -2.3482 0.9750
-2.9110 -5.0904 -2.3481 0.9751
-2.8474 -5.1252 -2.3477 0.9751
-2.8154 -5.1423 -2.3475 0.9751
-2.7834 -5.1592 -2.3473 0.9751
-2.6541 -5.2250 -2.3466 0.9751
-2.6216 -5.2409 -2.3465 0.9751
-2.5889 -5.2566 -2.3463 0.9751
-2.5234 -5.2875 -2.3460 0.9751
-2.4243 -5.3323 -2.3455 0.9751
-2.3912 -5.3469 -2.3454 0.9751
-2.2911 -5.3893 -2.3449 0.9751
-2.2576 -5.4030 -2.3448 0.9751
-2.2240 -5.4166 -2.3446 0.9751
-2.1903 -5.4299 -2.3445 0.9751
-2.1566 -5.4430 -2.3443 0.9751
-2.1228 -5.4559 -2.3442 0.9751
-2.0889 -5.4686 -2.3441 0.9751
-2.0549 -5.4812 -2.3439 0.9751
-1.9867 -5.5055 -2.3437 0.9751
-1.9525 -5.5174 -2.3435 0.9751
-1.9183 -5.5291 -2.3434 0.9751
-1.8496 -5.5518 -2.3432 0.9751
-1.8151 -5.5629 -2.3431 0.9751
-1.7806 -5.5737 -2.3430 0.9751
-1.7113 -5.5948 -2.3427 0.9751
-1.6419 -5.6150 -2.3425 0.9751
-1.6070 -5.6248 -2.3424 0.9751
-1.5722 -5.6344 -2.3423 0.9751
-1.4321 -5.6706 -2.3419 0.9751
-1.3617 -5.6874 -2.3417 0.9751
-1.2204 -5.7186 -2.3414 0.9751
-1.1496 -5.7329 -2.3412 0.9751
-1.1140 -5.7397 -2.3412 0.9751
-1.0785 -5.7463 -2.3411 0.9751
-1.0429 -5.7527 -2.3410 0.9751
-0.9002 -5.7761 -2.3408 0.9751
-0.6133 -5.8125 -2.3404 0.9751
-0.5774 -5.8161 -2.3403 0.9751
-0.5414 -5.8195 -2.3403 0.9751
-0.4694 -5.8255 -2.3402 0.9751
-0.4333 -5.8283 -2.3402 0.9751
-0.3612 -5.8330 -2.3401 0.9751
-0.3251 -5.8351 -2.3401 0.9751
-0.2529 -5.8386 -2.3401 0.9751
-0.2168 -5.8400 -2.3401 0.9751
-0.1446 -5.8421 -2.3400 0.9751
-0.0723 -5.8434 -2.3400 0.9751
-0.0000 -5.8438 -2.3400 0.9751
0.0723 -5.8434 -2.3400 0.9751
0.1445 -5.8421 -2.3400 0.9751
0.2168 -5.8399 -2.3400 0.9751
0.2529 -5.8385 -2.3400 0.9751
0.3972 -5.8306 -2.3401 0.9751
0.4693 -5.8254 -2.3401 0.9751
0.5414 -5.8192 -2.3402 0.9751
0.6133 -5.8122 -2.3403 0.9751
0.6852 -5.8044 -2.3403 0.9751
0.7211 -5.8002 -2.3404 0.9751
0.7569 -5.7957 -2.3404 0.9751
0.9001 -5.7757 -2.3406 0.9751
0.9359 -5.7701 -2.3407 0.9751
1.0784 -5.7458 -2.3409 0.9751
1.1139 -5.7392 -2.3410 0.9751
1.1494 -5.7323 -2.3410 0.9751
1.2203 -5.7181 -2.3412 0.9751
1.2557 -5.7106 -2.3413 0.9751
1.3263 -5.6950 -2.3414 0.9751
1.4670 -5.6613 -2.3418 0.9751
1.5020 -5.6523 -2.3418 0.9751
1.5370 -5.6431 -2.3419 0.9751
1.6068 -5.6241 -2.3421 0.9751
1.6764 -5.6043 -2.3423 0.9751
1.7803 -5.5730 -2.3426 0.9751
1.8493 -5.5511 -2.3429 0.9751
1.9180 -5.5283 -2.3431 0.9751
1.9523 -5.5166 -2.3432 0.9751
2.0205 -5.4926 -2.3435 0.9751
2.0885 -5.4678 -2.3437 0.9751
2.1562 -5.4421 -2.3440 0.9751
2.1900 -5.4290 -2.3441 0.9751
2.2572 -5.4022 -2.3444 0.9751
2.2907 -5.3884 -2.3445 0.9751
2.3241 -5.3745 -2.3446 0.9751
2.3907 -5.3459 -2.3449 0.9751
2.5229 -5.2865 -2.3455 0.9751
2.5557 -5.2712 -2.3457 0.9751
2.5884 -5.2556 -2.3459 0.9751
2.7828 -5.1582 -2.3468 0.9751
2.8148 -5.1412 -2.3470 0.9751
2.8468 -5.1241 -2.3472 0.9751
2.9420 -5.0716 -2.3477 0.9751
2.9736 -5.0537 -2.3479 0.9751
3.0675 -4.9988 -2.3485 0.9750
3.1605 -4.9423 -2.3490 0.9750
3.2219 -4.9037 -2.3494 0.9750
3.2525 -4.8840 -2.3496 0.9750
3.3132 -4.8442 -2.3500 0.9750
3.3434 -4.8241 -2.3502 0.9750
3.3735 -4.8038 -2.3505 0.9750
3.4034 -4.7832 -2.3507 0.9750
3.4332 -4.7625 -2.3509 0.9750
3.4630 -4.7416 -2.3511 0.9750
3.4925 -4.7206 -2.3513 0.9750
3.5220 -4.6993 -2.3515 0.9750
3.5513 -4.6779 -2.3517 0.9750
3.6096 -4.6345 -2.3522 0.9750
3.6385 -4.6125 -2.3524 0.9750
3.6673 -4.5904 -2.3526 0.9750
3.6960 -4.5680 -2.3529 0.9750
3.7529 -4.5229 -2.3533 0.9750
3.9205 -4.3832 -2.3548 0.9750
3.9480 -4.3593 -2.3550 0.9750
3.9753 -4.3353 -2.3553 0.9750
4.0024 -4.3110 -2.3555 0.9750
4.0294 -4.2867 -2.3557 0.9750
4.0563 -4.2621 -2.3560 0.9750
4.1623 -4.1623 -2.3570 0.9750
4.1884 -4.1369 -2.3573 0.9750
4.2659 -4.0599 -2.3581 0.9749
4.2914 -4.0339 -2.3583 0.9749
4.3419 -3.9814 -2.3589 0.9749
4.3670 -3.9549 -2.3592 0.9749
4.3918 -3.9283 -2.3594 0.9749
4.4411 -3.8746 -2.3600 0.9749
4.4655 -3.8475 -2.3603 0.9749
4.4898 -3.8203 -2.3605 0.9749
4.6085 -3.6819 -2.3620 0.9749
4.7231 -3.5398 -2.3634 0.9749
4.7897 -3.4529 -2.3643 0.9749
4.9183 -3.2753 -2.3661 0.9749
4.9802 -3.1848 -2.3671 0.9749
5.0205 -3.1237 -2.3677 0.9748
5.0404 -3.0930 -2.3680 0.9748
5.0601 -3.0622 -2.3683 0.9748
5.0990 -3.0003 -2.3690 0.9748
5.1181 -2.9690 -2.3693 0.9748
5.2111 -2.8113 -2.3709 0.9748
5.2469 -2.7474 -2.3716 0.9748
5.2819 -2.6831 -2.3722 0.9748
5.3661 -2.5203 -2.3739 0.9748
5.3824 -2.4874 -2.3742 0.9748
5.4143 -2.4213 -2.3749 0.9748
5.4454 -2.3548 -2.3756 0.9748
5.4757 -2.2880 -2.3763 0.9748
5.4905 -2.2544 -2.3766 0.9748
5.5196 -2.1870 -2.3773 0.9747
5.5339 -2.1531 -2.3777 0.9747
5.5479 -2.1192 -2.3780 0.9747
5.5617 -2.0851 -2.3784 0.9747
5.5887 -2.0168 -2.3791 0.9747
5.6019 -1.9825 -2.3794 0.9747
5.6403 -1.8790 -2.3805 0.9747
5.6648 -1.8096 -2.3812 0.9747
5.6767 -1.7748 -2.3816 0.9747
5.6884 -1.7400 -2.3819 0.9747
5.7112 -1.6700 -2.3827 0.9747
5.7223 -1.6349 -2.3830 0.9747
5.7439 -1.5645 -2.3838 0.9747
5.7645 -1.4938 -2.3845 0.9747
5.7746 -1.4583 -2.3849 0.9747
5.7939 -1.3872 -2.3856 0.9747
5.8033 -1.3516 -2.3860 0.9747
5.8214 -1.2801 -2.3867 0.9746
5.8301 -1.2443 -2.3871 0.9746
5.8386 -1.2083 -2.3874 0.9746
5.8468 -1.1724 -2.3878 0.9746
5.8703 -1.0642 -2.3889 0.9746
5.8918 -0.9556 -2.3900 0.9746
5.8986 -0.9193 -2.3904 0.9746
5.9113 -0.8465 -2.3912 0.9746
5.9232 -0.7736 -2.3919 0.9746
5.9288 -0.7371 -2.3923 0.9746
5.9342 -0.7005 -2.3927 0.9746
5.9443 -0.6272 -2.3934 0.9746
5.9535 -0.5539 -2.3942 0.9746
5.9577 -0.5171 -2.3946 0.9746
5.9656 -0.4435 -2.3953 0.9746
5.9691 -0.4067 -2.3957 0.9746
5.9785 -0.2960 -2.3969 0.9745
5.9812 -0.2591 -2.3972 0.9745
5.9836 -0.2221 -2.3976 0.9745
5.9858 -0.1852 -2.3980 0.9745
5.9878 -0.1481 -2.3984 0.9745
5.9896 -0.1112 -2.3988 0.9745
5.9935 0.0000 -2.3999 0.9745
5.9949 0.0741 -2.4007 0.9745
5.9953 0.1112 -2.4011 0.9745
5.9955 0.1483 -2.4015 0.9745
5.9946 0.2596 -2.4026 0.9745
5.9938 0.2968 -2.4030 0.9745
5.9820 0.5565 -2.4057 0.9744
5.9766 0.6306 -2.4064 0.9744
5.9735 0.6677 -2.4068 0.9744
5.9702 0.7047 -2.4072 0.9744
5.9630 0.7788 -2.4080 0.9744
5.9356 1.0004 -2.4103 0.9744
5.9303 1.0373 -2.4107 0.9744
5.9189 1.1109 -2.4114 0.9744
5.9065 1.1844 -2.4122 0.9744
5.9000 1.2211 -2.4126 0.9744
5.8933 1.2577 -2.4129 0.9744
5.8863 1.2944 -2.4133 0.9744
5.8641 1.4040 -2.4145 0.9744
5.8562 1.4404 -2.4148 0.9743
5.8397 1.5133 -2.4156 0.9743
5.8312 1.5496 -2.4160 0.9743
5.8224 1.5859 -2.4163 0.9743
5.7751 1.7665 -2.4182 0.9743
5.7108 1.9813 -2.4204 0.9743
5.6993 2.0169 -2.4208 0.9743
5.6635 2.1233 -2.4219 0.9743
5.5994 2.2990 -2.4237 0.9743
5.5859 2.3340 -2.4241 0.9743
5.5113 2.3430 -2.3980 0.9745
5.3713 2.3228 -2.3433 0.9751
5.2375 2.3035 -2.2911 0.9756
5.1096 2.2850 -2.2413 0.9762
4.9871 2.2674 -2.1936 0.9767
4.8718 2.3621 -2.1680 0.9769
4.8700 2.3985 -2.1737 0.9769
4.8683 2.4352 -2.1797 0.9768
3.9350 2.0605 -1.7786 0.9810
3.8546 2.0488 -1.7479 0.9814
3.7769 2.0376 -1.7184 0.9817
3.7017 2.0267 -1.6899 0.9820
3.6290 2.0162 -1.6623 0.9823
3.5587 2.0060 -1.6358 0.9826
3.3604 1.9773 -1.5612 0.9833
3.2983 1.9683 -1.5380 0.9836
3.1225 1.9428 -1.4726 0.9843
3.0671 1.9348 -1.4521 0.9845
2.9609 1.9194 -1.4129 0.9849
2.9099 1.9120 -1.3942 0.9851
2.8603 1.9048 -1.3760 0.9853
2.7647 1.8909 -1.3412 0.9857
2.7187 1.8843 -1.3245 0.9858
2.6243 1.9416 -1.3072 0.9860
2.6209 1.9643 -1.3115 0.9860
2.6175 1.9872 -1.3159 0.9859
2.6141 2.0102 -1.3204 0.9859
2.6107 2.0334 -1.3250 0.9858
2.6037 2.0802 -1.3345 0.9857
2.6002 2.1038 -1.3393 0.9857
2.5967 2.1277 -1.3442 0.9856
2.5895 2.1759 -1.3543 0.9855
2.5859 2.2003 -1.3595 0.9855
2.5822 2.2248 -1.3648 0.9854
2.5748 2.2746 -1.3757 0.9853
2.5711 2.2997 -1.3813 0.9852
2.5635 2.3507 -1.3927 0.9851
2.5558 2.4025 -1.4046 0.9850
2.5519 2.4287 -1.4107 0.9849
2.5480 2.4552 -1.4169 0.9849
2.5441 2.4819 -1.4232 0.9848
2.5319 2.5634 -1.4427 0.9846
2.5278 2.5911 -1.4495 0.9845
2.5152 2.6758 -1.4705 0.9843
2.5110 2.7046 -1.4777 0.9842
2.5066 2.7336 -1.4851 0.9841
2.5023 2.7630 -1.4926 0.9841
2.4798 2.9144 -1.5323 0.9836
2.4751 2.9456 -1.5406 0.9836
2.4704 2.9772 -1.5491 0.9835
2.4511 3.1072 -1.5847 0.9831
2.4461 3.1407 -1.5940 0.9830
2.4204 3.3141 -1.6432 0.9825
2.4096 3.3865 -1.6642 0.9823
2.3929 3.4987 -1.6973 0.9819
2.3756 3.6155 -1.7322 0.9815
2.3696 3.6555 -1.7444 0.9814
2.3636 3.6960 -1.7567 0.9813
2.3449 3.8213 -1.7953 0.9809
2.3386 3.8643 -1.8086 0.9807
2.3120 4.0429 -1.8649 0.9801
2.3051 4.0893 -1.8797 0.9800
2.6963 5.0726 -2.3003 0.9756
2.6337 5.1063 -2.3006 0.9755
2.5708 5.1393 -2.3010 0.9755
2.4755 5.1873 -2.3015 0.9755
2.4115 5.2182 -2.3018 0.9755
2.3471 5.2483 -2.3021 0.9755
2.3148 5.2631 -2.3023 0.9755
2.2498 5.2921 -2.3026 0.9755
2.1187 5.3475 -2.3032 0.9755
2.0857 5.3608 -2.3033 0.9755
2.0527 5.3739 -2.3035 0.9755
2.0195 5.3868 -2.3036 0.9755
1.9863 5.3995 -2.3037 0.9755
1.9530 5.4120 -2.3039 0.9755
1.8525 5.4482 -2.3042 0.9755
1.7176 5.4935 -2.3047 0.9755
1.6497 5.5149 -2.3050 0.9755
1.5130 5.5550 -2.3054 0.9755
1.4787 5.5645 -2.3055 0.9755
1.4443 5.5738 -2.3056 0.9755
1.3754 5.5917 -2.3058 0.9755
1.2369 5.6249 -2.3061 0.9755
1.1673 5.6402 -2.3063 0.9755
1.1324 5.6474 -2.3064 0.9755
0.9925 5.6745 -2.3067 0.9755
0.9223 5.6866 -2.3068 0.9755
0.8520 5.6979 -2.3069 0.9755
0.8167 5.7032 -2.3070 0.9755
0.7108 5.7177 -2.3071 0.9755
0.6755 5.7222 -2.3072 0.9755
0.6047 5.7303 -2.3073 0.9755
0.5692 5.7340 -2.3073 0.9755
0.5338 5.7376 -2.3074 0.9755
0.4983 5.7408 -2.3074 0.9755
0.3917 5.7493 -2.3075 0.9755
0.2850 5.7558 -2.3076 0.9755
0.2494 5.7575 -2.3076 0.9755
0.2138 5.7590 -2.3076 0.9755
0.1782 5.7602 -2.3076 0.9755
0.1426 5.7612 -2.3076 0.9755
0.0713 5.7626 -2.3077 0.9755
0.0356 5.7630 -2.3077 0.9755
-0.1069 5.7621 -2.3077 0.9755
-0.1425 5.7613 -2.3077 0.9755
-0.1782 5.7604 -2.3077 0.9755
-0.2494 5.7576 -2.3076 0.9755
-0.3206 5.7540 -2.3076 0.9755
-0.3917 5.7495 -2.3076 0.9755
-0.4273 5.7469 -2.3075 0.9755
-0.4628 5.7441 -2.3075 0.9755
-0.5338 5.7378 -2.3075 0.9755
-0.5693 5.7343 -2.3074 0.9755
-0.6755 5.7225 -2.3073 0.9755
-0.7462 5.7135 -2.3072 0.9755
-0.8168 5.7036 -2.3071 0.9755
-0.9224 5.6870 -2.3070 0.9755
-0.9575 5.6811 -2.3069 0.9755
-1.0627 5.6618 -2.3067 0.9755
-1.1325 5.6479 -2.3066 0.9755
-1.2022 5.6331 -2.3064 0.9755
-1.2717 5.6175 -2.3063 0.9755
-1.3410 5.6009 -2.3061 0.9755
-1.4101 5.5835 -2.3059 0.9755
-1.4789 5.5652 -2.3058 0.9755
-1.5132 5.5557 -2.3057 0.9755
-1.5475 5.5460 -2.3056 0.9755
-1.6158 5.5260 -2.3054 0.9755
-1.6499 5.5156 -2.3053 0.9755
-1.8528 5.4490 -2.3046 0.9755
-1.9533 5.4129 -2.3042 0.9755
-1.9866 5.4004 -2.3041 0.9755
-2.0199 5.3877 -2.3040 0.9755
-2.0530 5.3748 -2.3038 0.9755
-2.1191 5.3484 -2.3036 0.9755
-2.1520 5.3348 -2.3034 0.9755
-2.1848 5.3211 -2.3033 0.9755
-2.2176 5.3071 -2.3032 0.9755
-2.2827 5.2787 -2.3029 0.9755
-2.3152 5.2641 -2.3027 0.9755
-2.3475 5.2494 -2.3026 0.9755
-2.4120 5.2192 -2.3023 0.9755
-2.4440 5.2038 -2.3021 0.9755
-2.4760 5.1883 -2.3019 0.9755
-2.5079 5.1725 -2.3018 0.9755
-2.5396 5.1565 -2.3016 0.9755
-2.6028 5.1240 -2.3013 0.9755
-2.6656 5.0906 -2.3010 0.9755
-2.7590 5.0392 -2.3004 0.9756
-2.8513 4.9860 -2.2999 0.9756
-2.9123 4.9495 -2.2995 0.9756
-2.9728 4.9123 -2.2991 0.9756
-3.0029 4.8934 -2.2989 0.9756
-3.0328 4.8743 -2.2987 0.9756
-3.0923 4.8356 -2.2984 0.9756
-3.1219 4.8160 -2.2981 0.9756
-3.1807 4.7762 -2.2977 0.9756
-3.2098 4.7560 -2.2975 0.9756
-3.2831 4.7370 -2.3078 0.9755
-3.4221 4.7471 -2.3433 0.9751
-3.5697 4.7630 -2.3834 0.9747
-3.7254 4.7831 -2.4276 0.9742
-3.7790 4.7906 -2.4432 0.9741
-3.8486 4.7566 -2.4500 0.9740
-3.8775 4.7322 -2.4498 0.9740
-3.9063 4.7077 -2.4495 0.9740
-3.9918 4.6330 -2.4487 0.9740
-4.0199 4.6077 -2.4485 0.9740
-4.0479 4.5823 -2.4482 0.9740
-4.0757 4.5567 -2.4480 0.9740
-4.1582 4.4788 -2.4472 0.9740
-4.2123 4.4261 -2.4466 0.9740
-4.2391 4.3994 -2.4463 0.9740
-4.2658 4.3726 -2.4461 0.9740
-4.3447 4.2913 -2.4452 0.9740
-4.4977 4.1243 -2.4435 0.9740
-4.5226 4.0959 -2.4432 0.9741
-4.5962 4.0098 -2.4423 0.9741
-4.6443 3.9517 -2.4418 0.9741
-4.6680 3.9224 -2.4415 0.9741
-4.6916 3.8930 -2.4411 0.9741
-4.7150 3.8634 -2.4408 0.9741
-4.7613 3.8039 -2.4402 0.9741
-4.8514 3.6830 -2.4390 0.9741
-4.8735 3.6525 -2.4387 0.9741
-4.9170 3.5910 -2.4380 0.9741
-4.9385 3.5601 -2.4377 0.9741
-4.9597 3.5290 -2.4374 0.9741
-4.9808 3.4978 -2.4371 0.9741
-5.0224 3.4350 -2.4364 0.9741
-5.0832 3.3399 -2.4355 0.9741
-5.1030 3.3080 -2.4351 0.9741
-5.1227 3.2759 -2.4348 0.9741
-5.1422 3.2437 -2.4345 0.9741
-5.2364 3.0811 -2.4328 0.9742
-5.2904 2.9822 -2.4318 0.9742
-5.3254 2.9157 -2.4311 0.9742
-5.3426 2.8823 -2.4308 0.9742
-5.3763 2.8152 -2.4301 0.9742
-5.3928 2.7815 -2.4297 0.9742
-5.4092 2.7477 -2.4294 0.9742
-5.4253 2.7138 -2.4290 0.9742
-5.4723 2.6115 -2.4280 0.9742
-5.4876 2.5773 -2.4276 0.9742
-5.5026 2.5429 -2.4273 0.9742
-5.5320 2.4740 -2.4265 0.9742
-5.5464 2.4393 -2.4262 0.9742
-5.5605 2.4046 -2.4258 0.9742
-5.6150 2.2650 -2.4244 0.9742
-5.6280 2.2299 -2.4240 0.9743
-5.6535 2.1595 -2.4233 0.9743
-5.6781 2.0888 -2.4226 0.9743
-5.7132 1.9821 -2.4215 0.9743
-5.7245 1.9465 -2.4211 0.9743
-5.7464 1.8750 -2.4204 0.9743
-5.7570 1.8391 -2.4200 0.9743
-5.7875 1.7312 -2.4189 0.9743
-5.7972 1.6951 -2.4185 0.9743
-5.8066 1.6590 -2.4181 0.9743
-5.8423 1.5139 -2.4166 0.9743
-5.8506 1.4775 -2.4163 0.9743
-5.8587 1.4411 -2.4159 0.9743
-5.8817 1.3316 -2.4148 0.9744
-5.8959 1.2583 -2.4140 0.9744
-5.9026 1.2216 -2.4136 0.9744
-5.9091 1.1849 -2.4132 0.9744
-5.9154 1.1481 -2.4129 0.9744
-5.9383 1.0008 -2.4113 0.9744
-5.9434 0.9639 -2.4110 0.9744
-5.9483 0.9270 -2.4106 0.9744
-5.9616 0.8161 -2.4094 0.9744
-5.9694 0.7421 -2.4087 0.9744
-5.9729 0.7051 -2.4083 0.9744
-5.9762 0.6680 -2.4079 0.9744
-5.9793 0.6309 -2.4075 0.9744
-5.9847 0.5568 -2.4067 0.9744
-5.9871 0.5197 -2.4064 0.9744
-5.9892 0.4825 -2.4060 0.9744
-5.9911 0.4454 -2.4056 0.9744
-5.9928 0.4083 -2.4052 0.9745
-5.9973 0.2598 -2.4037 0.9745
-5.9978 0.2227 -2.4033 0.9745
-5.9976 0.0742 -2.4018 0.9745
-5.8695 0.0000 -2.4010 0.9750
-5.8684 -0.0363 -2.4006 0.9750
-5.8621 -0.1813 -2.3991 0.9750
-5.8576 -0.2537 -2.3984 0.9750
-5.8550 -0.2899 -2.3980 0.9750
-5.8521 -0.3261 -2.3976 0.9750
-5.8491 -0.3622 -2.3972 0.9750
-5.8459 -0.3983 -2.3969 0.9750
-5.8424 -0.4344 -2.3965 0.9750
-5.8347 -0.5065 -2.3957 0.9750
-5.8306 -0.5424 -2.3954 0.9750
-5.8216 -0.6143 -2.3946 0.9750
-5.8065 -0.7219 -2.3935 0.9750
-5.7494 -1.0423 -2.3902 0.9751
-5.7419 -1.0777 -2.3898 0.9751
-5.7264 -1.1482 -2.3891 0.9751
-5.7183 -1.1835 -2.3887 0.9751
-5.7100 -1.2186 -2.3884 0.9751
-5.6838 -1.3237 -2.3873 0.9751
-5.6747 -1.3587 -2.3869 0.9751
-5.6653 -1.3935 -2.3865 0.9751
-5.6557 -1.4283 -2.3862 0.9751
-5.6459 -1.4630 -2.3858 0.9751
-5.5938 -1.6356 -2.3840 0.9751
-5.5828 -1.6700 -2.3837 0.9751
-5.5600 -1.7384 -2.3830 0.9751
-5.5483 -1.7725 -2.3826 0.9751
-5.5364 -1.8065 -2.3823 0.9751
-5.5121 -1.8743 -2.3816 0.9752
-5.4996 -1.9080 -2.3812 0.9752
-5.4868 -1.9417 -2.3809 0.9752
-5.4739 -1.9753 -2.3805 0.9752
-5.4608 -2.0088 -2.3802 0.9752
-5.4340 -2.0756 -2.3795 0.9752
-5.3486 -2.2738 -2.3774 0.9752
-5.3337 -2.3065 -2.3771 0.9752
-5.2877 -2.4040 -2.3761 0.9752
-5.2561 -2.4686 -2.3754 0.9752
-5.2400 -2.5007 -2.3751 0.9752
-5.2237 -2.5327 -2.3747 0.9752
-5.2072 -2.5646 -2.3744 0.9752
-5.1905 -2.5963 -2.3741 0.9752
-5.1736 -2.6280 -2.3737 0.9752
-5.1219 -2.7224 -2.3727 0.9752
-5.0864 -2.7848 -2.3721 0.9753
-5.0684 -2.8158 -2.3718 0.9753
-5.0502 -2.8467 -2.3715 0.9753
-4.9945 -2.9388 -2.3705 0.9753
-4.9756 -2.9692 -2.3702 0.9753
-4.8980 -3.0897 -2.3689 0.9753
-4.8782 -3.1196 -2.3686 0.9753
-4.7763 -3.2667 -2.3671 0.9753
-4.7343 -3.3247 -2.3665 0.9753
-4.6917 -3.3822 -2.3659 0.9753
-4.6483 -3.4391 -2.3653 0.9753
-4.6043 -3.4954 -2.3647 0.9753
-4.5596 -3.5512 -2.3641 0.9753
-4.5370 -3.5790 -2.3638 0.9753
-4.4913 -3.6339 -2.3633 0.9753
-4.4682 -3.6612 -2.3630 0.9753
-4.4449 -3.6883 -2.3627 0.9753
-4.3979 -3.7421 -2.3621 0.9754
-4.3503 -3.7953 -2.3616 0.9754
-4.2776 -3.8740 -2.3608 0.9754
-4.2531 -3.8999 -2.3605 0.9754
-4.1535 -4.0022 -2.3594 0.9754
-4.0772 -4.0772 -2.3586 0.9754
-4.0514 -4.1018 -2.3584 0.9754
-3.9995 -4.1507 -2.3579 0.9754
-3.9733 -4.1750 -2.3576 0.9754
-3.9470 -4.1990 -2.3574 0.9754
-3.8940 -4.2466 -2.3569 0.9754
-3.8672 -4.2701 -2.3566 0.9754
-3.8404 -4.2935 -2.3564 0.9754
-3.7862 -4.3398 -2.3559 0.9754
-3.7315 -4.3854 -2.3554 0.9754
-3.6762 -4.4304 -2.3549 0.9754
-3.6204 -4.4746 -2.3545 0.9754
-3.5358 -4.5397 -2.3538 0.9754
-3.4787 -4.5822 -2.3534 0.9754
-3.4500 -4.6032 -2.3531 0.9754
-3.3630 -4.6651 -2.3525 0.9755
-3.3338 -4.6854 -2.3523 0.9755
-3.3045 -4.7055 -2.3521 0.9755
-3.2158 -4.7648 -2.3514 0.9755
-3.1860 -4.7841 -2.3512 0.9755
-3.1561 -4.8033 -2.3510 0.9755
-3.1260 -4.8223 -2.3508 0.9755
-3.0959 -4.8412 -2.3506 0.9755
-3.0656 -4.8598 -2.3505 0.9755
-3.0353 -4.8783 -2.3503 0.9755
-3.0048 -4.8966 -2.3501 0.9755
-2.9742 -4.9147 -2.3499 0.9755
-2.8508 -4.9852 -2.3491 0.9755
-2.7885 -5.0193 -2.3488 0.9755
-2.7572 -5.0361 -2.3486 0.9755
-2.6311 -5.1012 -2.3479 0.9755
-2.5993 -5.1170 -2.3477 0.9755
-2.3418 -5.2365 -2.3465 0.9755
-2.2766 -5.2644 -2.3462 0.9755
-2.2438 -5.2780 -2.3461 0.9755
-2.2110 -5.2915 -2.3459 0.9755
-2.0458 -5.3558 -2.3452 0.9755
-2.0125 -5.3680 -2.3451 0.9755
-1.9791 -5.3801 -2.3450 0.9755
-1.8451 -5.4262 -2.3445 0.9755
-1.7776 -5.4481 -2.3442 0.9755
-1.7438 -5.4587 -2.3441 0.9755
-1.6760 -5.4794 -2.3439 0.9755
-1.6420 -5.4894 -2.3438 0.9755
-1.5739 -5.5088 -2.3436 0.9755
-1.5055 -5.5274 -2.3434 0.9755
-1.4712 -5.5363 -2.3433 0.9755
-1.3681 -5.5621 -2.3430 0.9755
-1.3336 -5.5702 -2.3429 0.9756
-1.2646 -5.5859 -2.3428 0.9756
-1.2299 -5.5934 -2.3427 0.9756
-1.1606 -5.6078 -2.3425 0.9756
-1.1259 -5.6147 -2.3425 0.9756
-1.0911 -5.6214 -2.3424 0.9756
-1.0563 -5.6278 -2.3423 0.9756
-0.9516 -5.6460 -2.3421 0.9756
-0.9166 -5.6516 -2.3421 0.9756
-0.8466 -5.6622 -2.3420 0.9756
-0.8116 -5.6672 -2.3419 0.9756
-0.6711 -5.6851 -2.3417 0.9756
-0.6359 -5.6890 -2.3417 0.9756
-0.6007 -5.6927 -2.3416 0.9756
-0.5655 -5.6963 -2.3416 0.9756
-0.5302 -5.6996 -2.3415 0.9756
-0.4597 -5.7055 -2.3415 0.9756
-0.4244 -5.7082 -2.3414 0.9756
-0.3538 -5.7129 -2.3414 0.9756
-0.1770 -5.7208 -2.3413 0.9756
-0.1416 -5.7217 -2.3413 0.9756
-0.1062 -5.7225 -2.3413 0.9756
-0.0354 -5.7233 -2.3412 0.9756
0.1416 -5.7217 -2.3412 0.9756
0.1769 -5.7207 -2.3413 0.9756
0.2123 -5.7196 -2.3413 0.9756
0.2830 -5.7166 -2.3413 0.9756
0.3184 -5.7147 -2.3413 0.9756
