ply
format ascii 1.0
element vertex 1524
property float32 x
property float32 y
property float32 z
property float32 I
end_header
-14.6660 -29.7784 -0.3200 0.8757
-14.4901 -30.3629 -0.3244 0.8741
-14.4003 -30.6611 -0.3266 0.8733
-14.1233 -31.5811 -0.3335 0.8708
-13.8794 -32.0953 -0.3371 0.8695
-13.8358 -32.5454 -0.3410 0.8681
-13.5335 -33.5496 -0.3488 0.8653
-13.3240 -34.2453 -0.3543 0.8633
-13.2168 -34.6014 -0.3571 0.8623
-10.7878 -29.8946 -0.3064 0.8806
-10.5544 -29.8243 -0.3050 0.8811
-10.3903 -29.9480 -0.3056 0.8809
-9.9309 -29.8097 -0.3029 0.8819
-9.7043 -29.7414 -0.3016 0.8824
-9.4795 -29.6737 -0.3003 0.8828
-9.2567 -29.6066 -0.2991 0.8833
-8.3836 -29.3436 -0.2942 0.8851
-8.1697 -29.2792 -0.2931 0.8855
-7.7468 -29.1518 -0.2908 0.8863
-7.5378 -29.0889 -0.2897 0.8867
-7.3304 -29.0264 -0.2886 0.8871
-6.7171 -28.8417 -0.2855 0.8883
-6.2747 -28.5352 -0.2817 0.8897
-6.0773 -28.4758 -0.2807 0.8901
-5.8812 -28.4167 -0.2798 0.8904
-5.4972 -28.3220 -0.2782 0.8910
-5.3006 -28.2418 -0.2770 0.8914
-4.9314 -28.1942 -0.2760 0.8918
-4.5731 -28.1959 -0.2754 0.8920
-4.1990 -28.0833 -0.2738 0.8926
-3.6460 -27.9167 -0.2714 0.8935
-3.4638 -27.8618 -0.2707 0.8938
-3.2825 -27.8072 -0.2700 0.8940
-2.7444 -27.6451 -0.2678 0.8948
-2.5669 -27.5917 -0.2672 0.8951
-2.3902 -27.5385 -0.2665 0.8953
-2.2145 -27.4855 -0.2658 0.8956
-1.6922 -27.3282 -0.2640 0.8963
-0.8373 -27.0707 -0.2611 0.8973
-0.6642 -26.8454 -0.2589 0.8981
-0.3308 -26.7450 -0.2579 0.8985
-0.0000 -26.9237 -0.2596 0.8979
0.1700 -27.4882 -0.2650 0.8959
0.5324 -28.6918 -0.2767 0.8916
0.6502 -26.2798 -0.2534 0.9002
1.1320 -26.1346 -0.2522 0.9006
1.2916 -26.0866 -0.2518 0.9008
1.4508 -26.0387 -0.2514 0.9009
1.7675 -25.9433 -0.2507 0.9012
2.0826 -25.8484 -0.2500 0.9015
2.4867 -26.7301 -0.2588 0.8982
4.7401 -47.7486 -0.4626 0.8254
5.0292 -47.6611 -0.4621 0.8255
5.6055 -47.4866 -0.4610 0.8259
6.0100 -43.9009 -0.4272 0.8376
6.2753 -43.8210 -0.4268 0.8377
6.5402 -43.7412 -0.4264 0.8378
6.8046 -43.6616 -0.4260 0.8380
7.0686 -43.5821 -0.4257 0.8381
7.7973 -44.5791 -0.4363 0.8344
8.7334 -46.5323 -0.4565 0.8275
4.9205 -25.3511 -0.2490 0.9019
5.0908 -25.3880 -0.2496 0.9016
5.2620 -25.4250 -0.2503 0.9014
5.4340 -25.4618 -0.2510 0.9011
5.6070 -25.4988 -0.2517 0.9008
6.1319 -25.6108 -0.2539 0.9000
11.5152 -45.5972 -0.4534 0.8285
12.0940 -45.5105 -0.4540 0.8283
12.3730 -45.4267 -0.4539 0.8283
12.6519 -45.3430 -0.4539 0.8284
13.2096 -45.1755 -0.4538 0.8284
7.1103 -23.7697 -0.2392 0.9055
7.6879 -25.1336 -0.2534 0.9002
7.8435 -25.0867 -0.2534 0.9002
8.3106 -24.9460 -0.2535 0.9002
8.7948 -24.8519 -0.2542 0.8999
8.9511 -24.8048 -0.2542 0.8999
9.1075 -24.7577 -0.2543 0.8999
9.4030 -24.6171 -0.2541 0.9000
9.7163 -24.5227 -0.2543 0.8999
10.0301 -24.4282 -0.2546 0.8998
10.1873 -24.3809 -0.2548 0.8997
10.3447 -24.3335 -0.2549 0.8996
10.5024 -24.2860 -0.2551 0.8996
10.2122 -22.8356 -0.2412 0.9048
11.4533 -23.9996 -0.2564 0.8991
11.6128 -23.9516 -0.2566 0.8990
9.8625 -20.0251 -0.2152 0.9146
9.9779 -19.9472 -0.2150 0.9146
12.0972 -23.8148 -0.2575 0.8987
12.2580 -23.7663 -0.2578 0.8986
12.4190 -23.7172 -0.2581 0.8984
12.5768 -23.6613 -0.2583 0.8984
12.7388 -23.6125 -0.2587 0.8982
12.9011 -23.5636 -0.2590 0.8981
13.0640 -23.5146 -0.2593 0.8980
13.9421 -24.0338 -0.2679 0.8948
13.7332 -23.3399 -0.2611 0.8973
13.8849 -23.2674 -0.2612 0.8973
14.7235 -23.0238 -0.2635 0.8964
14.8920 -22.9731 -0.2640 0.8963
15.2309 -22.8711 -0.2649 0.8959
15.3962 -22.8123 -0.2653 0.8958
15.5672 -22.7608 -0.2659 0.8956
15.7389 -22.7091 -0.2664 0.8954
15.9112 -22.6572 -0.2669 0.8952
16.0843 -22.6051 -0.2675 0.8950
16.2225 -22.5035 -0.2674 0.8950
16.4326 -22.5003 -0.2686 0.8945
16.6079 -22.4475 -0.2692 0.8943
17.1010 -22.2390 -0.2705 0.8938
17.4964 -22.1799 -0.2724 0.8931
17.6766 -22.1257 -0.2730 0.8929
18.2572 -22.0025 -0.2756 0.8919
18.4415 -21.9470 -0.2764 0.8917
18.9647 -21.7378 -0.2781 0.8910
19.1527 -21.6812 -0.2789 0.8907
19.5320 -21.5670 -0.2805 0.8901
35.3302 -38.5296 -0.5040 0.8113
35.6746 -38.4254 -0.5055 0.8108
37.0733 -38.0020 -0.5118 0.8087
37.4295 -37.8953 -0.5135 0.8081
38.1489 -37.6799 -0.5170 0.8070
38.5123 -37.5712 -0.5187 0.8064
38.8782 -37.4616 -0.5205 0.8058
22.4420 -20.3245 -0.2919 0.8859
22.5600 -19.6820 -0.2886 0.8871
22.9821 -19.5549 -0.2909 0.8863
23.1956 -19.4906 -0.2921 0.8859
23.4109 -19.4258 -0.2933 0.8854
23.6280 -19.3605 -0.2945 0.8850
25.7717 -20.3296 -0.3165 0.8769
25.6704 -19.9935 -0.3137 0.8780
25.6508 -19.7246 -0.3120 0.8786
26.5550 -19.3939 -0.3170 0.8767
26.9081 -19.3978 -0.3198 0.8757
27.1568 -19.3229 -0.3213 0.8752
27.3272 -19.1908 -0.3219 0.8750
27.6092 -19.1350 -0.3239 0.8743
29.4537 -18.5796 -0.3357 0.8700
29.7284 -18.4969 -0.3376 0.8693
28.3251 -17.3817 -0.3204 0.8755
30.2984 -18.3357 -0.3414 0.8679
30.5748 -18.2456 -0.3432 0.8673
21.4416 -12.6162 -0.2398 0.9053
21.6868 -12.4019 -0.2409 0.9049
21.8333 -12.3072 -0.2416 0.9046
21.9871 -12.2153 -0.2425 0.9043
22.2997 -12.0305 -0.2443 0.9036
22.4777 -11.9477 -0.2454 0.9032
23.0309 -11.6989 -0.2490 0.9018
23.2168 -11.6134 -0.2503 0.9014
34.5868 -17.0342 -0.3717 0.8571
28.8947 -14.0094 -0.3096 0.8795
37.4188 -16.1815 -0.3930 0.8495
48.6223 -18.5724 -0.5018 0.8120
48.3901 -17.8010 -0.4971 0.8136
42.3277 -14.9792 -0.4329 0.8356
42.5139 -14.7499 -0.4338 0.8353
42.7009 -14.5196 -0.4348 0.8349
43.0774 -14.0556 -0.4369 0.8342
44.2476 -14.1353 -0.4478 0.8304
43.7778 -13.3908 -0.4414 0.8327
44.1086 -13.1943 -0.4439 0.8318
44.6084 -13.0438 -0.4481 0.8303
45.1179 -12.8904 -0.4524 0.8289
47.8639 -13.0369 -0.4783 0.8200
48.5152 -12.8925 -0.4840 0.8181
49.4721 -12.4938 -0.4920 0.8154
50.7817 -12.1584 -0.5034 0.8115
52.0336 -11.7796 -0.5143 0.8078
49.7341 -10.9362 -0.4910 0.8157
54.7462 -10.9777 -0.5383 0.7998
57.7735 -10.1052 -0.5655 0.7909
62.0243 -9.6664 -0.6052 0.7779
61.6556 -8.4405 -0.6000 0.7796
61.5336 -8.0364 -0.5983 0.7802
61.4122 -7.6346 -0.5966 0.7807
61.1716 -6.8375 -0.5934 0.7817
60.9334 -6.0489 -0.5904 0.7827
60.5807 -4.8808 -0.5860 0.7842
60.4643 -4.4953 -0.5846 0.7846
60.3484 -4.1116 -0.5832 0.7851
60.2331 -3.7296 -0.5818 0.7855
61.4757 -3.0439 -0.5934 0.7818
62.4877 -2.7067 -0.6030 0.7786
65.7538 -1.6269 -0.6341 0.7687
66.9110 -1.2415 -0.6452 0.7651
68.1093 -0.8425 -0.6567 0.7615
69.3512 -0.4289 -0.6686 0.7577
14.7043 5.6167 -0.1518 0.9390
13.2593 5.1589 -0.1372 0.9447
10.2440 4.2062 -0.1068 0.9567
9.5154 3.9760 -0.0994 0.9596
8.2874 3.5839 -0.0871 0.9645
5.9611 2.8448 -0.0637 0.9739
5.4938 2.7057 -0.0590 0.9758
5.4704 2.7788 -0.0592 0.9758
5.4587 2.8155 -0.0592 0.9757
5.4470 2.8522 -0.0593 0.9757
5.4352 2.8890 -0.0593 0.9757
5.4116 2.9629 -0.0595 0.9756
5.3878 3.0371 -0.0596 0.9756
5.3640 3.1117 -0.0598 0.9755
5.3400 3.1867 -0.0600 0.9754
5.3159 3.2621 -0.0601 0.9754
5.2549 3.4528 -0.0606 0.9752
5.2303 3.5300 -0.0608 0.9751
5.2179 3.5687 -0.0609 0.9750
5.1929 3.6468 -0.0612 0.9749
5.1804 3.6860 -0.0613 0.9749
5.1551 3.7649 -0.0615 0.9748
5.0781 4.0058 -0.0624 0.9745
5.0650 4.0466 -0.0625 0.9744
5.0388 4.1287 -0.0628 0.9743
5.0256 4.1701 -0.0630 0.9742
4.9989 4.2535 -0.0633 0.9741
4.9584 4.3801 -0.0638 0.9739
4.9172 4.5089 -0.0643 0.9737
4.8612 4.6841 -0.0651 0.9734
4.8326 4.7732 -0.0655 0.9732
4.8182 4.8183 -0.0657 0.9731
4.7745 4.9550 -0.0663 0.9729
4.7597 5.0012 -0.0666 0.9728
4.7298 5.0946 -0.0670 0.9726
4.6996 5.1892 -0.0675 0.9724
4.6843 5.2371 -0.0677 0.9723
4.6377 5.3827 -0.0685 0.9720
4.6219 5.4319 -0.0688 0.9719
4.6060 5.4816 -0.0690 0.9718
4.5900 5.5316 -0.0693 0.9717
7.8177 9.7853 -0.1208 0.9511
7.6883 9.7464 -0.1197 0.9516
6.5441 8.5103 -0.1035 0.9580
6.5496 8.6273 -0.1044 0.9576
6.5143 8.6920 -0.1047 0.9575
6.4902 8.7722 -0.1052 0.9573
6.4411 8.9350 -0.1062 0.9569
6.3912 9.1009 -0.1072 0.9565
6.3808 9.3294 -0.1090 0.9558
6.2971 9.3304 -0.1085 0.9560
9.5513 14.5366 -0.1677 0.9328
9.3921 14.4887 -0.1665 0.9333
9.2022 14.3900 -0.1647 0.9340
8.9729 14.4213 -0.1638 0.9343
8.8217 14.3758 -0.1626 0.9348
8.5256 14.2867 -0.1604 0.9356
8.3805 14.2430 -0.1593 0.9360
8.0372 14.0544 -0.1562 0.9373
7.9167 14.0445 -0.1554 0.9375
6.7581 12.3434 -0.1357 0.9453
6.5212 12.0877 -0.1324 0.9465
6.4628 12.1587 -0.1328 0.9464
6.3724 12.1698 -0.1324 0.9465
6.0370 12.0688 -0.1301 0.9475
5.9278 12.0360 -0.1293 0.9477
5.7518 11.8632 -0.1271 0.9486
5.6840 11.9104 -0.1272 0.9486
5.3531 11.9702 -0.1264 0.9489
5.2711 11.9850 -0.1262 0.9490
5.0202 12.2266 -0.1274 0.9485
4.8699 12.2910 -0.1275 0.9485
4.6806 12.4848 -0.1285 0.9481
4.2130 11.6749 -0.1197 0.9516
3.8373 11.2853 -0.1149 0.9534
3.7658 11.3037 -0.1149 0.9535
3.7092 11.3680 -0.1153 0.9533
3.6233 11.3421 -0.1148 0.9535
3.5382 11.3165 -0.1143 0.9537
3.3700 11.2658 -0.1134 0.9541
3.0075 11.0417 -0.1103 0.9553
2.9488 11.0965 -0.1107 0.9551
2.8787 11.1092 -0.1106 0.9551
2.8087 11.1218 -0.1106 0.9552
2.7388 11.1345 -0.1105 0.9552
2.6689 11.1471 -0.1105 0.9552
2.5991 11.1597 -0.1105 0.9552
2.4168 11.3241 -0.1116 0.9547
2.3536 11.3722 -0.1120 0.9546
2.2900 11.4205 -0.1123 0.9545
2.0970 11.5672 -0.1133 0.9541
2.0319 11.6168 -0.1137 0.9539
1.9663 11.6666 -0.1141 0.9538
1.8940 11.6777 -0.1141 0.9538
1.6461 12.0246 -0.1170 0.9526
1.5060 12.1143 -0.1177 0.9523
1.3488 12.0670 -0.1171 0.9526
1.0393 11.9738 -0.1159 0.9531
0.9629 11.9507 -0.1156 0.9532
0.8868 11.9278 -0.1153 0.9533
0.8111 11.9050 -0.1150 0.9534
0.7358 11.8824 -0.1148 0.9535
0.6585 11.8184 -0.1141 0.9538
0.5839 11.7917 -0.1138 0.9539
0.4400 11.8522 -0.1143 0.9537
0.3659 11.8299 -0.1141 0.9538
0.1455 11.7635 -0.1134 0.9540
0.0726 11.7415 -0.1132 0.9541
0.0000 11.7197 -0.1130 0.9542
-0.0723 11.6979 -0.1128 0.9543
-0.1444 11.6762 -0.1126 0.9544
-0.2878 11.6330 -0.1122 0.9545
-0.4970 11.4735 -0.1107 0.9551
-0.6390 11.4684 -0.1107 0.9551
-0.9830 11.3249 -0.1096 0.9555
-1.1297 11.3795 -0.1103 0.9553
-1.1986 11.3588 -0.1101 0.9553
-1.2673 11.3380 -0.1100 0.9554
-1.4044 11.2968 -0.1098 0.9555
-1.6089 11.2352 -0.1094 0.9556
-1.6768 11.2147 -0.1093 0.9557
-1.8123 11.1739 -0.1091 0.9557
-1.9473 11.1333 -0.1090 0.9558
-2.0147 11.1130 -0.1089 0.9558
-2.0639 10.9968 -0.1079 0.9562
-2.2051 10.9968 -0.1081 0.9561
-2.2718 10.9767 -0.1081 0.9562
-2.3383 10.9567 -0.1080 0.9562
-2.7367 10.8367 -0.1078 0.9563
-2.8029 10.8167 -0.1077 0.9563
-2.8691 10.7968 -0.1077 0.9563
-2.9353 10.7769 -0.1077 0.9563
-3.0015 10.7570 -0.1077 0.9563
-3.0351 10.6231 -0.1065 0.9568
-3.1024 10.1425 -0.1023 0.9585
-3.1386 10.0386 -0.1014 0.9588
-3.2094 9.8360 -0.0998 0.9595
-3.2439 9.7371 -0.0989 0.9598
-3.2161 9.4584 -0.0963 0.9608
-3.2631 9.4052 -0.0960 0.9610
-3.3729 9.3470 -0.0958 0.9610
-3.5174 9.2086 -0.0950 0.9613
-3.5651 9.1629 -0.0948 0.9614
-3.6125 9.1176 -0.0946 0.9615
-3.6447 9.0352 -0.0939 0.9618
-3.6990 9.0090 -0.0939 0.9618
-3.8634 9.0877 -0.0952 0.9613
-3.9223 9.0700 -0.0953 0.9612
-4.0403 9.0344 -0.0954 0.9612
-4.2774 8.9630 -0.0957 0.9611
-4.3370 8.9451 -0.0958 0.9610
-4.3966 8.9271 -0.0959 0.9610
-4.3999 8.7961 -0.0948 0.9614
-4.5597 8.8405 -0.0959 0.9610
-4.8710 8.8967 -0.0978 0.9602
-5.0002 8.8706 -0.0982 0.9601
-5.2641 9.2051 -0.1022 0.9585
-5.3481 9.2192 -0.1027 0.9583
-5.6150 9.4093 -0.1056 0.9571
-5.6652 9.3613 -0.1055 0.9572
-10.6707 17.3888 -0.1967 0.9216
-10.8282 17.4031 -0.1976 0.9213
-19.3483 29.0539 -0.3365 0.8697
-6.6587 8.4412 -0.1037 0.9579
-6.6868 8.3699 -0.1033 0.9581
-48.8110 29.9530 -0.5521 0.7953
-49.3276 29.8516 -0.5559 0.7940
-49.7391 29.6820 -0.5584 0.7932
-49.5244 28.3213 -0.5500 0.7960
-48.0966 26.7209 -0.5305 0.8024
-48.5653 26.2005 -0.5320 0.8019
-48.7384 25.9061 -0.5321 0.8019
-48.2806 24.5250 -0.5221 0.8052
-48.1317 24.0761 -0.5189 0.8063
-47.6960 22.7620 -0.5095 0.8094
-47.5543 22.3343 -0.5065 0.8105
-47.4141 21.9116 -0.5036 0.8114
-47.2756 21.4938 -0.5007 0.8124
-47.0032 20.6723 -0.4951 0.8143
-46.8693 20.2684 -0.4923 0.8152
-46.7369 19.8689 -0.4896 0.8162
-46.6059 19.4738 -0.4870 0.8171
-46.3481 18.6962 -0.4818 0.8188
-46.0956 17.9347 -0.4769 0.8205
-45.9713 17.5598 -0.4745 0.8213
-45.6058 16.4573 -0.4674 0.8237
-45.4864 16.0970 -0.4652 0.8245
-45.3679 15.7401 -0.4630 0.8252
-45.0195 14.6894 -0.4566 0.8274
-44.7926 14.0047 -0.4525 0.8288
-44.5696 13.3322 -0.4485 0.8302
-44.4595 13.0002 -0.4466 0.8309
-44.1350 12.0212 -0.4410 0.8328
-43.7144 10.7526 -0.4340 0.8352
-43.6116 10.4417 -0.4323 0.8358
-43.4077 9.8269 -0.4291 0.8369
-43.3070 9.5229 -0.4275 0.8375
-43.2069 9.2212 -0.4259 0.8380
-43.1076 8.9216 -0.4244 0.8385
-41.8127 8.3843 -0.4112 0.8432
-42.9111 8.3288 -0.4214 0.8396
-42.7173 7.7443 -0.4186 0.8406
-42.4314 6.8820 -0.4144 0.8420
-42.1510 6.0362 -0.4105 0.8434
-41.9670 5.4811 -0.4080 0.8443
-41.7851 4.9325 -0.4056 0.8451
-41.6949 4.6606 -0.4045 0.8455
-41.5162 4.1214 -0.4022 0.8463
-41.3394 3.5881 -0.4001 0.8471
-41.0777 2.7987 -0.3970 0.8481
-40.8199 2.0212 -0.3940 0.8492
-40.7348 1.7645 -0.3931 0.8495
-40.6501 1.5090 -0.3922 0.8498
-40.4819 1.0016 -0.3904 0.8505
-40.3152 0.4987 -0.3887 0.8511
-40.0685 -0.2478 -0.6839 0.8519
-39.9052 -0.7404 -0.6812 0.8524
-39.8240 -0.9853 -0.6799 0.8527
-39.7431 -1.2293 -0.6786 0.8529
-39.6626 -1.4723 -0.6774 0.8532
-39.5823 -1.7146 -0.6762 0.8534
-39.4225 -2.1964 -0.6739 0.8539
-39.3430 -2.4361 -0.6728 0.8541
-39.1061 -3.1507 -0.6696 0.8547
-39.0277 -3.3874 -0.6686 0.8549
-38.8714 -3.8588 -0.6667 0.8553
-38.7936 -4.0935 -0.6658 0.8555
-38.6386 -4.5610 -0.6640 0.8559
-38.5614 -4.7939 -0.6632 0.8560
-38.3312 -5.4892 -0.6609 0.8565
-38.2547 -5.7199 -0.6602 0.8566
-38.1022 -6.1798 -0.6588 0.8569
-37.8747 -6.8663 -0.6569 0.8573
-37.7991 -7.0943 -0.6564 0.8574
-37.6483 -7.5492 -0.6553 0.8576
-37.5730 -7.7762 -0.6549 0.8577
-37.4979 -8.0028 -0.6544 0.8578
-37.4229 -8.2290 -0.6540 0.8579
-37.3480 -8.4550 -0.6535 0.8580
-32.1451 -7.9068 -0.5650 0.8760
-37.0491 -9.3564 -0.6522 0.8582
-36.9001 -9.8059 -0.6516 0.8583
-36.8257 -10.0303 -0.6514 0.8584
-36.7512 -10.2546 -0.6512 0.8584
-36.6769 -10.4788 -0.6510 0.8585
-36.5284 -10.9267 -0.6507 0.8585
-36.4542 -11.1506 -0.6506 0.8586
-36.3800 -11.3744 -0.6505 0.8586
-36.2316 -11.8219 -0.6505 0.8586
-35.2190 -12.2190 -0.6362 0.8615
-32.3855 -12.3704 -0.5917 0.8705
-32.2125 -12.5331 -0.5899 0.8709
-31.5303 -13.1746 -0.5832 0.8722
-31.3621 -13.3328 -0.5816 0.8726
-31.1948 -13.4901 -0.5801 0.8729
-31.0285 -13.6465 -0.5785 0.8732
-30.6984 -13.9569 -0.5755 0.8738
-30.5346 -14.1110 -0.5741 0.8741
-30.3716 -14.2642 -0.5727 0.8744
-30.0480 -14.5686 -0.5699 0.8749
-29.9934 -14.7719 -0.5706 0.8748
-30.4037 -15.2083 -0.5802 0.8728
-31.1379 -16.0601 -0.5980 0.8692
-30.9411 -16.4462 -0.5980 0.8692
-30.7747 -16.6027 -0.5968 0.8695
-30.6090 -16.7585 -0.5956 0.8697
-30.2796 -17.0683 -0.5932 0.8702
-29.4975 -17.6027 -0.5863 0.8716
-29.4669 -17.8325 -0.5878 0.8713
-28.9861 -18.2847 -0.5849 0.8719
-26.9570 -17.4745 -0.5483 0.8794
-26.8082 -17.6144 -0.5475 0.8796
-26.6598 -17.7539 -0.5467 0.8797
-26.0169 -18.5119 -0.5450 0.8801
-25.8704 -18.6497 -0.5443 0.8802
-25.7242 -18.7871 -0.5437 0.8804
-25.5784 -18.9243 -0.5430 0.8805
-25.4329 -19.0611 -0.5424 0.8806
-24.7657 -19.5361 -0.5384 0.8814
-24.6838 -19.7203 -0.5392 0.8813
-24.5660 -19.8764 -0.5393 0.8812
-24.2791 -20.1462 -0.5384 0.8814
-21.1889 -17.8044 -0.4724 0.8952
-20.7799 -17.6812 -0.4657 0.8966
-20.5431 -17.6998 -0.4628 0.8972
-19.9429 -17.3987 -0.4517 0.8995
-19.6196 -17.3315 -0.4468 0.9006
-18.4512 -16.9191 -0.4273 0.9047
-18.4209 -17.3155 -0.4315 0.9038
-18.2684 -17.8220 -0.4356 0.9029
-18.2169 -17.9930 -0.4370 0.9026
-18.1129 -18.3383 -0.4399 0.9020
-18.0604 -18.5127 -0.4414 0.9017
-18.0075 -18.6884 -0.4429 0.9014
-17.9543 -18.8653 -0.4445 0.9011
-17.9006 -19.0433 -0.4461 0.9007
-17.7922 -19.4034 -0.4493 0.9000
-17.5705 -20.1398 -0.4562 0.8986
-17.5140 -20.3274 -0.4579 0.8982
-17.4571 -20.5166 -0.4598 0.8978
-17.3997 -20.7072 -0.4616 0.8974
-17.3418 -20.8994 -0.4635 0.8970
-17.2835 -21.0932 -0.4654 0.8966
-17.2246 -21.2886 -0.4674 0.8962
-17.1653 -21.4856 -0.4694 0.8958
-16.9702 -21.7886 -0.4713 0.8954
-16.8484 -22.1931 -0.4755 0.8945
-16.7246 -22.9000 -0.4840 0.8928
-16.6609 -23.1116 -0.4863 0.8923
-16.5966 -23.3251 -0.4886 0.8918
-13.5094 -19.4923 -0.4048 0.9095
-16.2655 -24.4247 -0.5008 0.8892
-16.1283 -24.8803 -0.5060 0.8881
-16.0587 -25.1117 -0.5087 0.8876
-15.9882 -25.3456 -0.5115 0.8870
-15.8451 -25.8210 -0.5170 0.8859
-15.7723 -26.0627 -0.5199 0.8853
-15.6988 -26.3070 -0.5228 0.8847
-15.6244 -26.5541 -0.5258 0.8840
-15.5263 -26.7647 -0.5281 0.8836
-15.4147 -26.9550 -0.5300 0.8832
-15.3379 -27.2099 -0.5331 0.8825
-15.3265 -27.5871 -0.5386 0.8814
-15.1677 -28.1147 -0.5452 0.8800
-15.0868 -28.3835 -0.5486 0.8793
-15.0048 -28.6555 -0.5521 0.8786
-14.9219 -28.9311 -0.5556 0.8779
-14.8378 -29.2102 -0.5592 0.8772
-14.7527 -29.4929 -0.5628 0.8764
-14.4905 -30.3638 -0.5742 0.8741
-14.4007 -30.6621 -0.5782 0.8733
-14.3097 -30.9645 -0.5822 0.8724
-13.9776 -31.7813 -0.5925 0.8703
-13.8363 -32.5465 -0.6036 0.8681
-13.3244 -34.2464 -0.6272 0.8633
-13.2172 -34.6025 -0.6322 0.8623
-13.1083 -34.9644 -0.6373 0.8612
-11.0306 -29.9855 -0.5453 0.8800
-10.7887 -29.8972 -0.5425 0.8806
-10.5554 -29.8269 -0.5400 0.8811
-10.3912 -29.9507 -0.5411 0.8809
-10.1605 -29.8812 -0.5387 0.8814
-9.7051 -29.7440 -0.5340 0.8823
-9.0365 -29.5426 -0.5273 0.8837
-8.6000 -29.4111 -0.5230 0.8846
-8.3843 -29.3461 -0.5209 0.8851
-8.1704 -29.2817 -0.5188 0.8855
-7.3310 -29.0288 -0.5110 0.8871
-7.1251 -28.9668 -0.5091 0.8875
-6.9206 -28.9052 -0.5073 0.8879
-5.7004 -28.4283 -0.4948 0.8905
-4.9317 -28.1955 -0.4886 0.8918
-4.7622 -28.2550 -0.4890 0.8917
-4.5735 -28.1981 -0.4875 0.8920
-4.3858 -28.1416 -0.4861 0.8923
-4.0140 -28.0296 -0.4833 0.8929
-3.6463 -27.9189 -0.4805 0.8935
-2.9230 -27.7010 -0.4754 0.8945
-2.7446 -27.6472 -0.4742 0.8948
-2.5671 -27.5938 -0.4730 0.8951
-2.0397 -27.4349 -0.4695 0.8958
-1.6923 -27.3303 -0.4673 0.8962
-1.1771 -27.1751 -0.4642 0.8969
-0.8374 -27.0728 -0.4623 0.8973
-0.6643 -26.8474 -0.4583 0.8981
0.0000 -26.9256 -0.4595 0.8979
0.1700 -27.4903 -0.4692 0.8959
0.5324 -28.6940 -0.4898 0.8915
0.6503 -26.2817 -0.4487 0.9002
0.8114 -26.2332 -0.4479 0.9003
0.9720 -26.1848 -0.4472 0.9005
1.7677 -25.9452 -0.4438 0.9012
1.9254 -25.8976 -0.4432 0.9013
2.0827 -25.8503 -0.4426 0.9014
2.2532 -25.9602 -0.4447 0.9010
4.7404 -47.7519 -0.8190 0.8253
5.3181 -47.5770 -0.8171 0.8257
5.6059 -47.4899 -0.8161 0.8259
6.1797 -47.3162 -0.8144 0.8262
6.0104 -43.9041 -0.7563 0.8375
7.3326 -43.5059 -0.7530 0.8382
8.4519 -46.6204 -0.8086 0.8273
4.9852 -24.8613 -0.4328 0.9035
5.1314 -24.7937 -0.4321 0.9037
5.2987 -24.8279 -0.4333 0.9034
5.6363 -24.8967 -0.4357 0.9029
5.8064 -24.9313 -0.4369 0.9027
5.9775 -24.9661 -0.4381 0.9024
6.4967 -25.0712 -0.4420 0.9016
12.0950 -45.5142 -0.8038 0.8283
12.9318 -45.2629 -0.8034 0.8283
7.1108 -23.7714 -0.4235 0.9055
8.1555 -24.9947 -0.4487 0.9002
8.7954 -24.8537 -0.4500 0.8999
9.4037 -24.6188 -0.4498 0.8999
9.5603 -24.5717 -0.4500 0.8999
9.8738 -24.4772 -0.4505 0.8998
10.0308 -24.4299 -0.4507 0.8997
10.1881 -24.3826 -0.4510 0.8997
10.6610 -24.2402 -0.4520 0.8995
10.9774 -24.1449 -0.4527 0.8993
11.2950 -24.0493 -0.4535 0.8992
11.6136 -23.9533 -0.4543 0.8990
9.8626 -20.0253 -0.3810 0.9146
12.0999 -23.8202 -0.4560 0.8986
12.4199 -23.7188 -0.4569 0.8984
13.2282 -23.4672 -0.4598 0.8978
13.9409 -24.0318 -0.4742 0.8948
13.7320 -23.3379 -0.4621 0.8973
14.0516 -23.2192 -0.4632 0.8971
14.7256 -23.0271 -0.4665 0.8964
15.0647 -22.9276 -0.4682 0.8961
15.5684 -22.7625 -0.4707 0.8955
15.9124 -22.6589 -0.4726 0.8951
16.4338 -22.5019 -0.4756 0.8945
16.9621 -22.3429 -0.4788 0.8938
17.3183 -22.2356 -0.4810 0.8934
17.4977 -22.1816 -0.4822 0.8931
18.2586 -22.0042 -0.4880 0.8919
18.4429 -21.9487 -0.4893 0.8916
19.1542 -21.6829 -0.4938 0.8907
19.3433 -21.6260 -0.4952 0.8904
19.5335 -21.5687 -0.4966 0.8901
35.3330 -38.5326 -0.8923 0.8113
35.6774 -38.4284 -0.8949 0.8108
35.9572 -38.2525 -0.8960 0.8106
37.4323 -37.8981 -0.9091 0.8081
37.7908 -37.7908 -0.9121 0.8075
38.1518 -37.6828 -0.9152 0.8069
38.5152 -37.5740 -0.9183 0.8063
39.2496 -37.3541 -0.9248 0.8051
22.3357 -19.9782 -0.5114 0.8870
22.3533 -19.7465 -0.5090 0.8875
22.7721 -19.6204 -0.5130 0.8867
23.4129 -19.4275 -0.5192 0.8854
23.8489 -19.2962 -0.5236 0.8845
25.8737 -20.6710 -0.5652 0.8759
25.6695 -19.9928 -0.5553 0.8779
25.6531 -19.7263 -0.5523 0.8786
25.8901 -19.6550 -0.5548 0.8781
26.3705 -19.5104 -0.5599 0.8770
26.5574 -19.3956 -0.5613 0.8767
27.1592 -19.3246 -0.5689 0.8752
27.6118 -19.1367 -0.5734 0.8742
28.0639 -18.9406 -0.5778 0.8733
20.2243 -13.1101 -0.4113 0.9081
20.1609 -12.8926 -0.4084 0.9087
20.0854 -12.4971 -0.4037 0.9097
20.1245 -12.3494 -0.4030 0.9099
20.6315 -12.1395 -0.4086 0.9087
21.3956 -11.8867 -0.4177 0.9067
21.5939 -11.8227 -0.4202 0.9062
21.7935 -11.7574 -0.4226 0.9057
22.2008 -11.6249 -0.4277 0.9046
22.8325 -11.4211 -0.4357 0.9029
23.0516 -11.3530 -0.4385 0.9023
35.6158 -16.7273 -0.6716 0.8543
35.9488 -16.6131 -0.6758 0.8535
36.7537 -16.4364 -0.6871 0.8512
37.5905 -15.9806 -0.6971 0.8492
37.4029 -15.3574 -0.6901 0.8506
27.3591 -10.6448 -0.5010 0.8892
27.3141 -10.4332 -0.4990 0.8896
27.2048 -9.8171 -0.4936 0.8907
27.1803 -9.6187 -0.4921 0.8911
27.5417 -9.3650 -0.4965 0.8901
27.8351 -9.2731 -0.5007 0.8893
42.2859 -13.7974 -0.7591 0.8370
42.4677 -13.5667 -0.7609 0.8366
43.6168 -13.0471 -0.7770 0.8335
43.7728 -12.5061 -0.7770 0.8335
44.2767 -12.3544 -0.7845 0.8320
49.5854 -12.5224 -0.8728 0.8150
51.4419 -11.9806 -0.9014 0.8095
49.1774 -11.1330 -0.8606 0.8173
49.7413 -10.9378 -0.8693 0.8157
54.7602 -10.9805 -0.9532 0.7998
52.3960 -10.1698 -0.9110 0.8077
56.1663 -10.5416 -0.9753 0.7956
47.8990 -7.7687 -0.8282 0.8236
58.4317 -8.3677 -1.0074 0.7897
61.6547 -8.4404 -1.0621 0.7796
61.5327 -8.0363 -1.0591 0.7802
61.2907 -7.2349 -1.0533 0.7812
60.9326 -6.0488 -1.0451 0.7827
46.8704 -4.3604 -0.8034 0.8284
46.6366 -3.7574 -0.7985 0.8293
46.6704 -3.4698 -0.7987 0.8293
47.1936 -3.2154 -0.8073 0.8276
62.5019 -2.7073 -1.0677 0.7786
63.5478 -2.3590 -1.0853 0.7754
65.7695 -1.6273 -1.1228 0.7686
66.9272 -1.2419 -1.1424 0.7651
68.1261 -0.8427 -1.1628 0.7614
69.3686 -0.4290 -1.1839 0.7577
14.5526 5.5587 -0.2659 0.9396
10.1739 4.1774 -0.1877 0.9570
8.8275 3.7528 -0.1637 0.9624
8.2498 3.5676 -0.1534 0.9647
7.7387 3.4036 -0.1443 0.9667
6.9117 3.1424 -0.1296 0.9701
6.5583 3.0308 -0.1233 0.9715
6.2375 2.9295 -0.1176 0.9728
5.6773 2.7526 -0.1077 0.9751
5.4323 2.8875 -0.1050 0.9757
5.4205 2.9244 -0.1051 0.9757
5.3969 2.9984 -0.1054 0.9756
5.3850 3.0355 -0.1055 0.9756
5.3731 3.0727 -0.1056 0.9755
5.3492 3.1474 -0.1059 0.9755
5.3372 3.1850 -0.1061 0.9754
5.3131 3.2604 -0.1064 0.9754
5.3010 3.2983 -0.1066 0.9753
5.2274 3.5281 -0.1076 0.9751
5.2026 3.6057 -0.1080 0.9750
5.1901 3.6448 -0.1082 0.9749
5.1776 3.6840 -0.1085 0.9749
5.1649 3.7234 -0.1087 0.9748
5.1523 3.7629 -0.1089 0.9748
5.1396 3.8026 -0.1091 0.9747
5.1269 3.8424 -0.1093 0.9747
5.0753 4.0036 -0.1103 0.9745
5.0622 4.0443 -0.1106 0.9744
5.0491 4.0853 -0.1108 0.9744
5.0094 4.2093 -0.1117 0.9742
4.9827 4.2930 -0.1123 0.9740
4.9144 4.5063 -0.1138 0.9737
4.9005 4.5497 -0.1141 0.9736
4.8725 4.6372 -0.1148 0.9734
4.8441 4.7258 -0.1155 0.9733
4.8298 4.7705 -0.1159 0.9732
4.8154 4.8154 -0.1162 0.9731
4.8009 4.8607 -0.1166 0.9730
4.7569 4.9983 -0.1178 0.9728
4.6967 5.1861 -0.1194 0.9724
4.6814 5.2339 -0.1198 0.9723
4.6660 5.2821 -0.1203 0.9722
4.6505 5.3305 -0.1207 0.9721
4.6348 5.3794 -0.1212 0.9720
4.6191 5.4286 -0.1217 0.9719
7.6873 9.7452 -0.2118 0.9516
6.5488 8.6262 -0.1848 0.9576
6.5295 8.7122 -0.1858 0.9574
6.5053 8.7927 -0.1867 0.9572
6.4312 9.0386 -0.1893 0.9566
6.4061 9.1221 -0.1902 0.9564
6.3767 9.2007 -0.1910 0.9562
6.2970 9.3301 -0.1921 0.9560
9.6020 14.4186 -0.2957 0.9330
9.3910 14.4871 -0.2947 0.9333
9.2012 14.3884 -0.2915 0.9340
9.1151 14.4499 -0.2916 0.9339
8.8208 14.3743 -0.2878 0.9348
8.5247 14.2852 -0.2839 0.9356
7.9159 14.0430 -0.2751 0.9375
6.9371 12.4865 -0.2438 0.9445
6.4625 12.1583 -0.2350 0.9464
6.2587 12.1346 -0.2330 0.9468
6.1304 12.0684 -0.2310 0.9473
6.0364 12.0677 -0.2303 0.9475
5.6836 11.9095 -0.2252 0.9486
5.4350 11.9544 -0.2241 0.9488
5.3527 11.9693 -0.2238 0.9489
5.2707 11.9841 -0.2234 0.9490
5.1541 12.1238 -0.2248 0.9487
4.9524 12.2771 -0.2259 0.9484
4.8696 12.2903 -0.2256 0.9485
4.5892 12.4751 -0.2269 0.9482
4.0968 11.5767 -0.2096 0.9521
3.3697 11.2649 -0.2007 0.9541
3.2042 11.2151 -0.1991 0.9544
3.0836 11.0512 -0.1958 0.9551
2.9486 11.0957 -0.1959 0.9551
2.8785 11.1084 -0.1958 0.9551
2.6687 11.1463 -0.1956 0.9552
2.5989 11.1589 -0.1955 0.9552
2.5291 11.1715 -0.1955 0.9552
2.4166 11.3234 -0.1976 0.9547
2.3534 11.3714 -0.1982 0.9546
2.2260 11.4683 -0.1994 0.9543
2.1533 11.4731 -0.1992 0.9544
2.0317 11.6160 -0.2013 0.9539
1.8125 11.6301 -0.2009 0.9540
1.2707 12.0425 -0.2067 0.9527
1.0875 10.9546 -0.1879 0.9569
0.8093 11.8784 -0.2032 0.9535
0.4355 11.7314 -0.2004 0.9541
0.2921 11.8068 -0.2016 0.9539
0.2187 11.7846 -0.2012 0.9539
0.0726 11.7407 -0.2004 0.9541
-0.0723 11.6971 -0.1996 0.9543
-0.1444 11.6753 -0.1993 0.9544
-0.2162 11.6537 -0.1989 0.9544
-0.3248 10.4997 -0.1793 0.9588
-0.3944 10.6236 -0.1814 0.9584
-0.5519 11.1467 -0.1905 0.9563
-0.5858 10.5141 -0.1797 0.9587
-0.6679 10.7868 -0.1845 0.9577
-0.7545 11.0743 -0.1894 0.9566
-0.9172 11.3838 -0.1949 0.9553
-0.9829 11.3241 -0.1940 0.9555
-1.0512 11.2996 -0.1937 0.9556
-1.1296 11.3787 -0.1952 0.9553
-1.1985 11.3579 -0.1949 0.9553
-1.2673 11.3372 -0.1947 0.9554
-1.4043 11.2960 -0.1943 0.9555
-1.5408 11.2548 -0.1939 0.9556
-1.6088 11.2344 -0.1937 0.9556
-1.6767 11.2139 -0.1935 0.9557
-1.7445 11.1935 -0.1933 0.9557
-1.7938 11.0601 -0.1912 0.9562
-1.9275 11.0199 -0.1909 0.9562
-2.0145 11.1122 -0.1927 0.9558
-2.0638 10.9961 -0.1909 0.9562
-2.0040 9.9940 -0.1740 0.9600
-2.1950 10.6059 -0.1848 0.9576
-2.4047 10.9358 -0.1911 0.9562
-2.4712 10.9158 -0.1910 0.9562
-2.6039 10.8758 -0.1909 0.9562
-2.6703 10.8559 -0.1908 0.9563
-2.9351 10.7761 -0.1906 0.9563
-3.0353 10.6238 -0.1886 0.9568
-3.1538 9.8724 -0.1769 0.9594
-3.2092 9.8356 -0.1766 0.9595
-3.2628 9.4044 -0.1699 0.9610
-3.3727 9.3464 -0.1696 0.9610
-3.4693 9.2539 -0.1687 0.9612
-3.5172 9.2080 -0.1682 0.9613
-3.6123 9.1170 -0.1674 0.9615
-3.6444 9.0346 -0.1663 0.9618
-3.6988 9.0084 -0.1662 0.9618
-3.9220 9.0693 -0.1686 0.9612
-4.0881 8.9918 -0.1686 0.9613
-4.1583 8.9982 -0.1692 0.9611
-4.2177 8.9803 -0.1693 0.9611
-4.2771 8.9624 -0.1695 0.9611
-4.3367 8.9445 -0.1697 0.9610
-4.3996 8.7955 -0.1678 0.9614
-4.5593 8.8397 -0.1698 0.9610
-4.6359 8.8535 -0.1706 0.9608
-4.9503 8.9103 -0.1740 0.9600
-5.0000 8.8702 -0.1738 0.9601
-5.2633 9.2037 -0.1810 0.9585
-5.5385 9.4129 -0.1864 0.9572
-5.6147 9.4088 -0.1870 0.9571
-5.6649 9.3608 -0.1867 0.9572
-10.6219 17.0716 -0.3432 0.9227
-10.7768 17.0842 -0.3447 0.9224
-11.0910 17.1096 -0.3480 0.9217
-11.2503 17.1224 -0.3497 0.9213
-6.6202 8.3924 -0.1824 0.9581
-6.6542 8.3290 -0.1819 0.9582
-6.6871 8.2649 -0.1814 0.9584
-6.8031 8.3027 -0.1832 0.9580
-49.7120 28.8381 -0.9809 0.7946
-49.5258 28.3222 -0.9737 0.7959
-49.3789 27.8344 -0.9674 0.7971
-48.6030 26.6103 -0.9457 0.8012
-48.5308 26.1820 -0.9411 0.8020
-48.7400 25.9070 -0.9421 0.8019
-48.5854 25.4407 -0.9360 0.8030
-48.1333 24.0769 -0.9185 0.8063
-47.6975 22.7627 -0.9020 0.8094
-47.5557 22.3350 -0.8967 0.8104
-47.4156 21.9122 -0.8915 0.8114
-47.2771 21.4945 -0.8864 0.8124
-47.1401 21.0813 -0.8813 0.8134
-47.0046 20.6729 -0.8764 0.8143
-46.4777 19.0835 -0.8575 0.8179
-45.7278 16.8217 -0.8316 0.8229
-45.6071 16.4578 -0.8275 0.8237
-45.4877 16.0975 -0.8235 0.8245
-45.3692 15.7405 -0.8196 0.8252
-45.0208 14.6897 -0.8082 0.8274
-44.7938 14.0051 -0.8010 0.8288
-44.6818 13.6674 -0.7975 0.8295
-44.5708 13.3326 -0.7940 0.8302
-44.3517 12.6715 -0.7872 0.8315
-44.2435 12.3452 -0.7840 0.8321
-43.8195 11.0663 -0.7714 0.8346
-43.7156 10.7529 -0.7683 0.8352
-43.5104 10.1334 -0.7625 0.8363
-43.4089 9.8271 -0.7596 0.8369
-43.3081 9.5231 -0.7568 0.8374
-42.7184 7.7445 -0.7410 0.8406
-42.5272 7.1677 -0.7360 0.8415
-42.4325 6.8821 -0.7337 0.8420
-42.1521 6.0364 -0.7268 0.8434
-41.9680 5.4812 -0.7224 0.8442
-41.7861 4.9326 -0.7181 0.8451
-41.6960 4.6607 -0.7161 0.8455
-41.6063 4.3903 -0.7140 0.8459
-41.5172 4.1215 -0.7121 0.8463
-41.4286 3.8541 -0.7101 0.8467
-41.3404 3.5882 -0.7082 0.8470
-41.2527 3.3237 -0.7063 0.8474
-41.1655 3.0605 -0.7045 0.8478
-40.9923 2.5383 -0.7010 0.8485
-40.4829 1.0017 -0.6911 0.8504
-40.1516 0.0000 -0.9835 0.8516
-40.0695 -0.2478 -0.9815 0.8519
-39.9876 -0.4946 -0.9796 0.8521
-39.9062 -0.7404 -0.9777 0.8524
-39.8250 -0.9853 -0.9758 0.8527
-39.7441 -1.2293 -0.9740 0.8529
-39.5832 -1.7146 -0.9705 0.8534
-39.5032 -1.9559 -0.9688 0.8536
-39.4234 -2.1965 -0.9672 0.8539
-39.3439 -2.4362 -0.9656 0.8541
-39.2647 -2.6751 -0.9640 0.8543
-39.1858 -2.9133 -0.9625 0.8545
-39.1070 -3.1508 -0.9610 0.8547
-39.0286 -3.3875 -0.9596 0.8549
-38.9503 -3.6235 -0.9582 0.8551
-38.7945 -4.0936 -0.9555 0.8555
-38.6395 -4.5611 -0.9530 0.8558
-38.4855 -5.0263 -0.9507 0.8562
-38.3321 -5.4893 -0.9485 0.8565
-38.2556 -5.7200 -0.9475 0.8566
-38.1031 -6.1800 -0.9455 0.8569
-38.0271 -6.4092 -0.9446 0.8570
-37.9512 -6.6380 -0.9437 0.8571
-37.6491 -7.5494 -0.9406 0.8576
-37.5739 -7.7763 -0.9399 0.8577
-37.1992 -8.9064 -0.9369 0.8581
-37.0500 -9.3566 -0.9360 0.8582
-36.9754 -9.5815 -0.9356 0.8583
-36.9010 -9.8061 -0.9353 0.8583
-36.8266 -10.0305 -0.9349 0.8584
-36.6777 -10.4789 -0.9344 0.8584
-36.6034 -10.7030 -0.9341 0.8585
-36.5292 -10.9270 -0.9340 0.8585
-36.4550 -11.1509 -0.9338 0.8585
-36.3066 -11.5985 -0.9336 0.8586
-34.6573 -12.7492 -0.9045 0.8626
-34.4716 -12.9235 -0.9018 0.8630
-32.3874 -12.3711 -0.8492 0.8705
-32.2144 -12.5338 -0.8467 0.8708
-31.5321 -13.1754 -0.8371 0.8722
-31.3639 -13.3335 -0.8348 0.8725
-30.5363 -14.1118 -0.8240 0.8741
-30.0497 -14.5694 -0.8180 0.8749
-30.3992 -15.2060 -0.8326 0.8728
-30.8234 -15.6573 -0.8468 0.8708
-30.9726 -16.2181 -0.8564 0.8695
-30.9428 -16.4471 -0.8584 0.8692
-30.1175 -17.2232 -0.8498 0.8704
-29.8222 -17.2999 -0.8445 0.8711
-29.4991 -17.6037 -0.8415 0.8716
-29.3077 -17.9847 -0.8423 0.8715
-28.9877 -18.2857 -0.8395 0.8719
-28.8285 -18.4354 -0.8382 0.8720
-26.9585 -17.4754 -0.7869 0.8794
-26.8097 -17.6154 -0.7858 0.8795
-26.6613 -17.7549 -0.7846 0.8797
-26.4602 -18.0974 -0.7852 0.8796
-26.3125 -18.2362 -0.7842 0.8798
-26.1652 -18.3747 -0.7832 0.8799
-26.0183 -18.5129 -0.7822 0.8801
-25.8718 -18.6507 -0.7812 0.8802
-25.7256 -18.7882 -0.7803 0.8803
-25.5798 -18.9253 -0.7794 0.8805
-25.0550 -19.2664 -0.7742 0.8812
-24.9109 -19.4019 -0.7734 0.8813
-24.5673 -19.8774 -0.7741 0.8812
-21.1927 -17.8076 -0.6780 0.8952
-20.7836 -17.6843 -0.6684 0.8966
-20.5444 -17.7010 -0.6642 0.8972
-19.6229 -17.3345 -0.6413 0.9005
-18.8827 -16.8896 -0.6206 0.9036
-18.4517 -16.9195 -0.6132 0.9047
-18.4019 -17.0846 -0.6151 0.9044
-18.4213 -17.3159 -0.6193 0.9038
-18.2688 -17.8224 -0.6252 0.9029
-18.2173 -17.9934 -0.6272 0.9026
-18.1133 -18.3387 -0.6314 0.9020
-18.0608 -18.5132 -0.6335 0.9017
-17.9011 -19.0438 -0.6402 0.9007
-17.7927 -19.4039 -0.6449 0.9000
-17.7378 -19.5859 -0.6473 0.8997
-17.4575 -20.5170 -0.6599 0.8978
-17.2839 -21.0937 -0.6680 0.8966
-17.2250 -21.2891 -0.6708 0.8962
-17.1657 -21.4862 -0.6736 0.8958
-17.1059 -21.6849 -0.6765 0.8954
-16.9100 -21.9905 -0.6795 0.8949
-16.8506 -22.4834 -0.6882 0.8937
-16.7250 -22.9006 -0.6946 0.8927
-16.6613 -23.1122 -0.6979 0.8923
-13.5095 -19.4924 -0.5809 0.9095
-16.4004 -23.9789 -0.7116 0.8903
-16.3335 -24.2010 -0.7152 0.8897
-16.2659 -24.4254 -0.7188 0.8892
-16.1977 -24.6520 -0.7225 0.8887
-16.1288 -24.8810 -0.7263 0.8881
-16.0591 -25.1124 -0.7301 0.8876
-15.9887 -25.3463 -0.7341 0.8870
-15.9175 -25.5827 -0.7380 0.8864
-15.8455 -25.8217 -0.7421 0.8858
-15.7728 -26.0634 -0.7462 0.8852
-15.6992 -26.3077 -0.7504 0.8846
-15.5279 -26.7675 -0.7580 0.8835
-15.2480 -27.8501 -0.7777 0.8807
-15.1681 -28.1156 -0.7825 0.8800
-15.0053 -28.6564 -0.7923 0.8786
-14.8383 -29.2110 -0.8025 0.8771
-14.7532 -29.4938 -0.8078 0.8764
-14.6669 -29.7802 -0.8131 0.8756
-14.5795 -30.0705 -0.8186 0.8748
-14.4909 -30.3648 -0.8241 0.8740
-14.3101 -30.9654 -0.8356 0.8724
-14.2178 -31.2721 -0.8415 0.8716
-14.1242 -31.5831 -0.8475 0.8707
-13.9780 -31.7823 -0.8505 0.8703
-13.8803 -32.0973 -0.8566 0.8694
-13.7374 -32.8772 -0.8728 0.8671
-13.6367 -33.2120 -0.8794 0.8662
-13.3249 -34.2475 -0.9001 0.8633
-13.1087 -34.9656 -0.9147 0.8612
-10.5563 -29.8295 -0.7751 0.8811
-10.3921 -29.9533 -0.7766 0.8809
-10.1613 -29.8838 -0.7732 0.8814
-9.9327 -29.8149 -0.7698 0.8818
-9.4812 -29.6788 -0.7632 0.8828
-9.2583 -29.6117 -0.7600 0.8833
-9.0373 -29.5451 -0.7568 0.8837
-8.6007 -29.4136 -0.7507 0.8846
-8.3850 -29.3486 -0.7477 0.8850
-8.1711 -29.2841 -0.7447 0.8855
-7.9588 -29.2202 -0.7418 0.8859
-7.1256 -28.9691 -0.7307 0.8875
-6.7182 -28.8464 -0.7255 0.8882
-6.5167 -28.7857 -0.7229 0.8886
-6.0782 -28.4804 -0.7133 0.8900
-5.7008 -28.4303 -0.7102 0.8905
-5.1104 -28.1888 -0.7017 0.8917
-4.9319 -28.1968 -0.7012 0.8918
-3.8299 -27.9763 -0.6917 0.8932
-3.2830 -27.8115 -0.6860 0.8940
-3.1026 -27.7572 -0.6841 0.8943
-1.8658 -27.3846 -0.6723 0.8960
-1.5200 -27.2804 -0.6693 0.8964
-1.3482 -27.2287 -0.6678 0.8967
-1.1772 -27.1771 -0.6663 0.8969
-0.8375 -27.0748 -0.6635 0.8973
-0.6643 -26.8494 -0.6579 0.8981
-0.4973 -26.7991 -0.6566 0.8983
-0.3309 -26.7490 -0.6553 0.8985
-0.1654 -26.7491 -0.6552 0.8985
-0.0000 -26.9275 -0.6596 0.8979
0.1700 -27.4923 -0.6734 0.8958
0.3473 -28.0813 -0.6879 0.8937
0.6503 -26.2837 -0.6440 0.9001
0.8115 -26.2351 -0.6429 0.9003
1.1322 -26.1385 -0.6409 0.9006
1.7678 -25.9471 -0.6370 0.9012
2.0829 -25.8521 -0.6353 0.9014
2.2539 -25.9684 -0.6385 0.9010
4.7408 -47.7552 -1.1755 0.8253
5.3184 -47.5803 -1.1727 0.8257
5.6063 -47.4932 -1.1714 0.8258
5.8935 -47.4062 -1.1702 0.8260
6.1801 -47.3194 -1.1689 0.8262
6.0108 -43.9073 -1.0855 0.8375
6.8056 -43.6679 -1.0825 0.8379
7.0696 -43.5884 -1.0816 0.8380
7.8058 -44.6273 -1.1097 0.8342
8.4524 -46.6236 -1.1607 0.8273
4.8727 -25.1048 -0.6264 0.9027
5.5673 -24.5920 -0.6176 0.9040
6.0786 -24.7124 -0.6234 0.9032
6.2512 -24.7530 -0.6254 0.9029
6.4249 -24.7939 -0.6274 0.9026
12.3750 -45.4341 -1.1534 0.8283
12.9329 -45.2665 -1.1532 0.8283
13.2117 -45.1828 -1.1531 0.8283
7.1113 -23.7731 -0.6078 0.9055
7.8446 -25.0902 -0.6439 0.9002
8.1560 -24.9965 -0.6441 0.9001
8.3118 -24.9496 -0.6442 0.9001
8.4519 -24.8565 -0.6431 0.9003
8.9165 -24.7090 -0.6434 0.9002
9.0723 -24.6620 -0.6437 0.9002
9.7176 -24.5262 -0.6462 0.8998
9.8745 -24.4790 -0.6466 0.8998
10.0096 -24.3783 -0.6455 0.8999
10.1665 -24.3310 -0.6459 0.8999
10.3236 -24.2837 -0.6463 0.8998
10.2137 -22.8389 -0.6128 0.9047
10.9782 -24.1466 -0.6497 0.8993
11.2958 -24.0510 -0.6509 0.8991
11.6145 -23.9551 -0.6521 0.8990
9.8627 -20.0255 -0.5468 0.9146
9.9786 -19.9487 -0.5464 0.9146
12.1027 -23.8256 -0.6546 0.8986
12.2636 -23.7771 -0.6553 0.8985
12.7406 -23.6160 -0.6573 0.8982
12.8676 -22.1817 -0.6281 0.9025
13.6147 -22.8146 -0.6508 0.8992
13.4246 -22.1831 -0.6351 0.9015
13.4223 -21.8728 -0.6286 0.9024
14.8990 -22.9838 -0.6709 0.8962
15.0682 -22.9329 -0.6721 0.8960
15.2380 -22.8818 -0.6734 0.8958
15.4000 -22.8179 -0.6743 0.8957
15.5695 -22.7642 -0.6756 0.8955
15.9136 -22.6606 -0.6783 0.8951
16.0867 -22.6085 -0.6797 0.8949
16.3991 -22.4545 -0.6811 0.8947
16.5741 -22.4018 -0.6826 0.8945
16.5216 -20.9443 -0.6534 0.8988
16.8629 -20.8415 -0.6567 0.8983
17.0349 -20.7898 -0.6584 0.8980
17.7316 -20.5800 -0.6654 0.8970
17.9082 -20.5269 -0.6673 0.8967
18.0858 -20.4734 -0.6691 0.8965
18.9892 -20.2014 -0.6791 0.8950
36.7249 -38.1135 -1.2965 0.8091
37.4351 -37.9009 -1.3049 0.8080
37.7936 -37.7936 -1.3092 0.8075
38.1546 -37.6856 -1.3136 0.8069
38.5181 -37.5768 -1.3181 0.8063
39.6236 -37.2459 -1.3321 0.8045
22.5419 -20.6701 -0.7492 0.8848
22.3330 -19.9758 -0.7339 0.8870
22.5638 -19.6853 -0.7335 0.8871
22.9860 -19.5582 -0.7393 0.8862
23.1996 -19.4939 -0.7423 0.8858
23.6320 -19.3638 -0.7484 0.8849
25.8728 -20.6703 -0.8112 0.8759
25.7698 -20.3282 -0.8040 0.8769
25.6553 -19.7281 -0.7927 0.8785
25.8924 -19.6567 -0.7963 0.8780
25.2888 -18.4691 -0.7671 0.8822
27.3612 -19.2146 -0.8190 0.8748
26.1180 -18.1015 -0.7784 0.8806
20.2412 -13.4795 -0.5957 0.9073
20.0856 -13.0202 -0.5863 0.9087
19.9761 -12.6011 -0.5785 0.9098
20.5884 -12.1142 -0.5851 0.9088
20.7778 -12.0532 -0.5884 0.9084
20.9357 -11.9724 -0.5907 0.9080
21.1700 -11.9333 -0.5953 0.9073
21.7625 -11.7407 -0.6057 0.9058
21.9736 -11.6797 -0.6095 0.9052
22.3829 -11.5445 -0.6169 0.9041
22.5976 -11.4789 -0.6208 0.9036
22.8117 -11.4107 -0.6248 0.9030
23.2377 -11.2667 -0.6326 0.9018
28.9466 -13.8142 -0.7856 0.8796
35.6196 -16.7291 -0.9639 0.8543
34.2921 -15.5908 -0.9227 0.8601
34.6673 -15.5034 -0.9302 0.8590
37.4270 -16.1851 -0.9988 0.8495
37.6682 -16.0136 -1.0026 0.8489
38.4928 -15.8050 -1.0193 0.8466
26.9168 -10.8579 -0.7109 0.8904
26.8547 -10.6402 -0.7076 0.8909
26.7226 -10.2073 -0.7007 0.8918
41.7823 -15.0775 -1.0880 0.8372
41.7474 -14.4840 -1.0824 0.8379
28.0916 -9.1659 -0.7238 0.8885
44.1408 -13.8010 -1.1328 0.8311
43.6157 -13.0468 -1.1151 0.8335
44.2826 -12.3561 -1.1261 0.8320
49.5922 -12.5241 -1.2529 0.8149
50.1879 -12.3449 -1.2660 0.8132
47.9976 -11.4918 -1.2089 0.8208
51.4263 -11.9770 -1.2934 0.8096
49.7486 -10.9394 -1.2477 0.8156
54.7427 -10.9770 -1.3676 0.7998
52.3948 -10.1696 -1.3074 0.8077
57.6832 -10.0894 -1.4344 0.7911
58.4654 -9.8540 -1.4523 0.7888
47.8578 -7.7620 -1.1876 0.8237
48.1165 -7.4989 -1.1928 0.8230
57.5310 -8.6021 -1.4249 0.7923
61.6539 -8.4403 -1.5243 0.7796
61.1699 -6.8374 -1.5077 0.7817
46.1700 -4.5834 -1.1365 0.8306
45.9992 -3.9925 -1.1310 0.8313
45.9078 -3.6987 -1.1282 0.8317
61.5033 -3.0452 -1.5084 0.7816
63.5625 -2.3595 -1.5580 0.7753
66.9435 -1.2421 -1.6401 0.7650
14.4142 5.5059 -0.3780 0.9401
13.0286 5.0692 -0.3424 0.9456
10.9261 4.4074 -0.2886 0.9540
10.1047 4.1490 -0.2676 0.9572
8.7751 3.7305 -0.2336 0.9626
7.7122 3.3919 -0.2064 0.9669
6.8904 3.1327 -0.1854 0.9702
6.5390 3.0219 -0.1764 0.9716
6.2201 2.9213 -0.1683 0.9729
5.4764 2.7394 -0.1500 0.9758
5.4530 2.8125 -0.1503 0.9757
5.4177 2.9228 -0.1508 0.9757
5.4059 2.9597 -0.1510 0.9756
5.3940 2.9968 -0.1511 0.9756
5.3822 3.0339 -0.1513 0.9756
5.3703 3.0711 -0.1515 0.9756
5.3583 3.1084 -0.1517 0.9755
5.3463 3.1458 -0.1519 0.9755
5.3223 3.2209 -0.1524 0.9754
5.2981 3.2965 -0.1528 0.9753
5.2860 3.3345 -0.1531 0.9753
5.2493 3.4491 -0.1539 0.9752
5.2246 3.5261 -0.1544 0.9751
5.1998 3.6038 -0.1550 0.9750
5.1873 3.6428 -0.1553 0.9750
5.1495 3.7608 -0.1562 0.9748
5.1241 3.8403 -0.1569 0.9747
5.1112 3.8803 -0.1572 0.9746
5.0725 4.0014 -0.1583 0.9745
5.0463 4.0830 -0.1590 0.9744
5.0332 4.1241 -0.1594 0.9743
5.0066 4.2070 -0.1602 0.9742
4.9798 4.2906 -0.1610 0.9740
4.9391 4.4178 -0.1623 0.9738
4.9116 4.5037 -0.1632 0.9737
4.8556 4.6787 -0.1652 0.9734
4.8270 4.7677 -0.1662 0.9732
4.7981 4.8579 -0.1672 0.9730
4.7242 5.0885 -0.1701 0.9726
4.6939 5.1830 -0.1713 0.9724
4.6786 5.2307 -0.1719 0.9723
4.6320 5.3761 -0.1738 0.9720
4.6004 5.4749 -0.1752 0.9718
4.5844 5.5248 -0.1759 0.9717
4.5682 5.5752 -0.1766 0.9716
7.6864 9.7439 -0.3040 0.9516
6.6263 8.5077 -0.2641 0.9578
6.5480 8.6252 -0.2653 0.9576
6.5294 8.7120 -0.2667 0.9574
6.5051 8.7925 -0.2679 0.9572
6.4560 8.9556 -0.2704 0.9568
6.4059 9.1219 -0.2730 0.9564
6.3793 9.3273 -0.2768 0.9558
6.2968 9.3299 -0.2757 0.9560
9.2001 14.3867 -0.4183 0.9340
8.1788 13.1451 -0.3792 0.9399
7.9394 13.4934 -0.3835 0.9393
7.9010 13.6199 -0.3857 0.9389
7.8620 13.7480 -0.3879 0.9386
7.8226 13.8776 -0.3902 0.9382
6.7556 12.3390 -0.3446 0.9453
6.5197 12.0849 -0.3363 0.9465
6.3904 12.0225 -0.3335 0.9470
5.8482 11.8743 -0.3242 0.9484
5.6000 11.9236 -0.3227 0.9487
5.5172 11.9386 -0.3221 0.9487
5.4346 11.9535 -0.3216 0.9488
5.2703 11.9832 -0.3207 0.9490
4.9598 12.0795 -0.3199 0.9491
4.8165 12.1564 -0.3203 0.9490
4.6896 12.2774 -0.3219 0.9488
3.9760 11.4601 -0.2971 0.9526
3.7440 11.2385 -0.2902 0.9537
3.6526 11.1944 -0.2884 0.9540
3.2373 11.0713 -0.2825 0.9549
3.1601 11.0608 -0.2818 0.9550
2.9484 11.0949 -0.2812 0.9551
2.8783 11.1076 -0.2811 0.9551
2.8083 11.1202 -0.2809 0.9551
2.5987 11.1581 -0.2806 0.9552
2.4520 11.1508 -0.2797 0.9553
2.3977 11.2346 -0.2814 0.9551
2.3302 11.2593 -0.2816 0.9550
2.1264 11.3297 -0.2824 0.9549
1.9999 11.4337 -0.2843 0.9546
1.7618 11.7831 -0.2918 0.9534
1.7044 11.9021 -0.2945 0.9530
1.5851 12.1363 -0.2998 0.9522
1.5058 12.1124 -0.2990 0.9523
1.3486 12.0651 -0.2974 0.9526
1.0393 11.1718 -0.2748 0.9561
1.0391 11.9719 -0.2944 0.9531
0.8110 11.9032 -0.2922 0.9534
0.7334 11.8435 -0.2907 0.9536
0.3660 11.8329 -0.2900 0.9537
0.2922 11.8104 -0.2894 0.9538
0.2187 11.7881 -0.2888 0.9539
0.1455 11.7634 -0.2882 0.9540
0.0726 11.7398 -0.2876 0.9541
0.0000 11.7218 -0.2871 0.9542
-0.0724 11.6998 -0.2866 0.9543
-0.2163 11.6562 -0.2856 0.9544
-0.3247 10.4989 -0.2573 0.9588
-0.4969 11.4718 -0.2813 0.9551
-0.5688 11.4878 -0.2817 0.9550
-0.8478 11.4038 -0.2801 0.9553
-1.3359 11.3172 -0.2791 0.9554
-1.4044 11.2965 -0.2788 0.9555
-1.6087 11.2336 -0.2780 0.9556
-1.6768 11.2142 -0.2777 0.9556
-2.0144 11.1114 -0.2766 0.9558
-2.0636 10.9952 -0.2740 0.9562
-2.1309 10.9787 -0.2739 0.9562
-2.3380 10.9551 -0.2744 0.9562
-2.4045 10.9351 -0.2743 0.9562
-2.4710 10.9150 -0.2741 0.9562
-2.6701 10.8551 -0.2738 0.9563
-2.8025 10.8152 -0.2737 0.9563
-2.9349 10.7754 -0.2736 0.9563
-3.0010 10.7554 -0.2735 0.9563
-3.0355 10.6245 -0.2707 0.9568
-3.0473 10.1873 -0.2605 0.9583
-3.1021 10.1416 -0.2598 0.9585
-3.1384 10.0378 -0.2576 0.9588
-3.2158 9.4575 -0.2447 0.9608
-3.5170 9.2075 -0.2414 0.9613
-3.6121 9.1165 -0.2402 0.9615
-3.6442 9.0340 -0.2386 0.9618
-3.8628 9.0864 -0.2418 0.9613
-3.9217 9.0687 -0.2420 0.9612
-3.9806 9.0509 -0.2422 0.9612
-4.0397 9.0332 -0.2424 0.9612
-4.1580 8.9975 -0.2428 0.9611
-4.2174 8.9796 -0.2430 0.9611
-4.2768 8.9617 -0.2432 0.9610
-4.3363 8.9438 -0.2435 0.9610
-4.7911 8.8808 -0.2472 0.9604
-4.8701 8.8950 -0.2484 0.9602
-4.9998 8.8698 -0.2494 0.9601
-5.4779 9.1795 -0.2618 0.9581
-10.5856 17.0133 -0.4908 0.9230
-10.7421 17.0290 -0.4932 0.9226
-11.0595 17.0609 -0.4980 0.9219
-11.2205 17.0770 -0.5005 0.9215
-11.5262 17.3081 -0.5094 0.9202
-6.6199 8.3920 -0.2618 0.9581
-6.6540 8.3287 -0.2611 0.9582
-6.8023 8.3017 -0.2629 0.9580
-6.9328 8.3550 -0.2659 0.9575
-48.8033 29.9482 -1.4026 0.7952
-49.7377 29.6811 -1.4188 0.7931
-49.7137 28.8390 -1.4078 0.7946
-49.5273 28.3230 -1.3975 0.7959
-48.5728 26.5938 -1.3564 0.8013
-48.5870 25.4415 -1.3434 0.8030
-48.4344 24.9812 -1.3349 0.8041
-48.2836 24.5265 -1.3265 0.8052
-47.6990 22.7634 -1.2946 0.8094
-47.5572 22.3356 -1.2870 0.8104
-47.4170 21.9129 -1.2795 0.8114
-47.2785 21.4951 -1.2722 0.8124
-47.1415 21.0820 -1.2649 0.8133
-47.0061 20.6735 -1.2578 0.8143
-46.8721 20.2696 -1.2509 0.8152
-46.7397 19.8701 -1.2440 0.8161
-46.4790 19.0840 -1.2307 0.8179
-46.3508 18.6973 -1.2243 0.8187
-46.2239 18.3146 -1.2179 0.8196
-45.9740 17.5608 -1.2055 0.8213
-45.7291 16.8222 -1.1935 0.8229
-45.6084 16.4583 -1.1877 0.8237
-45.3705 15.7410 -1.1763 0.8252
-45.2532 15.3875 -1.1708 0.8259
-45.0221 14.6902 -1.1600 0.8274
-44.9080 14.3463 -1.1548 0.8281
-44.7950 14.0055 -1.1496 0.8288
-44.5721 13.3329 -1.1396 0.8301
-44.4620 13.0010 -1.1347 0.8308
-44.3529 12.6719 -1.1299 0.8315
-44.1374 12.0219 -1.1205 0.8327
-43.8206 11.0666 -1.1071 0.8346
-43.7167 10.7532 -1.1028 0.8352
-43.6139 10.4423 -1.0985 0.8357
-43.5116 10.1337 -1.0943 0.8363
-41.8120 8.3842 -1.0446 0.8431
-42.8161 8.0360 -1.0671 0.8400
-42.7195 7.7446 -1.0635 0.8405
-42.5282 7.1679 -1.0564 0.8415
-42.4336 6.8823 -1.0530 0.8420
-42.3395 6.5986 -1.0496 0.8424
-42.2460 6.3167 -1.0463 0.8429
-42.0608 5.7581 -1.0399 0.8438
-41.9691 5.4813 -1.0368 0.8442
-41.8778 5.2062 -1.0337 0.8446
-41.6970 4.6608 -1.0277 0.8455
-41.6074 4.3905 -1.0248 0.8459
-41.5182 4.1216 -1.0220 0.8463
-41.3414 3.5883 -1.0165 0.8470
-41.2537 3.3238 -1.0138 0.8474
-40.9074 2.2792 -1.0036 0.8488
-40.7368 1.7646 -0.9988 0.8495
-40.4838 1.0017 -0.9919 0.8504
-40.4003 0.7496 -0.9898 0.8507
-40.3171 0.4987 -0.9876 0.8510
-40.2343 0.2488 -0.9856 0.8513
-40.1526 0.0000 -1.2819 0.8516
-40.0704 -0.2478 -1.2793 0.8518
-39.9071 -0.7404 -1.2743 0.8524
-39.7450 -1.2293 -1.2695 0.8529
-39.5841 -1.7146 -1.2649 0.8534
-39.5041 -1.9560 -1.2627 0.8536
-39.2656 -2.6752 -1.2565 0.8543
-39.1867 -2.9134 -1.2545 0.8545
-39.1080 -3.1508 -1.2526 0.8547
-38.9512 -3.6236 -1.2489 0.8551
-38.7954 -4.0937 -1.2454 0.8555
-38.7178 -4.3278 -1.2438 0.8556
-38.6404 -4.5612 -1.2422 0.8558
-38.5632 -4.7941 -1.2406 0.8560
-38.3329 -5.4895 -1.2363 0.8564
-38.1801 -5.9504 -1.2336 0.8567
-38.0280 -6.4094 -1.2312 0.8570
-37.8008 -7.0947 -1.2279 0.8573
-37.7253 -7.3223 -1.2269 0.8574
-37.6500 -7.5496 -1.2259 0.8575
-37.5747 -7.7765 -1.2250 0.8576
-37.4996 -8.0031 -1.2242 0.8577
-37.4246 -8.2294 -1.2233 0.8578
-37.2001 -8.9066 -1.2212 0.8581
-32.1435 -7.9064 -1.0568 0.8759
-36.9763 -9.5817 -1.2195 0.8582
-36.8274 -10.0308 -1.2186 0.8583
-36.7529 -10.2550 -1.2182 0.8584
-36.6043 -10.7033 -1.2175 0.8585
-36.5300 -10.9272 -1.2173 0.8585
-36.3074 -11.5987 -1.2168 0.8585
-36.2332 -11.8224 -1.2168 0.8585
-35.6053 -11.8617 -1.1981 0.8605
-35.4137 -12.0417 -1.1942 0.8610
-34.8461 -12.5746 -1.1827 0.8622
-34.6593 -12.7500 -1.1790 0.8626
-31.7031 -13.0171 -1.0941 0.8718
-31.5340 -13.1762 -1.0911 0.8722
-31.3658 -13.3343 -1.0881 0.8725
-31.1985 -13.4916 -1.0852 0.8728
-31.0321 -13.6481 -1.0823 0.8731
-30.8666 -13.8037 -1.0795 0.8734
-30.5381 -14.1126 -1.0740 0.8740
-30.3751 -14.2659 -1.0714 0.8743
-30.2128 -14.4184 -1.0688 0.8746
-30.8188 -15.6549 -1.1036 0.8708
-30.9446 -16.4480 -1.1188 0.8691
-30.7782 -16.6045 -1.1165 0.8694
-30.6124 -16.7604 -1.1142 0.8696
-30.4474 -16.9156 -1.1120 0.8699
-30.2830 -17.0702 -1.1098 0.8701
-30.1192 -17.2242 -1.1077 0.8704
-29.6620 -17.4530 -1.0987 0.8713
-29.5008 -17.6047 -1.0968 0.8715
-29.4702 -17.8345 -1.0997 0.8712
-28.8300 -18.4365 -1.0925 0.8720
-28.6713 -18.5857 -1.0908 0.8722
-26.4616 -18.0984 -1.0235 0.8796
-25.8732 -18.6517 -1.0183 0.8802
-25.7270 -18.7892 -1.0171 0.8803
-25.4356 -19.0632 -1.0148 0.8805
-25.0563 -19.2674 -1.0091 0.8812
-24.9122 -19.4030 -1.0081 0.8813
-24.7684 -19.5382 -1.0071 0.8814
-24.6660 -19.7061 -1.0079 0.8813
-24.4251 -20.0135 -1.0081 0.8813
-21.1965 -17.8108 -0.8839 0.8951
-20.7873 -17.6874 -0.8714 0.8965
-20.1717 -17.5983 -0.8546 0.8984
-18.8859 -16.8925 -0.8089 0.9036
-18.4521 -16.9198 -0.7993 0.9047
-18.3712 -17.4840 -0.8097 0.9035
-18.2177 -17.9938 -0.8175 0.9026
-18.1138 -18.3392 -0.8229 0.9020
-18.0084 -18.6893 -0.8286 0.9013
-17.9551 -18.8661 -0.8315 0.9010
-17.9015 -19.0442 -0.8344 0.9007
-17.7931 -19.4043 -0.8405 0.9000
-17.6831 -19.7697 -0.8468 0.8993
-17.5149 -20.3284 -0.8567 0.8982
-17.4005 -20.7082 -0.8635 0.8974
-17.3427 -20.9004 -0.8671 0.8970
-17.2255 -21.2896 -0.8743 0.8962
-17.1661 -21.4867 -0.8780 0.8958
-16.7254 -22.9012 -0.9054 0.8927
-16.2664 -24.4260 -0.9369 0.8892
-16.1982 -24.6526 -0.9417 0.8886
-16.1292 -24.8817 -0.9467 0.8881
-16.0595 -25.1131 -0.9517 0.8875
-15.8460 -25.8224 -0.9672 0.8858
-15.7732 -26.0641 -0.9726 0.8852
-15.4155 -26.9565 -0.9914 0.8831
-15.3388 -27.2114 -0.9972 0.8825
-15.3274 -27.5887 -1.0076 0.8813
-15.2484 -27.8509 -1.0137 0.8807
-15.1685 -28.1164 -1.0199 0.8800
-15.0876 -28.3851 -1.0263 0.8793
-14.9227 -28.9328 -1.0393 0.8778
-14.5800 -30.0714 -1.0669 0.8748
-14.4914 -30.3657 -1.0742 0.8740
-14.4016 -30.6639 -1.0816 0.8732
-14.2182 -31.2730 -1.0967 0.8715
-14.1246 -31.5841 -1.1046 0.8707
-13.8808 -32.0983 -1.1165 0.8694
-13.4309 -33.8980 -1.1641 0.8642
-13.3253 -34.2487 -1.1732 0.8632
-13.2181 -34.6048 -1.1826 0.8622
-10.7906 -29.9025 -1.0149 0.8805
-10.3930 -29.9559 -1.0123 0.8808
-10.1622 -29.8864 -1.0078 0.8813
-9.9335 -29.8175 -1.0034 0.8818
-9.7068 -29.7491 -0.9990 0.8823
-9.4820 -29.6814 -0.9948 0.8828
-9.0381 -29.5476 -0.9865 0.8837
-8.8189 -29.4816 -0.9824 0.8841
-8.6015 -29.4161 -0.9784 0.8846
-8.1718 -29.2866 -0.9707 0.8854
-7.7488 -29.1591 -0.9632 0.8863
-7.1262 -28.9715 -0.9525 0.8875
-6.9218 -28.9099 -0.9490 0.8878
-6.2762 -28.5422 -0.9330 0.8896
-6.0787 -28.4827 -0.9298 0.8900
-5.8826 -28.4236 -0.9267 0.8903
-5.7012 -28.4323 -0.9258 0.8904
-5.3019 -28.2486 -0.9176 0.8913
-4.7630 -28.2595 -0.9149 0.8916
-3.4646 -27.8683 -0.8966 0.8937
-2.5674 -27.5980 -0.8849 0.8950
-2.3908 -27.5448 -0.8827 0.8953
-2.2150 -27.4918 -0.8805 0.8955
-2.0400 -27.4391 -0.8784 0.8957
-1.3483 -27.2307 -0.8704 0.8966
-1.1773 -27.1792 -0.8685 0.8968
-1.0071 -27.1279 -0.8667 0.8971
-0.8375 -27.0768 -0.8649 0.8973
-0.6644 -26.8514 -0.8575 0.8981
-0.4973 -26.8011 -0.8558 0.8983
-0.0000 -26.9294 -0.8597 0.8978
0.3474 -28.0833 -0.8966 0.8937
0.5325 -28.6983 -0.9164 0.8915
0.8115 -26.2370 -0.8380 0.9003
0.9722 -26.1886 -0.8367 0.9004
1.4511 -26.0444 -0.8328 0.9009
