ply
format ascii 1.0
element vertex 1548
property float32 x
property float32 y
property float32 z
property float32 I
end_header
-49.1237 4.8766 0.9903 0.8208
-43.3805 3.4951 0.8730 0.8402
-43.2534 3.2158 0.8701 0.8407
-39.4410 2.4422 0.7927 0.8538
-42.6134 1.8459 0.8556 0.8431
-42.4879 1.5772 0.8529 0.8436
-42.3632 1.3103 0.8502 0.8440
-42.2393 1.0451 0.8476 0.8445
-42.1161 0.7814 0.8450 0.8449
-41.9937 0.5194 0.8425 0.8453
-41.8694 -0.0000 0.5290 0.8458
-41.5662 -0.2571 0.5251 0.8468
-41.1588 -0.7637 0.5201 0.8482
-43.5634 -1.8871 0.5509 0.8399
-39.3058 -2.1900 0.4973 0.8543
-39.1950 -2.4270 0.4961 0.8546
-39.0848 -2.6629 0.4949 0.8549
-38.8793 -3.1325 0.4928 0.8555
-38.7706 -3.3652 0.4917 0.8558
-38.6491 -3.5956 0.4904 0.8562
-38.5414 -3.8261 0.4893 0.8565
-37.8128 -5.4150 0.4826 0.8583
-37.7083 -5.6382 0.4817 0.8585
-37.6041 -5.8606 0.4808 0.8588
-37.4588 -6.0755 0.4794 0.8592
-37.3501 -6.2951 0.4785 0.8594
-37.2417 -6.5140 0.4776 0.8596
-36.9882 -7.1792 0.4760 0.8601
-36.6850 -7.8292 0.4739 0.8607
-36.5844 -8.0446 0.4732 0.8608
-36.4840 -8.2595 0.4726 0.8610
-36.3838 -8.4736 0.4720 0.8612
-36.1839 -8.9003 0.4708 0.8615
-35.9723 -9.0845 0.4687 0.8621
-35.5797 -10.1653 0.4675 0.8624
-36.0035 -10.7697 0.4748 0.8604
-37.6441 -11.5146 0.4973 0.8543
-39.2953 -12.2859 0.5201 0.8481
-38.9060 -13.4981 0.5203 0.8481
-38.5814 -14.1928 0.5194 0.8484
-38.2579 -14.8853 0.5186 0.8486
-38.1502 -15.1157 0.5184 0.8486
-38.0427 -15.3459 0.5182 0.8487
-37.9352 -15.5760 0.5181 0.8487
-35.9644 -15.2893 0.4937 0.8553
-35.3621 -16.6081 0.4936 0.8553
-35.2598 -16.8270 0.4936 0.8553
-34.9529 -17.4839 0.4937 0.8553
-29.1960 -15.0585 0.4150 0.8769
-28.8221 -15.3199 0.4124 0.8776
-28.0882 -15.8330 0.4073 0.8790
-27.9075 -15.9594 0.4061 0.8793
-27.5492 -16.2099 0.4038 0.8800
-27.3715 -16.3341 0.4027 0.8803
-27.1949 -16.4576 0.4016 0.8806
-26.4977 -16.9450 0.3974 0.8818
-26.3257 -17.0653 0.3964 0.8821
-25.9842 -17.3040 0.3944 0.8826
-25.8147 -17.4226 0.3935 0.8829
-25.6459 -17.5405 0.3925 0.8831
-25.3109 -17.7748 0.3907 0.8836
-25.1445 -17.8911 0.3899 0.8839
-24.9788 -18.0070 0.3890 0.8841
-24.6496 -18.2371 0.3874 0.8846
-24.3231 -18.4654 0.3858 0.8850
-24.5944 -18.9122 0.3920 0.8833
-24.9677 -19.4462 0.3998 0.8811
-25.3411 -19.9900 0.4078 0.8789
-25.1705 -20.1093 0.4070 0.8791
-25.0006 -20.2281 0.4063 0.8793
-24.8313 -20.3465 0.4056 0.8795
-24.6626 -20.4644 0.4049 0.8797
-24.4944 -20.5820 0.4042 0.8799
-24.3268 -20.6992 0.4035 0.8801
-23.9932 -20.9324 0.4023 0.8804
-23.4966 -21.2796 0.4005 0.8809
-23.3320 -21.3946 0.3999 0.8811
-23.1679 -21.5094 0.3994 0.8812
-22.8409 -21.7380 0.3984 0.8815
-22.6780 -21.8518 0.3979 0.8816
-20.8752 -20.8752 0.3730 0.8886
-20.7234 -20.9813 0.3726 0.8887
-20.5719 -21.0872 0.3722 0.8888
-20.4208 -21.1929 0.3718 0.8889
-20.2699 -21.2984 0.3715 0.8890
-20.1194 -21.4038 0.3711 0.8891
-19.9692 -21.5090 0.3708 0.8892
-19.8192 -21.6140 0.3705 0.8893
-19.6695 -21.7188 0.3702 0.8894
-19.5199 -21.8234 0.3699 0.8895
-19.3706 -21.9279 0.3696 0.8895
-19.2214 -22.0321 0.3694 0.8896
-19.0725 -22.1362 0.3691 0.8897
-18.6267 -22.4479 0.3685 0.8899
-18.4784 -22.5516 0.3683 0.8899
-18.3303 -22.6551 0.3682 0.8900
-18.0344 -22.8620 0.3679 0.8900
-15.0897 -20.1340 0.3179 0.9042
-14.7910 -19.9918 0.3142 0.9053
-14.2139 -19.7172 0.3071 0.9073
-13.3954 -19.3279 0.2971 0.9102
-12.6488 -18.9938 0.2883 0.9128
-12.5079 -19.2953 0.2905 0.9121
-12.4910 -19.5328 0.2929 0.9114
-12.3461 -19.8429 0.2952 0.9107
-12.1244 -20.3173 0.2989 0.9097
-11.8970 -20.8039 0.3028 0.9086
-11.8199 -20.9690 0.3041 0.9082
-11.7421 -21.1354 0.3055 0.9078
-11.6637 -21.3034 0.3068 0.9074
-11.5845 -21.4729 0.3082 0.9070
-11.0932 -22.5241 0.3172 0.9044
-10.8366 -23.0734 0.3220 0.9031
-10.6611 -23.4491 0.3254 0.9021
-10.2537 -24.1195 0.3311 0.9005
-10.1039 -24.6079 0.3361 0.8991
-10.0087 -24.8117 0.3380 0.8985
-9.8149 -25.2263 0.3420 0.8974
-9.7163 -25.4373 0.3440 0.8968
-9.6165 -25.6508 0.3461 0.8962
-9.5155 -25.8670 0.3482 0.8956
-9.2049 -26.5317 0.3548 0.8937
-9.0988 -26.7589 0.3571 0.8931
-8.9912 -26.9891 0.3594 0.8924
-8.8823 -27.2222 0.3618 0.8918
-8.7719 -27.4585 0.3642 0.8911
-8.5465 -27.9408 0.3691 0.8897
-8.4315 -28.1869 0.3717 0.8890
-8.0415 -28.8201 0.3780 0.8872
-7.9602 -29.2254 0.3827 0.8859
-7.8366 -29.4898 0.3855 0.8851
-7.5839 -30.0305 0.3913 0.8835
-7.4547 -30.3071 0.3943 0.8826
-7.3235 -30.5879 0.3974 0.8818
-7.1902 -30.8732 0.4005 0.8809
-6.7774 -31.7565 0.4102 0.8782
-6.6353 -32.0607 0.4136 0.8772
-6.4908 -32.3699 0.4171 0.8763
-6.1944 -33.0042 0.4242 0.8743
-6.0169 -33.1893 0.4262 0.8738
-5.8620 -33.5143 0.4298 0.8728
-5.7309 -34.0027 0.4356 0.8712
-5.5705 -34.3459 0.4396 0.8701
-5.2409 -35.0513 0.4477 0.8678
-5.0714 -35.4140 0.4520 0.8667
-4.8987 -35.7836 0.4563 0.8655
-3.2512 -30.8110 0.3914 0.8834
-3.0493 -30.7167 0.3900 0.8838
-2.2702 -30.5357 0.3868 0.8847
-1.8795 -30.3531 0.3842 0.8855
-1.6861 -30.2628 0.3829 0.8858
-1.3031 -30.0838 0.3804 0.8865
-1.1135 -29.9952 0.3792 0.8869
-0.7378 -29.8197 0.3768 0.8875
-0.5517 -29.7328 0.3757 0.8878
-0.3667 -29.6463 0.3746 0.8882
-0.1828 -29.5604 0.3735 0.8885
0.0000 -29.4750 0.3724 0.8888
0.1818 -29.3901 0.3713 0.8891
0.5422 -29.2217 0.3692 0.8897
0.7210 -29.1382 0.3682 0.8899
1.0689 -28.7926 0.3640 0.8911
1.2437 -28.7109 0.3631 0.8914
2.1047 -28.3087 0.3586 0.8927
2.2744 -28.2294 0.3578 0.8929
2.6279 -28.2472 0.3584 0.8927
2.7964 -28.1685 0.3576 0.8929
2.9641 -28.0901 0.3568 0.8932
3.1312 -28.0121 0.3561 0.8934
3.6282 -27.7798 0.3539 0.8940
4.2819 -27.4744 0.3513 0.8947
4.4438 -27.3988 0.3507 0.8949
5.4040 -26.9501 0.3473 0.8959
5.7201 -26.8024 0.3462 0.8962
5.8775 -26.7289 0.3457 0.8963
6.0344 -26.6555 0.3453 0.8964
6.3076 -26.3449 0.3422 0.8973
6.7734 -26.1387 0.3411 0.8976
7.7190 -27.6639 0.3628 0.8915
8.1944 -28.6811 0.3768 0.8875
7.6406 -25.5427 0.3368 0.8988
7.9421 -25.4018 0.3362 0.8990
8.5420 -25.1215 0.3352 0.8993
8.6915 -25.0517 0.3350 0.8994
9.3024 -25.2875 0.3404 0.8978
16.0241 -41.9508 0.5673 0.8356
16.2763 -41.8330 0.5671 0.8356
16.7800 -41.5977 0.5667 0.8357
15.7304 -26.7343 0.3919 0.8833
14.9864 -25.1131 0.3695 0.8896
14.6849 -23.2795 0.3477 0.8957
14.8405 -23.2068 0.3480 0.8957
15.1213 -23.0138 0.3479 0.8957
15.4934 -22.9563 0.3499 0.8951
15.6507 -22.8828 0.3502 0.8950
15.9046 -22.6477 0.3496 0.8952
16.2535 -22.5465 0.3511 0.8948
16.8907 -22.2487 0.3529 0.8943
17.2117 -22.0987 0.3539 0.8940
17.3729 -22.0234 0.3544 0.8939
17.6968 -21.8721 0.3554 0.8936
18.1863 -21.6433 0.3571 0.8931
18.5153 -21.4895 0.3584 0.8927
15.8802 -17.9766 0.3030 0.9085
16.0647 -17.9604 0.3044 0.9081
19.1804 -21.1787 0.3610 0.8920
19.3482 -21.1003 0.3617 0.8918
19.6859 -20.9425 0.3631 0.8914
20.5254 -21.5668 0.3761 0.8877
20.2847 -21.0516 0.3693 0.8896
19.5991 -19.3581 0.3480 0.8957
20.8902 -20.3797 0.3687 0.8898
21.0654 -20.2979 0.3696 0.8896
21.4182 -20.1330 0.3714 0.8891
21.5959 -20.0499 0.3723 0.8888
22.1345 -19.7982 0.3752 0.8880
22.4510 -19.5869 0.3764 0.8876
22.6340 -19.5014 0.3774 0.8874
22.8181 -19.4154 0.3785 0.8871
23.0032 -19.3289 0.3796 0.8867
23.1893 -19.2419 0.3807 0.8864
22.1629 -18.1600 0.3620 0.8917
23.6146 -19.1066 0.3838 0.8856
23.8045 -19.0178 0.3849 0.8853
23.9955 -18.9286 0.3861 0.8849
24.1381 -18.8001 0.3865 0.8848
24.7211 -18.5276 0.3903 0.8837
25.3677 -18.2873 0.3951 0.8824
25.5690 -18.1932 0.3964 0.8820
25.0147 -16.8826 0.3813 0.8863
33.6438 -20.3602 0.4968 0.8544
28.5892 -17.0607 0.4206 0.8753
28.4352 -16.7312 0.4168 0.8764
28.2840 -16.4076 0.4131 0.8774
29.3795 -15.3839 0.4190 0.8758
31.6401 -16.0721 0.4483 0.8677
31.4904 -15.7519 0.4448 0.8686
31.4036 -15.4664 0.4422 0.8693
31.6563 -15.3483 0.4445 0.8687
31.9115 -15.2291 0.4467 0.8681
32.1693 -15.1086 0.4490 0.8675
32.4298 -14.9868 0.4513 0.8668
33.2279 -14.6138 0.4586 0.8648
33.7746 -14.3583 0.4636 0.8635
34.0524 -14.2285 0.4662 0.8627
34.3334 -14.0971 0.4689 0.8620
34.9052 -13.8299 0.4743 0.8605
35.1961 -13.6939 0.4771 0.8598
35.7883 -13.4172 0.4829 0.8582
36.3951 -13.1336 0.4888 0.8566
36.7042 -12.9891 0.4919 0.8558
37.4035 -12.9769 0.5002 0.8535
37.3342 -12.6947 0.4982 0.8541
37.6553 -12.5446 0.5014 0.8532
37.9806 -12.3926 0.5047 0.8523
36.2449 -11.5787 0.4807 0.8588
38.9829 -11.9241 0.5150 0.8495
39.3262 -11.7637 0.5186 0.8486
39.6743 -11.6010 0.5222 0.8476
40.0273 -11.4360 0.5259 0.8466
40.3854 -11.2686 0.5297 0.8456
41.1173 -10.9265 0.5375 0.8435
39.2739 -10.1770 0.5126 0.8502
41.8712 -10.5742 0.5456 0.8413
53.8914 -10.8063 0.6944 0.8026
53.7134 -10.4255 0.6912 0.8034
53.5371 -10.0481 0.6882 0.8042
53.1891 -9.3033 0.6822 0.8057
48.9104 -7.0042 0.6242 0.8207
48.7565 -6.6747 0.6217 0.8213
48.6893 -6.3590 0.6203 0.8217
49.2065 -6.1173 0.6264 0.8201
51.5692 -5.7643 0.6556 0.8126
51.4129 -4.4624 0.6520 0.8135
52.1160 -4.1989 0.6605 0.8113
54.3430 -3.3650 0.6879 0.8043
55.1276 -3.0714 0.6975 0.8018
55.9351 -2.7695 0.7075 0.7993
56.7662 -2.4589 0.7178 0.7967
57.6226 -2.1390 0.7285 0.7940
59.4149 -1.4700 0.7508 0.7884
61.3231 -0.7585 0.7748 0.7824
51.6882 -0.3196 0.6530 0.8132
69.6517 2.1544 0.8804 0.7567
69.6761 3.4500 0.8813 0.7565
8.2339 3.8671 0.1149 0.9643
8.1845 3.9682 0.1149 0.9643
8.1105 4.1199 0.1149 0.9643
8.0612 4.2211 0.1150 0.9643
8.0365 4.2717 0.1150 0.9642
8.0118 4.3223 0.1150 0.9642
7.9871 4.3729 0.1150 0.9642
7.9376 4.4743 0.1151 0.9642
7.8880 4.5759 0.1152 0.9642
7.8632 4.6267 0.1153 0.9642
7.8384 4.6776 0.1153 0.9641
7.7638 4.8306 0.1155 0.9641
7.7388 4.8817 0.1156 0.9641
7.6888 4.9842 0.1158 0.9640
7.6387 5.0870 0.1159 0.9640
7.6136 5.1385 0.1160 0.9639
7.5884 5.1901 0.1161 0.9639
7.5632 5.2418 0.1163 0.9639
7.5379 5.2936 0.1164 0.9638
7.4618 5.4496 0.1167 0.9637
7.3081 5.7649 0.1176 0.9634
7.2822 5.8179 0.1178 0.9634
7.2563 5.8711 0.1179 0.9633
7.1255 6.1393 0.1188 0.9631
7.0726 6.2478 0.1192 0.9630
7.0193 6.3570 0.1196 0.9628
6.9116 6.5779 0.1205 0.9626
19.9709 19.7254 0.3546 0.8938
19.8129 19.8129 0.3540 0.8940
19.6554 19.9000 0.3534 0.8941
19.4738 19.9616 0.3523 0.8944
8.7299 9.1729 0.1600 0.9506
8.6223 9.4031 0.1612 0.9502
8.5497 9.5586 0.1620 0.9500
8.5131 9.6370 0.1624 0.9499
8.2510 10.1978 0.1657 0.9489
8.1937 10.2560 0.1658 0.9488
8.1166 10.4212 0.1669 0.9485
12.8290 16.8987 0.2680 0.9186
12.6546 17.1041 0.2688 0.9184
12.1653 16.8754 0.2628 0.9201
11.5345 16.6429 0.2558 0.9222
11.3195 16.5502 0.2533 0.9229
10.7768 16.1827 0.2456 0.9252
10.6106 16.1488 0.2441 0.9256
10.4063 16.0533 0.2417 0.9263
9.8715 15.8656 0.2361 0.9280
9.4948 15.6895 0.2317 0.9293
7.8376 13.3203 0.1953 0.9400
7.5701 13.2375 0.1926 0.9408
6.9957 12.9672 0.1861 0.9428
6.6934 12.9775 0.1845 0.9433
6.5512 13.0968 0.1850 0.9431
6.3925 13.1846 0.1851 0.9431
6.3130 13.2286 0.1852 0.9431
6.2336 13.2726 0.1852 0.9430
5.5053 12.3104 0.1704 0.9475
5.3060 12.0644 0.1665 0.9486
4.4936 11.7642 0.1591 0.9509
4.4115 11.7670 0.1588 0.9510
4.1671 11.7754 0.1578 0.9513
3.6765 12.0195 0.1588 0.9510
3.6187 12.0973 0.1595 0.9507
3.4784 12.1749 0.1600 0.9506
3.2552 12.2494 0.1601 0.9506
3.1966 12.3360 0.1610 0.9503
3.1375 12.4236 0.1619 0.9500
3.0172 12.6018 0.1637 0.9495
2.9243 12.5564 0.1629 0.9497
2.7424 12.4714 0.1613 0.9502
2.6527 12.4295 0.1606 0.9504
2.4758 12.3468 0.1591 0.9509
2.2087 12.1833 0.1564 0.9517
2.0485 12.1540 0.1557 0.9519
1.8914 12.1359 0.1552 0.9521
1.7269 12.0591 0.1539 0.9524
1.5651 11.9834 0.1527 0.9528
1.4851 11.9461 0.1521 0.9530
1.4058 11.9090 0.1515 0.9532
1.1600 11.6853 0.1484 0.9541
1.0123 11.6629 0.1479 0.9542
0.8619 11.5926 0.1469 0.9546
0.7135 11.5232 0.1459 0.9549
0.4939 11.4015 0.1441 0.9554
0.4251 11.4506 0.1448 0.9552
0.3531 11.4170 0.1443 0.9553
0.2106 11.3504 0.1434 0.9556
0.1400 11.3174 0.1430 0.9557
0.0698 11.2846 0.1426 0.9559
0.0000 11.2520 0.1421 0.9560
-0.0694 11.2211 0.1418 0.9561
-0.2070 11.1553 0.1410 0.9563
-0.2752 11.1234 0.1406 0.9565
-0.4733 10.9262 0.1382 0.9572
-0.5400 10.9062 0.1379 0.9573
-0.6734 10.8751 0.1377 0.9573
-0.7389 10.8445 0.1373 0.9574
-0.8040 10.8140 0.1370 0.9575
-0.8688 10.7837 0.1367 0.9576
-0.9334 10.7536 0.1364 0.9577
-1.0616 10.6937 0.1358 0.9579
-1.1253 10.6639 0.1355 0.9580
-1.1887 10.6343 0.1352 0.9581
-1.2518 10.6047 0.1349 0.9582
-1.3062 10.0015 0.1274 0.9605
-1.3519 9.8752 0.1259 0.9609
-1.3744 9.1919 0.1174 0.9635
-1.4330 9.1950 0.1176 0.9635
-1.5290 9.0720 0.1162 0.9639
-1.5762 9.0115 0.1156 0.9641
-1.6229 8.9517 0.1149 0.9643
-1.6690 8.8925 0.1143 0.9645
-1.7539 8.7467 0.1127 0.9649
-1.8823 8.8199 0.1139 0.9646
-1.9858 8.7716 0.1136 0.9647
-2.0373 8.7475 0.1135 0.9647
-2.1334 8.6731 0.1128 0.9649
-2.1843 8.6494 0.1127 0.9649
-2.2352 8.6257 0.1126 0.9650
-2.2859 8.6020 0.1124 0.9650
-2.3365 8.5784 0.1123 0.9651
-2.7001 8.4521 0.1121 0.9651
-2.7585 8.4541 0.1123 0.9651
-2.8171 8.4561 0.1126 0.9650
-2.9946 8.4622 0.1134 0.9647
-3.0369 8.4156 0.1130 0.9648
-3.1049 8.4403 0.1136 0.9647
-3.3835 8.6962 0.1179 0.9634
-3.4805 8.7845 0.1194 0.9629
-3.6440 8.8750 0.1212 0.9623
-3.7496 8.8199 0.1211 0.9624
-3.8255 8.8461 0.1218 0.9622
-4.1569 9.4517 0.1304 0.9595
-7.2271 15.3881 0.2148 0.9343
-4.7269 7.5971 0.1130 0.9648
-4.7901 7.5936 0.1134 0.9647
-20.2161 26.2900 0.4190 0.8758
-10.4521 13.2500 0.2132 0.9347
-54.5791 21.6250 0.7417 0.7907
-54.3567 21.1489 0.7369 0.7919
-54.1371 20.6789 0.7321 0.7931
-53.9203 20.2149 0.7275 0.7942
-53.7063 19.7567 0.7229 0.7954
-53.4948 19.3041 0.7185 0.7965
-52.8759 17.9793 0.7056 0.7998
-52.4754 17.1221 0.6973 0.8019
-52.4788 16.4079 0.6946 0.8026
-53.4051 15.9751 0.7042 0.8001
-53.8565 15.7479 0.7089 0.7989
-53.4694 14.9194 0.7013 0.8009
-53.0904 14.1083 0.6940 0.8027
-49.5684 10.8997 0.6412 0.8163
-49.2369 10.1901 0.6352 0.8178
-49.0734 9.8402 0.6323 0.8186
-48.4340 8.4716 0.6212 0.8214
-47.9688 7.4759 0.6133 0.8235
-47.8164 7.1496 0.6108 0.8241
-47.6651 6.8259 0.6083 0.8248
-47.3663 6.1863 0.6035 0.8261
-47.2187 5.8702 0.6011 0.8267
-43.6261 4.3308 0.5539 0.8391
-43.5805 4.0543 0.5530 0.8394
-39.4482 2.6877 0.4995 0.8537
-42.9884 2.3951 0.5439 0.8418
-42.4833 1.3140 0.5370 0.8436
-42.3590 1.0480 0.5353 0.8441
-42.1127 0.5209 0.5321 0.8450
-41.9907 0.2596 0.5305 0.8454
-41.8707 0.0000 0.2181 0.8458
-41.4142 -0.7684 0.2157 0.8473
-42.4050 -1.3117 0.2210 0.8439
-44.2915 -2.1931 0.2310 0.8375
-39.3070 -2.1900 0.2050 0.8543
-39.1963 -2.4271 0.2045 0.8546
-39.0860 -2.6630 0.2040 0.8550
-38.7718 -3.3653 0.2027 0.8558
-38.5426 -3.8262 0.2017 0.8565
-38.4353 -4.0557 0.2013 0.8568
-38.3418 -4.2858 0.2009 0.8570
-38.1294 -4.7402 0.2001 0.8575
-37.7098 -5.6384 0.1986 0.8585
-37.6059 -5.8609 0.1982 0.8588
-37.2335 -6.2755 0.1967 0.8598
-37.2834 -6.5212 0.1971 0.8595
-37.1810 -6.7406 0.1968 0.8597
-37.0507 -7.4294 0.1968 0.8597
-36.6861 -7.8295 0.1954 0.8607
-36.6458 -8.2961 0.1957 0.8605
-35.1530 -8.1870 0.1880 0.8656
-35.0502 -8.3919 0.1877 0.8657
-34.9478 -8.5962 0.1874 0.8659
-34.5408 -9.4080 0.1865 0.8666
-34.4397 -9.6096 0.1862 0.8667
-34.3389 -9.8108 0.1860 0.8669
-34.2383 -10.0115 0.1858 0.8670
-34.1382 -10.2118 0.1856 0.8672
-33.8383 -10.8100 0.1850 0.8675
-33.7387 -11.0086 0.1848 0.8677
-33.3423 -11.7994 0.1842 0.8681
-33.0465 -12.3893 0.1838 0.8683
-32.9482 -12.5854 0.1837 0.8684
-32.3607 -13.7573 0.1831 0.8688
-27.4834 -12.0873 0.1564 0.8868
-32.0681 -14.3411 0.1830 0.8689
-31.9706 -14.5354 0.1829 0.8689
-31.8733 -14.7297 0.1829 0.8690
-31.6784 -15.1179 0.1828 0.8690
-31.5811 -15.3120 0.1828 0.8690
-31.4838 -15.5060 0.1828 0.8690
-29.1979 -15.0595 0.1711 0.8769
-29.0103 -15.1906 0.1706 0.8772
-28.8239 -15.3209 0.1700 0.8776
-28.6388 -15.4504 0.1695 0.8780
-28.4547 -15.5790 0.1690 0.8783
-28.2718 -15.7069 0.1685 0.8786
-28.0900 -15.8340 0.1680 0.8790
-27.9093 -15.9604 0.1675 0.8793
-27.7296 -16.0860 0.1670 0.8796
-27.5509 -16.2109 0.1665 0.8800
-27.1966 -16.4586 0.1656 0.8806
-26.8462 -16.7036 0.1647 0.8812
-26.1562 -17.1860 0.1630 0.8823
-25.9858 -17.3051 0.1626 0.8826
-25.6475 -17.5416 0.1618 0.8831
-25.4796 -17.6590 0.1615 0.8834
-25.1460 -17.8922 0.1607 0.8839
-24.9803 -18.0081 0.1604 0.8841
-24.8154 -18.1234 0.1600 0.8843
-24.6511 -18.2383 0.1597 0.8846
-24.3246 -18.4665 0.1591 0.8850
-24.5910 -18.9097 0.1616 0.8833
-24.9642 -19.4435 0.1648 0.8811
-25.3426 -19.9912 0.1681 0.8789
-24.8328 -20.3477 0.1672 0.8795
-24.6640 -20.4656 0.1669 0.8797
-23.8286 -21.0497 0.1656 0.8806
-23.4980 -21.2809 0.1651 0.8809
-23.3334 -21.3959 0.1649 0.8811
-23.1693 -21.5107 0.1647 0.8812
-22.6794 -21.8531 0.1640 0.8816
-22.5169 -21.9667 0.1638 0.8818
-20.7246 -20.9825 0.1536 0.8887
-20.5731 -21.0884 0.1534 0.8888
-20.4219 -21.1941 0.1533 0.8889
-19.8594 -21.3907 0.1520 0.8898
-19.7102 -21.4951 0.1519 0.8899
-19.5612 -21.5992 0.1518 0.8900
-19.5205 -21.8241 0.1525 0.8895
-19.3712 -21.9285 0.1524 0.8896
-19.2222 -22.0330 0.1523 0.8896
-19.0734 -22.1373 0.1522 0.8897
-18.9248 -22.2415 0.1521 0.8898
-18.7762 -22.3454 0.1520 0.8898
-18.4795 -22.5529 0.1519 0.8899
-18.0354 -22.8633 0.1517 0.8900
-15.4589 -20.1035 0.1321 0.9035
-15.1534 -19.9605 0.1305 0.9046
-14.0003 -19.4209 0.1247 0.9087
-13.7279 -19.2934 0.1233 0.9096
-13.4614 -19.1687 0.1220 0.9106
-13.2289 -19.0876 0.1210 0.9113
-12.5790 -19.1446 0.1193 0.9124
-12.5083 -19.2960 0.1198 0.9121
-12.4193 -19.6879 0.1212 0.9111
-12.3466 -19.8435 0.1217 0.9108
-12.2733 -20.0004 0.1222 0.9104
-12.1994 -20.1586 0.1227 0.9101
-12.0497 -20.4789 0.1238 0.9093
-11.9739 -20.6411 0.1243 0.9090
-11.6641 -21.3042 0.1265 0.9074
-11.5049 -21.6448 0.1277 0.9066
-11.3428 -21.9919 0.1289 0.9058
-11.1775 -22.3455 0.1301 0.9049
-11.0937 -22.5250 0.1308 0.9044
-11.0090 -22.7062 0.1314 0.9040
-10.9234 -22.8893 0.1321 0.9035
-10.8370 -23.0743 0.1328 0.9031
-10.7497 -23.2612 0.1335 0.9026
-10.5723 -23.6408 0.1349 0.9016
-10.4289 -23.7127 0.1349 0.9016
-10.3383 -23.9067 0.1357 0.9011
-10.2541 -24.1204 0.1365 0.9005
-10.0091 -24.8127 0.1394 0.8985
-9.9128 -25.0188 0.1402 0.8979
-9.8153 -25.2273 0.1410 0.8974
-9.7167 -25.4383 0.1418 0.8968
-9.6170 -25.6519 0.1427 0.8962
-7.3837 -20.8646 0.1153 0.9153
-8.7723 -27.4597 0.1501 0.8911
-8.6603 -27.6992 0.1512 0.8904
-8.4319 -28.1881 0.1532 0.8890
-8.1614 -28.5658 0.1547 0.8880
-7.8370 -29.4911 0.1589 0.8851
-7.5843 -30.0319 0.1613 0.8835
-7.4551 -30.3085 0.1626 0.8826
-7.3238 -30.5894 0.1638 0.8818
-7.1905 -30.8746 0.1651 0.8809
-6.6356 -32.0623 0.1705 0.8772
-5.7312 -34.0044 0.1796 0.8712
-5.5708 -34.3477 0.1812 0.8701
-5.4075 -34.6972 0.1829 0.8690
-5.2412 -35.0532 0.1846 0.8678
-5.0717 -35.4159 0.1863 0.8667
-4.7229 -36.1623 0.1899 0.8643
-4.5434 -36.5465 0.1918 0.8630
-3.2514 -30.8133 0.1614 0.8834
-2.8602 -30.7456 0.1608 0.8838
-2.6666 -30.7231 0.1606 0.8839
-2.0743 -30.4464 0.1589 0.8851
-1.6862 -30.2650 0.1579 0.8858
-1.3032 -30.0860 0.1568 0.8865
-1.1135 -29.9974 0.1563 0.8869
-0.7378 -29.8219 0.1554 0.8875
-0.5517 -29.7349 0.1549 0.8878
-0.1828 -29.5625 0.1540 0.8885
0.0000 -29.4771 0.1535 0.8888
0.5423 -29.2237 0.1522 0.8897
0.7210 -29.1402 0.1518 0.8899
0.8988 -29.0572 0.1514 0.8902
1.0689 -28.7946 0.1501 0.8911
1.4177 -28.6317 0.1493 0.8917
1.7684 -28.5587 0.1490 0.8919
1.9343 -28.3903 0.1482 0.8924
2.1049 -28.3106 0.1479 0.8927
2.7966 -28.1704 0.1474 0.8929
3.1314 -28.0140 0.1468 0.8934
3.2977 -27.9362 0.1465 0.8936
3.9565 -27.6284 0.1454 0.8944
4.1196 -27.5522 0.1451 0.8945
4.4441 -27.4006 0.1446 0.8949
4.6055 -27.3252 0.1443 0.8951
4.7663 -27.2500 0.1441 0.8952
4.9266 -27.1752 0.1438 0.8954
5.2456 -27.0261 0.1434 0.8957
5.5627 -26.8779 0.1430 0.8960
5.7205 -26.8042 0.1427 0.8962
6.3080 -26.3466 0.1411 0.8973
6.6172 -26.2022 0.1408 0.8975
6.7738 -26.1405 0.1406 0.8976
8.1959 -28.6864 0.1554 0.8875
7.6411 -25.5444 0.1389 0.8988
7.7920 -25.4738 0.1387 0.8989
7.9426 -25.4035 0.1386 0.8990
8.8413 -24.9835 0.1380 0.8994
8.9904 -24.9139 0.1379 0.8995
9.3105 -25.3094 0.1405 0.8977
16.0252 -41.9536 0.2339 0.8356
16.2773 -41.8357 0.2338 0.8356
16.7811 -41.6004 0.2336 0.8357
18.2894 -44.5434 0.2508 0.8248
18.5594 -44.4173 0.2507 0.8248
19.0991 -44.1652 0.2506 0.8249
19.3687 -44.0393 0.2506 0.8249
19.9079 -43.7874 0.2505 0.8250
20.4469 -43.5357 0.2505 0.8250
20.7164 -43.4098 0.2505 0.8250
20.9444 -43.1982 0.2500 0.8253
21.4878 -42.9573 0.2502 0.8252
21.7899 -42.8960 0.2506 0.8249
22.0597 -42.7701 0.2506 0.8249
23.1408 -42.2660 0.2510 0.8247
23.9537 -41.8868 0.2513 0.8245
14.2206 -23.4984 0.1431 0.8960
14.3755 -23.4261 0.1432 0.8959
14.9973 -23.1355 0.1436 0.8956
15.3375 -23.0311 0.1441 0.8952
15.6517 -22.8843 0.1444 0.8950
15.9056 -22.6492 0.1441 0.8952
16.0963 -22.6220 0.1446 0.8949
16.2546 -22.5480 0.1448 0.8948
16.5375 -22.3523 0.1448 0.8947
16.7319 -22.3250 0.1453 0.8944
17.0521 -22.1753 0.1457 0.8941
17.2129 -22.1002 0.1459 0.8940
17.3741 -22.0249 0.1461 0.8939
16.5904 -20.7660 0.1384 0.8991
17.8606 -21.7975 0.1468 0.8934
18.0238 -21.7213 0.1470 0.8932
18.3299 -21.5424 0.1473 0.8930
18.4946 -21.4654 0.1476 0.8928
15.8806 -17.9771 0.1249 0.9085
19.3496 -21.1018 0.1491 0.8918
19.6872 -20.9440 0.1497 0.8914
20.2828 -21.0497 0.1522 0.8896
19.1100 -19.5887 0.1425 0.8963
20.3710 -20.6245 0.1510 0.8905
19.6004 -19.3595 0.1435 0.8957
21.3943 -20.1104 0.1529 0.8892
22.6834 -19.5439 0.1559 0.8871
23.2399 -19.2838 0.1573 0.8862
23.8062 -19.0192 0.1587 0.8853
23.9972 -18.9299 0.1592 0.8849
24.8186 -18.6007 0.1615 0.8833
25.1696 -18.3821 0.1623 0.8828
25.5709 -18.1945 0.1635 0.8820
45.3972 -31.8805 0.2889 0.8010
45.7575 -31.7128 0.2900 0.8004
46.1205 -31.5439 0.2910 0.7997
25.0132 -16.8816 0.1572 0.8863
46.8544 -31.2023 0.2932 0.7984
47.2255 -31.0296 0.2943 0.7977
47.5995 -30.8556 0.2954 0.7970
47.9764 -30.6802 0.2966 0.7963
48.3563 -30.5035 0.2978 0.7956
48.6650 -30.2791 0.2985 0.7951
49.0391 -30.0929 0.2997 0.7944
28.5854 -17.0584 0.1734 0.8753
28.4315 -16.7290 0.1718 0.8764
28.1319 -16.0877 0.1688 0.8784
29.3819 -15.3852 0.1727 0.8758
31.6386 -16.0714 0.1848 0.8677
31.4062 -15.4677 0.1823 0.8693
31.6589 -15.3496 0.1832 0.8687
31.9141 -15.2304 0.1842 0.8681
32.1720 -15.1098 0.1851 0.8675
32.4913 -15.0152 0.1864 0.8666
32.7550 -14.8920 0.1874 0.8660
33.2308 -14.6151 0.1891 0.8648
33.7064 -14.3294 0.1908 0.8637
34.0554 -14.2297 0.1922 0.8627
34.3365 -14.0984 0.1933 0.8620
34.9083 -13.8311 0.1956 0.8605
33.6604 -12.8574 0.1876 0.8658
36.0932 -13.2774 0.2003 0.8574
36.3985 -13.1347 0.2015 0.8566
36.7076 -12.9903 0.2028 0.8558
37.6588 -12.5458 0.2067 0.8532
37.9842 -12.3938 0.2081 0.8523
38.9867 -11.9253 0.2123 0.8495
39.5947 -11.5777 0.2149 0.8479
41.9514 -10.5944 0.2254 0.8411
42.6527 -10.2121 0.2284 0.8391
54.0689 -11.1901 0.2876 0.8018
53.8894 -10.8059 0.2863 0.8026
53.1872 -9.3030 0.2812 0.8058
52.8451 -8.5710 0.2788 0.8072
48.9061 -7.0036 0.2573 0.8207
48.6952 -6.3598 0.2558 0.8217
49.7400 -5.8716 0.2609 0.8184
53.7959 -5.0047 0.2814 0.8056
54.9038 -4.4235 0.2869 0.8023
56.2975 -3.8356 0.2939 0.7979
53.9242 -3.3390 0.2815 0.8056
57.6339 -3.2111 0.3006 0.7938
58.3254 -2.8879 0.3042 0.7917
59.0334 -2.5571 0.3077 0.7895
62.0419 -1.1511 0.3232 0.7802
69.6461 2.1543 0.3629 0.7568
54.2009 2.3479 0.2826 0.8049
8.1556 4.0167 0.0473 0.9643
8.1062 4.1177 0.0474 0.9643
8.0569 4.2188 0.0474 0.9643
8.0322 4.2694 0.0474 0.9643
7.8839 4.5735 0.0475 0.9642
7.8591 4.6243 0.0475 0.9642
7.8094 4.7260 0.0475 0.9641
7.7846 4.7770 0.0476 0.9641
7.7347 4.8791 0.0476 0.9641
7.6848 4.9815 0.0477 0.9640
7.6347 5.0843 0.0478 0.9640
7.5844 5.1873 0.0479 0.9639
7.5592 5.2390 0.0479 0.9639
7.4832 5.3946 0.0480 0.9638
7.4578 5.4467 0.0481 0.9637
7.4324 5.4989 0.0482 0.9637
7.2783 5.8148 0.0485 0.9634
7.2263 5.9212 0.0487 0.9633
7.2003 5.9746 0.0487 0.9633
7.1741 6.0282 0.0488 0.9632
7.1479 6.0820 0.0489 0.9632
7.0687 6.2443 0.0491 0.9630
7.0154 6.3535 0.0493 0.9628
6.9887 6.4084 0.0494 0.9628
11.4913 11.0727 0.0831 0.9382
11.4471 11.1674 0.0833 0.9380
11.4026 11.2625 0.0835 0.9379
11.3131 11.4540 0.0838 0.9376
11.2681 11.5504 0.0840 0.9375
11.1774 11.7445 0.0844 0.9372
11.1317 11.8423 0.0846 0.9371
19.0305 20.7538 0.1467 0.8935
14.9055 16.6644 0.1164 0.9144
10.0905 11.4227 0.0794 0.9409
8.3823 9.8514 0.0674 0.9496
8.3450 9.9313 0.0676 0.9494
8.3074 10.0117 0.0678 0.9493
8.1550 10.3380 0.0686 0.9487
12.8284 16.8979 0.1105 0.9186
12.7507 17.0130 0.1107 0.9185
11.9271 16.7627 0.1072 0.9210
11.5331 16.6407 0.1054 0.9222
11.3187 16.5491 0.1045 0.9229
11.0918 16.4345 0.1033 0.9238
9.8703 15.8637 0.0973 0.9280
9.4937 15.6877 0.0955 0.9293
7.9171 13.2670 0.0805 0.9401
7.7188 13.3059 0.0801 0.9403
7.4223 13.1674 0.0787 0.9413
7.0971 12.9627 0.0770 0.9426
6.9951 12.9662 0.0767 0.9428
6.8938 12.9696 0.0765 0.9429
6.7930 12.9730 0.0763 0.9431
6.6929 12.9765 0.0760 0.9433
6.5508 13.0960 0.0763 0.9431
6.4714 13.1399 0.0763 0.9431
6.2332 13.2717 0.0764 0.9430
5.6895 12.5140 0.0716 0.9465
5.5043 12.3081 0.0702 0.9475
5.3057 12.0638 0.0686 0.9486
4.9128 11.9652 0.0674 0.9496
4.8065 11.9153 0.0669 0.9499
4.6506 11.7376 0.0658 0.9508
4.4112 11.7662 0.0654 0.9510
4.1668 11.7745 0.0651 0.9513
4.0860 11.7772 0.0649 0.9514
3.9962 11.7525 0.0646 0.9516
3.8848 11.9061 0.0652 0.9511
3.7460 11.9811 0.0654 0.9510
3.6763 12.0187 0.0655 0.9510
3.6065 12.0566 0.0655 0.9509
3.4663 12.1324 0.0657 0.9508
3.3959 12.1705 0.0658 0.9507
3.2550 12.2488 0.0660 0.9506
3.1373 12.4230 0.0667 0.9500
3.0775 12.5115 0.0671 0.9498
3.0170 12.6011 0.0675 0.9495
2.9241 12.5554 0.0671 0.9497
2.8327 12.5127 0.0668 0.9500
2.6525 12.4285 0.0662 0.9504
2.4756 12.3458 0.0656 0.9509
2.3883 12.3050 0.0653 0.9511
2.2085 12.1823 0.0645 0.9517
2.1228 12.1368 0.0642 0.9519
1.8912 12.1350 0.0640 0.9521
1.8087 12.0964 0.0637 0.9523
1.7268 12.0581 0.0634 0.9524
1.6464 12.0265 0.0632 0.9526
1.4057 11.9081 0.0625 0.9532
1.3270 11.8713 0.0622 0.9533
1.2488 11.8348 0.0620 0.9535
1.0841 11.6536 0.0610 0.9543
1.0122 11.6620 0.0610 0.9543
0.9367 11.6267 0.0608 0.9544
0.8618 11.5917 0.0605 0.9546
0.7135 11.5224 0.0601 0.9549
0.6378 11.4480 0.0597 0.9552
0.4938 11.4008 0.0595 0.9554
0.4250 11.4498 0.0597 0.9552
0.3531 11.4162 0.0595 0.9553
0.2106 11.3496 0.0591 0.9556
0.1400 11.3166 0.0589 0.9557
-0.0694 11.2204 0.0584 0.9561
-0.1384 11.1865 0.0583 0.9562
-0.3431 11.0909 0.0578 0.9566
-0.5399 10.9047 0.0569 0.9573
-0.6076 10.9050 0.0569 0.9573
-0.6734 10.8743 0.0567 0.9574
-0.8039 10.8133 0.0565 0.9576
-1.1252 10.6632 0.0558 0.9580
-1.1886 10.6335 0.0557 0.9581
-1.2430 9.9986 0.0525 0.9605
-1.2973 9.9327 0.0522 0.9607
-1.3809 9.6427 0.0507 0.9618
-1.4812 9.1326 0.0482 0.9637
-1.6689 8.8920 0.0471 0.9645
-1.7041 8.7797 0.0466 0.9649
-1.7538 8.7462 0.0465 0.9649
-1.8822 8.8193 0.0470 0.9646
-1.9340 8.7951 0.0469 0.9646
-1.9856 8.7710 0.0468 0.9647
-2.0885 8.7229 0.0467 0.9648
-2.1333 8.6729 0.0465 0.9649
-2.1908 8.6751 0.0466 0.9648
-2.3434 8.6038 0.0464 0.9650
-2.3941 8.5801 0.0464 0.9650
-2.4613 8.4174 0.0457 0.9655
-2.5134 8.4024 0.0457 0.9655
-2.5839 8.4475 0.0460 0.9653
-2.6418 8.4495 0.0461 0.9652
-2.7583 8.4535 0.0463 0.9651
-2.8169 8.4555 0.0464 0.9650
-2.9944 8.4615 0.0467 0.9647
-3.3833 8.6958 0.0486 0.9634
-3.4802 8.7836 0.0492 0.9629
-3.6437 8.8741 0.0500 0.9624
-3.7494 8.8195 0.0499 0.9624
-3.8250 8.8451 0.0502 0.9622
-4.5472 10.1680 0.0580 0.9564
-7.0362 15.4761 0.0885 0.9343
-7.2267 15.3871 0.0885 0.9343
-7.3219 15.3426 0.0885 0.9343
-4.6144 7.7326 0.0469 0.9646
-4.6375 7.6632 0.0467 0.9648
-4.7895 7.5926 0.0468 0.9647
-10.4515 13.2492 0.0879 0.9347
-47.6581 19.9134 0.2690 0.8133
-48.0511 19.7295 0.2705 0.8124
-48.8510 19.3554 0.2737 0.8104
-54.1394 20.6798 0.3018 0.7931
-53.9226 20.2158 0.2999 0.7943
-53.7085 19.7575 0.2981 0.7954
-53.0819 18.4164 0.2926 0.7987
-52.6766 17.5489 0.2892 0.8008
-52.4775 17.1228 0.2875 0.8019
-52.2807 16.7016 0.2859 0.8029
-52.4737 16.4063 0.2864 0.8026
-52.9336 16.1914 0.2883 0.8014
-53.3999 15.9736 0.2903 0.8002
-53.4715 14.9200 0.2891 0.8009
-52.9059 13.7096 0.2847 0.8036
-50.4267 12.7348 0.2709 0.8122
-49.8784 11.9421 0.2671 0.8145
-49.7379 11.2599 0.2656 0.8155
-49.4037 10.5436 0.2631 0.8170
-49.2387 10.1904 0.2619 0.8178
-49.0752 9.8405 0.2607 0.8186
-48.9132 9.4938 0.2595 0.8193
-48.5568 9.1134 0.2573 0.8207
-48.3983 8.7742 0.2562 0.8214
-48.2491 8.4393 0.2551 0.8221
-48.2791 8.1371 0.2550 0.8221
-48.1240 7.8052 0.2539 0.8228
-47.9705 7.4762 0.2529 0.8235
-47.6668 6.8261 0.2508 0.8248
-47.5168 6.5050 0.2498 0.8254
-47.3680 6.1865 0.2488 0.8261
-47.5360 5.6113 0.2493 0.8257
-48.0505 5.3710 0.2518 0.8242
-43.5820 4.0544 0.2280 0.8394
-43.5085 3.5054 0.2273 0.8398
-43.3775 3.2250 0.2266 0.8403
-42.9898 2.3952 0.2243 0.8418
-42.7356 1.8512 0.2228 0.8427
-42.3604 1.0481 0.2207 0.8441
-42.1141 0.5209 0.2194 0.8450
-39.2588 -0.0000 -0.0870 0.8547
-38.8969 -0.7218 -0.0862 0.8559
-37.6217 -3.2655 -0.0837 0.8598
-37.3975 -3.7126 -0.0833 0.8604
-37.1755 -4.1554 -0.0829 0.8610
-37.0653 -4.3754 -0.0827 0.8613
-36.9555 -4.5943 -0.0825 0.8616
-36.8462 -4.8123 -0.0823 0.8619
-36.5210 -5.4607 -0.0818 0.8627
-36.4135 -5.6751 -0.0817 0.8629
-36.3065 -5.8886 -0.0815 0.8632
-35.9878 -6.5242 -0.0811 0.8639
-35.8823 -6.7346 -0.0809 0.8641
-35.6726 -7.1530 -0.0806 0.8646
-35.5682 -7.3612 -0.0805 0.8648
-35.4642 -7.5687 -0.0804 0.8650
-35.2571 -7.9817 -0.0801 0.8654
-35.0513 -8.3922 -0.0799 0.8657
-34.8467 -8.8003 -0.0797 0.8661
-34.6433 -9.2062 -0.0794 0.8664
-34.4408 -9.6099 -0.0792 0.8667
-34.3400 -9.8111 -0.0792 0.8669
-34.2394 -10.0118 -0.0791 0.8670
-33.8394 -10.8103 -0.0787 0.8675
-33.6404 -11.2071 -0.0786 0.8678
-33.5412 -11.4050 -0.0785 0.8679
-33.3433 -11.7998 -0.0784 0.8681
-33.2446 -11.9967 -0.0783 0.8682
-33.0476 -12.3897 -0.0782 0.8683
-32.9493 -12.5858 -0.0782 0.8684
-32.5572 -13.3679 -0.0780 0.8687
-27.6691 -11.9654 -0.0668 0.8864
-32.0691 -14.3415 -0.0779 0.8689
-31.8742 -14.7301 -0.0778 0.8690
-31.7769 -14.9243 -0.0778 0.8690
-31.6794 -15.1184 -0.0778 0.8690
-31.3876 -15.7005 -0.0778 0.8690
-31.2903 -15.8945 -0.0778 0.8690
-29.1998 -15.0605 -0.0728 0.8768
-29.0122 -15.1916 -0.0726 0.8772
-28.6406 -15.4514 -0.0721 0.8779
-28.4566 -15.5800 -0.0719 0.8783
-28.2736 -15.7079 -0.0717 0.8786
-27.9111 -15.9614 -0.0713 0.8793
-27.7314 -16.0870 -0.0710 0.8796
-27.1983 -16.4597 -0.0705 0.8806
-27.0226 -16.5825 -0.0703 0.8809
-26.8478 -16.7047 -0.0701 0.8812
-26.6740 -16.8262 -0.0699 0.8815
-26.5011 -16.9471 -0.0697 0.8818
-25.9874 -17.3062 -0.0692 0.8826
-25.8179 -17.4247 -0.0690 0.8829
-25.6491 -17.5427 -0.0689 0.8831
-24.6526 -18.2394 -0.0680 0.8846
-24.4890 -18.3538 -0.0678 0.8848
-24.3260 -18.4677 -0.0677 0.8850
-24.5876 -18.9070 -0.0687 0.8833
-24.9607 -19.4407 -0.0701 0.8811
-25.1736 -20.1117 -0.0714 0.8791
-25.0036 -20.2305 -0.0713 0.8793
-24.6134 -20.6820 -0.0712 0.8793
-24.4450 -20.7997 -0.0711 0.8795
-24.2771 -20.9171 -0.0710 0.8797
-23.8300 -21.0510 -0.0705 0.8806
-23.4994 -21.2821 -0.0703 0.8809
-23.4454 -21.4986 -0.0705 0.8805
-22.7882 -21.9580 -0.0701 0.8811
-22.6250 -22.0721 -0.0700 0.8812
-20.8776 -20.8777 -0.0654 0.8886
-20.7258 -20.9838 -0.0654 0.8887
-20.5743 -21.0897 -0.0653 0.8888
-20.3501 -21.3827 -0.0654 0.8886
-20.1989 -21.4884 -0.0654 0.8887
-20.0480 -21.5939 -0.0653 0.8888
-19.8974 -21.6992 -0.0652 0.8889
-19.7470 -21.8044 -0.0652 0.8890
-19.2971 -22.1188 -0.0651 0.8892
-19.1476 -22.2234 -0.0650 0.8893
-18.7773 -22.3467 -0.0647 0.8898
-18.6289 -22.4505 -0.0647 0.8899
-18.4806 -22.5542 -0.0646 0.8899
-18.4024 -22.7443 -0.0648 0.8896
-15.0726 -19.8540 -0.0552 0.9051
-14.4864 -19.5801 -0.0540 0.9072
-14.2033 -19.4478 -0.0534 0.9082
-13.9264 -19.3184 -0.0528 0.9091
-13.0389 -19.0641 -0.0512 0.9118
-12.5088 -19.2967 -0.0510 0.9121
-12.4919 -19.5342 -0.0514 0.9114
-12.3470 -19.8442 -0.0518 0.9107
-12.1998 -20.1593 -0.0522 0.9101
-12.1253 -20.3188 -0.0524 0.9097
-11.9744 -20.6419 -0.0529 0.9090
-11.8979 -20.8054 -0.0531 0.9086
-11.8208 -20.9705 -0.0534 0.9082
-11.7430 -21.1370 -0.0536 0.9078
-11.5853 -21.4745 -0.0541 0.9070
-11.3432 -21.9927 -0.0548 0.9058
-11.1779 -22.3464 -0.0554 0.9049
-11.0094 -22.7071 -0.0559 0.9040
-10.9239 -22.8902 -0.0562 0.9035
-10.7501 -23.2621 -0.0568 0.9026
-10.6619 -23.4509 -0.0571 0.9021
-10.5727 -23.6417 -0.0574 0.9016
-10.3387 -23.9076 -0.0577 0.9011
-10.2545 -24.1214 -0.0581 0.9005
-10.0095 -24.8137 -0.0593 0.8985
-9.5163 -25.8691 -0.0611 0.8956
-7.3839 -20.8653 -0.0491 0.9153
-9.0996 -26.7612 -0.0626 0.8931
-8.9920 -26.9914 -0.0631 0.8924
-8.7726 -27.4609 -0.0639 0.8911
-8.6607 -27.7004 -0.0643 0.8904
-8.5473 -27.9432 -0.0648 0.8897
-8.1617 -28.5671 -0.0658 0.8879
-7.7119 -29.7609 -0.0681 0.8843
-7.5846 -30.0333 -0.0687 0.8835
-7.3242 -30.5908 -0.0697 0.8818
-7.1909 -30.8761 -0.0703 0.8809
-6.9179 -31.4604 -0.0714 0.8791
-6.3445 -32.6877 -0.0738 0.8753
-6.1950 -33.0076 -0.0744 0.8743
-6.0175 -33.1927 -0.0748 0.8738
-5.8626 -33.5177 -0.0754 0.8727
-5.7315 -34.0062 -0.0764 0.8711
-5.5711 -34.3495 -0.0771 0.8701
-5.4078 -34.6990 -0.0778 0.8689
-5.0720 -35.4178 -0.0793 0.8667
-4.7232 -36.1643 -0.0808 0.8643
-4.5437 -36.5486 -0.0816 0.8630
-4.3606 -36.9404 -0.0824 0.8618
-3.4604 -30.9581 -0.0690 0.8828
-2.8604 -30.7473 -0.0684 0.8838
-2.4680 -30.6325 -0.0681 0.8843
-2.2706 -30.5403 -0.0679 0.8847
-2.0745 -30.4486 -0.0676 0.8851
-1.8798 -30.3576 -0.0674 0.8854
-1.6863 -30.2672 -0.0672 0.8858
-1.3033 -30.0882 -0.0667 0.8865
-0.3667 -29.6506 -0.0657 0.8882
0.0000 -29.4792 -0.0653 0.8888
0.3626 -29.3098 -0.0650 0.8894
0.5423 -29.2258 -0.0648 0.8897
0.8989 -29.0592 -0.0644 0.8902
1.2439 -28.7150 -0.0637 0.8914
1.5925 -28.5823 -0.0634 0.8918
1.7685 -28.5605 -0.0634 0.8918
1.9344 -28.3923 -0.0631 0.8924
2.1050 -28.3126 -0.0629 0.8926
2.2747 -28.2333 -0.0628 0.8929
2.6282 -28.2511 -0.0629 0.8927
2.9645 -28.0940 -0.0626 0.8932
3.2979 -27.9382 -0.0623 0.8936
3.4636 -27.8607 -0.0622 0.8938
3.7930 -27.7068 -0.0620 0.8942
4.1199 -27.5541 -0.0617 0.8945
4.7666 -27.2519 -0.0613 0.8952
5.2460 -27.0279 -0.0610 0.8957
5.4048 -26.9537 -0.0609 0.8959
5.5631 -26.8797 -0.0608 0.8960
5.7209 -26.8060 -0.0607 0.8962
5.8783 -26.7324 -0.0607 0.8963
6.0352 -26.6591 -0.0606 0.8964
6.1918 -26.5860 -0.0605 0.8966
6.3085 -26.3484 -0.0600 0.8973
6.4632 -26.2761 -0.0600 0.8974
7.2802 -26.7287 -0.0614 0.8951
7.7218 -27.6738 -0.0637 0.8914
8.1974 -28.6918 -0.0661 0.8875
8.7113 -29.7916 -0.0688 0.8832
7.6416 -25.5460 -0.0591 0.8988
7.9431 -25.4051 -0.0590 0.8990
8.0935 -25.3349 -0.0589 0.8991
8.2436 -25.2647 -0.0589 0.8992
8.3935 -25.1947 -0.0589 0.8992
8.6926 -25.0549 -0.0588 0.8994
9.3185 -25.3313 -0.0598 0.8977
15.7738 -42.0742 -0.0996 0.8355
16.0262 -41.9563 -0.0995 0.8356
16.2784 -41.8385 -0.0995 0.8356
16.7822 -41.6031 -0.0994 0.8357
18.2905 -44.5461 -0.1067 0.8248
18.5605 -44.4200 -0.1067 0.8248
19.3699 -44.0419 -0.1066 0.8249
19.9091 -43.7901 -0.1066 0.8250
20.1786 -43.6642 -0.1066 0.8250
20.4482 -43.5383 -0.1066 0.8250
20.7177 -43.4124 -0.1066 0.8250
22.3314 -42.6474 -0.1067 0.8248
23.1425 -42.2691 -0.1068 0.8247
16.6380 -28.6812 -0.0735 0.8758
15.7207 -26.7177 -0.0687 0.8834
14.9883 -25.1164 -0.0648 0.8896
14.3764 -23.4276 -0.0609 0.8959
14.5315 -23.3551 -0.0610 0.8958
14.8424 -23.2098 -0.0611 0.8957
15.1233 -23.0168 -0.0610 0.8957
15.3385 -23.0327 -0.0613 0.8952
15.4955 -22.9593 -0.0614 0.8951
16.4144 -22.4753 -0.0617 0.8946
16.5386 -22.3538 -0.0616 0.8947
17.0532 -22.1768 -0.0620 0.8941
17.2140 -22.1017 -0.0621 0.8940
17.8618 -21.7990 -0.0625 0.8934
18.5205 -21.4956 -0.0629 0.8927
15.8811 -17.9776 -0.0532 0.9085
16.0680 -17.9642 -0.0534 0.9081
19.3509 -21.1032 -0.0635 0.8918
19.6886 -20.9454 -0.0637 0.8914
20.2810 -21.0478 -0.0648 0.8897
19.1113 -19.5900 -0.0607 0.8963
20.3724 -20.6259 -0.0643 0.8905
19.6018 -19.3608 -0.0611 0.8957
21.2473 -20.2213 -0.0650 0.8893
21.4242 -20.1386 -0.0652 0.8890
21.6016 -20.0552 -0.0653 0.8888
22.6850 -19.5453 -0.0664 0.8871
22.8694 -19.4591 -0.0666 0.8868
23.0549 -19.3724 -0.0667 0.8865
22.1661 -18.1626 -0.0635 0.8917
23.8079 -19.0206 -0.0675 0.8852
24.6240 -18.6938 -0.0685 0.8837
24.8204 -18.6021 -0.0687 0.8833
25.1715 -18.3834 -0.0691 0.8828
25.3715 -18.2900 -0.0693 0.8824
25.5729 -18.1959 -0.0696 0.8820
45.4003 -31.8827 -0.1230 0.8010
25.0118 -16.8806 -0.0669 0.8863
46.8577 -31.2045 -0.1248 0.7984
47.2288 -31.0318 -0.1253 0.7977
28.5817 -17.0562 -0.0738 0.8753
28.4278 -16.7269 -0.0731 0.8764
28.9212 -15.6028 -0.0728 0.8768
29.3843 -15.3864 -0.0735 0.8757
31.6370 -16.0706 -0.0786 0.8677
31.4088 -15.4690 -0.0776 0.8693
31.6615 -15.3509 -0.0780 0.8687
32.1747 -15.1111 -0.0788 0.8675
32.7578 -14.8932 -0.0798 0.8659
33.0244 -14.7687 -0.0802 0.8653
33.2336 -14.6163 -0.0805 0.8648
33.5056 -14.4893 -0.0809 0.8641
33.7094 -14.3306 -0.0812 0.8637
34.0584 -14.2310 -0.0818 0.8627
33.6590 -12.8568 -0.0798 0.8658
36.0969 -13.2788 -0.0852 0.8574
36.4018 -13.1360 -0.0858 0.8566
36.7110 -12.9915 -0.0863 0.8558
37.9878 -12.3949 -0.0886 0.8523
36.2518 -11.5810 -0.0844 0.8588
38.9904 -11.9264 -0.0904 0.8495
39.3339 -11.7660 -0.0910 0.8486
39.5986 -11.5788 -0.0914 0.8479
40.0352 -11.4382 -0.0923 0.8466
33.7874 -9.4276 -0.0777 0.8691
33.7828 -9.2015 -0.0776 0.8693
39.2709 -10.1762 -0.0899 0.8502
53.8874 -10.8055 -0.1218 0.8026
53.6271 -10.0650 -0.1209 0.8039
53.4557 -9.6910 -0.1204 0.8047
52.6744 -8.2093 -0.1182 0.8080
48.7011 -6.3606 -0.1088 0.8216
49.2185 -6.1188 -0.1099 0.8201
52.0608 -5.8193 -0.1161 0.8110
53.8028 -5.0053 -0.1198 0.8056
54.4082 -4.7224 -0.1210 0.8038
54.9110 -4.4241 -0.1222 0.8022
55.5927 -4.1331 -0.1236 0.8001
56.3096 -3.8364 -0.1251 0.7979
53.9224 -3.3389 -0.1197 0.8057
59.0422 -2.5575 -0.1310 0.7895
56.5447 -2.0990 -0.1254 0.7975
61.2707 -1.5159 -0.1358 0.7826
62.1635 -1.1534 -0.1378 0.7798
65.4593 0.8098 -0.1451 0.7696
64.7137 2.4024 -0.1435 0.7718
54.2002 2.3478 -0.1202 0.8049
63.9836 3.9621 -0.1421 0.7738
63.8033 4.3471 -0.1417 0.7743
63.6238 4.7304 -0.1414 0.7748
63.5210 5.5134 -0.1413 0.7749
63.9518 5.9495 -0.1424 0.7734
69.2552 8.6098 -0.1547 0.7564
8.2252 3.8630 -0.0201 0.9643
8.2005 3.9135 -0.0201 0.9643
8.1266 4.0650 -0.0201 0.9643
8.1020 4.1155 -0.0201 0.9643
8.0527 4.2166 -0.0201 0.9643
7.9786 4.3683 -0.0202 0.9643
7.9539 4.4189 -0.0202 0.9643
7.9292 4.4696 -0.0202 0.9642
7.8797 4.5710 -0.0202 0.9642
7.8549 4.6218 -0.0202 0.9642
7.8301 4.6727 -0.0202 0.9642
7.8053 4.7235 -0.0202 0.9642
7.6557 5.0302 -0.0203 0.9640
7.6306 5.0816 -0.0203 0.9640
7.5803 5.1846 -0.0204 0.9639
7.5046 5.3398 -0.0204 0.9638
7.4538 5.4438 -0.0205 0.9638
7.2224 5.9180 -0.0207 0.9633
7.1964 5.9714 -0.0207 0.9633
7.1702 6.0249 -0.0208 0.9632
7.1177 6.1326 -0.0208 0.9631
7.0913 6.1867 -0.0209 0.9631
7.0648 6.2409 -0.0209 0.9630
7.0383 6.2954 -0.0209 0.9629
7.0116 6.3500 -0.0210 0.9629
6.9848 6.4049 -0.0210 0.9628
6.9580 6.4599 -0.0210 0.9627
6.9310 6.5151 -0.0211 0.9627
6.9040 6.5706 -0.0211 0.9626
12.2390 11.7931 -0.0377 0.9343
19.6528 19.8975 -0.0620 0.8942
19.4723 19.9600 -0.0618 0.8945
19.3736 20.1061 -0.0619 0.8943
11.0654 11.9186 -0.0360 0.9370
15.0236 16.5889 -0.0496 0.9144
14.9030 16.6617 -0.0495 0.9145
10.0902 11.4223 -0.0338 0.9409
8.4561 9.6926 -0.0285 0.9498
9.4886 11.1515 -0.0325 0.9431
9.2180 10.9703 -0.0318 0.9443
8.9195 10.8856 -0.0312 0.9453
8.7395 10.8015 -0.0308 0.9459
8.5640 10.7195 -0.0304 0.9466
8.3929 10.6396 -0.0300 0.9472
8.0771 10.5038 -0.0294 0.9484
12.7502 17.0123 -0.0471 0.9185
11.9256 16.7604 -0.0456 0.9210
10.6080 16.1448 -0.0428 0.9256
10.1663 15.8977 -0.0418 0.9273
9.8692 15.8618 -0.0414 0.9280
9.6791 15.7730 -0.0410 0.9286
7.8369 13.3192 -0.0343 0.9401
7.5684 13.2346 -0.0338 0.9408
7.1813 12.9261 -0.0328 0.9426
7.0965 12.9616 -0.0328 0.9426
6.9946 12.9651 -0.0326 0.9428
6.5504 13.0952 -0.0325 0.9431
6.4710 13.1391 -0.0325 0.9431
5.5032 12.3058 -0.0299 0.9475
5.3055 12.0633 -0.0292 0.9487
5.1449 12.1022 -0.0291 0.9488
5.0354 12.0510 -0.0289 0.9491
4.8207 11.9507 -0.0286 0.9498
4.6502 11.7366 -0.0280 0.9508
4.4929 11.7625 -0.0279 0.9509
4.4108 11.7653 -0.0278 0.9510
4.3291 11.7681 -0.0278 0.9511
4.1665 11.7736 -0.0277 0.9513
4.0857 11.7764 -0.0276 0.9514
3.9959 11.7518 -0.0275 0.9516
3.9656 11.9036 -0.0278 0.9511
3.8965 11.9418 -0.0278 0.9510
3.7577 12.0186 -0.0279 0.9509
3.6761 12.0179 -0.0279 0.9510
3.4780 12.1734 -0.0281 0.9506
3.4076 12.2123 -0.0281 0.9505
3.3045 12.1322 -0.0279 0.9509
3.2548 12.2481 -0.0281 0.9506
3.1371 12.4223 -0.0284 0.9500
3.0773 12.5109 -0.0286 0.9498
3.0168 12.6004 -0.0287 0.9495
2.7419 12.4694 -0.0283 0.9502
2.6522 12.4274 -0.0282 0.9504
2.3882 12.3040 -0.0278 0.9511
2.0484 12.1533 -0.0273 0.9519
1.6463 12.0253 -0.0269 0.9526
1.5648 11.9816 -0.0268 0.9528
1.4056 11.9072 -0.0266 0.9532
1.0841 11.6528 -0.0259 0.9543
0.9367 11.6258 -0.0258 0.9544
0.8617 11.5908 -0.0258 0.9546
0.7873 11.5561 -0.0257 0.9547
0.5649 11.4084 -0.0253 0.9553
0.4938 11.4001 -0.0253 0.9554
0.4250 11.4490 -0.0254 0.9552
0.3531 11.4154 -0.0253 0.9553
0.2819 11.3928 -0.0252 0.9554
0.2106 11.3499 -0.0252 0.9556
0.1400 11.3171 -0.0251 0.9557
-0.0694 11.2197 -0.0248 0.9561
-0.1384 11.1877 -0.0248 0.9562
-0.4066 10.9517 -0.0243 0.9571
-0.5399 10.9032 -0.0243 0.9573
-0.6733 10.8735 -0.0241 0.9574
-0.7388 10.8430 -0.0241 0.9575
-0.8039 10.8125 -0.0240 0.9576
-0.9332 10.7521 -0.0239 0.9577
-0.9975 10.7221 -0.0239 0.9578
-1.0614 10.6922 -0.0238 0.9579
-1.1251 10.6624 -0.0238 0.9580
-1.1885 10.6328 -0.0237 0.9581
-1.2517 10.6033 -0.0237 0.9582
-1.2429 9.9979 -0.0223 0.9605
-1.3060 10.0001 -0.0224 0.9605
-1.3808 9.6420 -0.0216 0.9618
-1.3742 9.1909 -0.0206 0.9635
-1.4329 9.1939 -0.0206 0.9635
-1.5288 9.0709 -0.0204 0.9639
-1.5760 9.0104 -0.0203 0.9641
-2.0884 8.7224 -0.0199 0.9648
-2.1332 8.6723 -0.0198 0.9649
-2.2925 8.6270 -0.0198 0.9649
-2.3939 8.5796 -0.0197 0.9650
-2.6416 8.4488 -0.0196 0.9652
-2.7580 8.4528 -0.0197 0.9651
-2.8167 8.4548 -0.0198 0.9650
-2.9347 8.4589 -0.0198 0.9648
-2.9942 8.4609 -0.0199 0.9647
-3.3832 8.6954 -0.0207 0.9634
-3.4799 8.7828 -0.0209 0.9629
-3.5610 8.8276 -0.0211 0.9626
-3.6433 8.8732 -0.0213 0.9624
-3.7074 8.8726 -0.0213 0.9623
-3.8246 8.8441 -0.0214 0.9622
-4.1462 9.4273 -0.0228 0.9596
-4.5469 10.1673 -0.0247 0.9564
-7.2262 15.3861 -0.0377 0.9343
-7.3214 15.3416 -0.0377 0.9343
-13.6095 24.8575 -0.0628 0.8928
-12.0858 21.7539 -0.0552 0.9053
-9.6970 16.9567 -0.0433 0.9248
-9.7517 16.5733 -0.0426 0.9260
-4.6372 7.6626 -0.0198 0.9648
-4.7260 7.5956 -0.0198 0.9648
-4.7888 7.5915 -0.0199 0.9647
-20.1033 26.4805 -0.0737 0.8755
-49.5651 22.9055 -0.1210 0.8038
-49.9674 22.7175 -0.1216 0.8029
-50.3638 22.1502 -0.1219 0.8025
-50.1265 21.6769 -0.1210 0.8038
-48.7723 18.9761 -0.1160 0.8111
-48.3455 18.1249 -0.1144 0.8134
-47.9300 17.2960 -0.1129 0.8156
-47.7263 16.8896 -0.1122 0.8167
-47.3265 16.0923 -0.1108 0.8188
-47.1305 15.7012 -0.1101 0.8198
-46.7454 14.9332 -0.1088 0.8218
-46.0024 13.4513 -0.1062 0.8255
-45.8221 13.0915 -0.1056 0.8264
-45.6437 12.7358 -0.1050 0.8273
-45.2930 12.0361 -0.1039 0.8291
-44.9498 11.3517 -0.1027 0.8307
-44.4485 10.3518 -0.1011 0.8331
-44.1229 9.7023 -0.1001 0.8347
-43.9623 9.3823 -0.0996 0.8354
-43.6463 8.7519 -0.0987 0.8369
-43.3363 8.1336 -0.0977 0.8383
-42.8820 7.2275 -0.0964 0.8403
-42.7333 6.9309 -0.0959 0.8410
-41.7281 4.9257 -0.0931 0.8453
-41.5892 4.6487 -0.0927 0.8459
-41.0449 3.5625 -0.0913 0.8481
-39.4253 2.4412 -0.0875 0.8538
-40.3869 2.2501 -0.0896 0.8506
-40.2582 1.9933 -0.0893 0.8511
-40.1303 1.7383 -0.0890 0.8516
-39.6274 0.7352 -0.0878 0.8534
-39.2602 -0.0000 -0.3785 0.8547
-39.1388 -0.2421 -0.3773 0.8551
-38.8983 -0.7218 -0.3751 0.8559
-38.5428 -1.4308 -0.3718 0.8570
-38.4256 -1.6645 -0.3708 0.8574
-37.9634 -2.5865 -0.3669 0.8588
-37.5106 -3.4897 -0.3632 0.8601
-37.3988 -3.7127 -0.3623 0.8604
-37.2875 -3.9346 -0.3615 0.8607
-37.1768 -4.1556 -0.3607 0.8610
-36.9567 -4.5945 -0.3590 0.8616
-36.6301 -5.2456 -0.3568 0.8624
-36.5222 -5.4609 -0.3560 0.8627
-36.3077 -5.8888 -0.3546 0.8632
-35.7784 -6.9445 -0.3514 0.8643
-35.4653 -7.5690 -0.3496 0.8650
-35.1552 -8.1875 -0.3480 0.8655
-35.0525 -8.3924 -0.3475 0.8657
-34.9500 -8.5968 -0.3470 0.8659
-34.7460 -9.0038 -0.3461 0.8663
-34.6444 -9.2064 -0.3456 0.8664
-34.3411 -9.8114 -0.3443 0.8669
-34.1403 -10.2125 -0.3436 0.8671
-33.8404 -10.8107 -0.3425 0.8675
-33.6415 -11.2075 -0.3419 0.8678
-33.3444 -11.8002 -0.3410 0.8681
-33.1471 -12.1937 -0.3405 0.8682
-33.0486 -12.3901 -0.3403 0.8683
-32.8521 -12.7820 -0.3399 0.8685
-32.7540 -12.9777 -0.3397 0.8685
-32.6561 -13.1731 -0.3395 0.8686
-32.2651 -13.9529 -0.3389 0.8688
-27.4829 -12.0871 -0.2895 0.8868
-32.0701 -14.3420 -0.3387 0.8689
-31.8752 -14.7306 -0.3385 0.8690
-31.7779 -14.9248 -0.3385 0.8690
-31.2913 -15.8950 -0.3384 0.8690
-30.9020 -16.6714 -0.3385 0.8690
-30.2507 -16.5623 -0.3325 0.8711
-26.8496 -16.7057 -0.3049 0.8812
-26.5027 -16.9482 -0.3033 0.8818
-25.9890 -17.3073 -0.3010 0.8826
-25.8195 -17.4258 -0.3003 0.8828
-25.6507 -17.5438 -0.2996 0.8831
-25.3156 -17.7781 -0.2982 0.8836
-25.1491 -17.8944 -0.2976 0.8838
-24.6541 -18.2405 -0.2957 0.8845
-24.9572 -19.4380 -0.3050 0.8811
-25.3453 -19.9934 -0.3112 0.8789
-25.1751 -20.1129 -0.3107 0.8791
-24.9535 -20.4465 -0.3110 0.8789
-24.4465 -20.8010 -0.3095 0.8795
-24.2786 -20.9184 -0.3090 0.8797
-24.1112 -21.0354 -0.3085 0.8799
-23.6659 -21.1680 -0.3061 0.8807
-23.2818 -21.6152 -0.3063 0.8807
-23.1173 -21.7302 -0.3059 0.8808
-22.9532 -21.8449 -0.3055 0.8810
-22.7895 -21.9593 -0.3051 0.8811
-22.6263 -22.0734 -0.3048 0.8812
-20.7270 -20.9850 -0.2844 0.8887
-20.5755 -21.0909 -0.2841 0.8888
-20.4243 -21.1966 -0.2838 0.8889
-20.3513 -21.3839 -0.2846 0.8886
-20.0492 -21.5951 -0.2841 0.8888
-19.8985 -21.7005 -0.2839 0.8889
-19.7481 -21.8056 -0.2836 0.8890
-19.4480 -22.0155 -0.2832 0.8891
-19.2982 -22.1202 -0.2830 0.8892
-19.1487 -22.2247 -0.2828 0.8893
-18.9993 -22.3291 -0.2827 0.8893
-18.1064 -22.9533 -0.2819 0.8896
-17.9580 -23.0571 -0.2818 0.8897
-17.6616 -23.2643 -0.2816 0.8897
-14.6783 -20.0983 -0.2399 0.9052
-13.7718 -19.6107 -0.2310 0.9086
-13.0405 -19.0666 -0.2227 0.9117
-12.6501 -18.9957 -0.2200 0.9127
-12.5799 -19.1460 -0.2209 0.9124
-12.4923 -19.5349 -0.2236 0.9114
-12.4202 -19.6893 -0.2244 0.9111
-12.2002 -20.1600 -0.2272 0.9100
-12.0506 -20.4804 -0.2291 0.9093
-11.9748 -20.6426 -0.2301 0.9090
-11.8983 -20.8062 -0.2311 0.9086
-11.7434 -21.1378 -0.2331 0.9078
-11.6649 -21.3058 -0.2342 0.9074
-11.5857 -21.4753 -0.2353 0.9070
-11.4251 -21.8191 -0.2375 0.9062
-11.0098 -22.7080 -0.2433 0.9040
-10.9243 -22.8911 -0.2445 0.9035
-10.8379 -23.0761 -0.2458 0.9030
-10.6623 -23.4518 -0.2484 0.9021
-10.3391 -23.9086 -0.2511 0.9010
-10.0099 -24.8147 -0.2580 0.8985
-9.9136 -25.0208 -0.2595 0.8979
-9.8161 -25.2294 -0.2610 0.8974
-9.7175 -25.4404 -0.2626 0.8968
-9.6177 -25.6540 -0.2641 0.8962
-9.5167 -25.8702 -0.2658 0.8956
-8.8834 -27.2258 -0.2761 0.8918
-8.7730 -27.4621 -0.2779 0.8911
-8.5477 -27.9444 -0.2817 0.8897
-8.4327 -28.1906 -0.2837 0.8890
-8.1621 -28.5684 -0.2864 0.8879
-8.0427 -28.8240 -0.2885 0.8872
-7.9613 -29.2294 -0.2921 0.8859
-7.5850 -30.0347 -0.2987 0.8835
-7.3245 -30.5923 -0.3033 0.8818
-7.1912 -30.8776 -0.3057 0.8809
-6.4918 -32.3747 -0.3183 0.8763
-6.3448 -32.6893 -0.3210 0.8753
-5.8629 -33.5195 -0.3281 0.8727
-5.7318 -34.0079 -0.3325 0.8711
-5.4081 -34.7008 -0.3386 0.8689
-4.7235 -36.1663 -0.3516 0.8642
-4.3608 -36.9424 -0.3586 0.8617
-3.4608 -30.9612 -0.3004 0.8828
-3.2519 -30.8180 -0.2988 0.8834
-2.6670 -30.7277 -0.2974 0.8839
-2.4682 -30.6348 -0.2963 0.8843
-2.2707 -30.5425 -0.2953 0.8847
-0.9252 -29.9137 -0.2885 0.8872
-0.7379 -29.8262 -0.2876 0.8875
-0.1828 -29.5668 -0.2851 0.8885
0.3626 -29.3119 -0.2826 0.8894
0.5423 -29.2279 -0.2818 0.8896
0.8989 -29.0613 -0.2803 0.8902
1.0691 -28.7987 -0.2778 0.8911
1.7687 -28.5623 -0.2759 0.8918
2.4591 -28.3321 -0.2742 0.8925
2.6284 -28.2530 -0.2736 0.8927
2.9647 -28.0959 -0.2724 0.8931
3.6289 -27.7855 -0.2702 0.8940
3.7933 -27.7087 -0.2696 0.8942
4.1202 -27.5560 -0.2686 0.8945
4.2827 -27.4800 -0.2681 0.8947
4.4447 -27.4043 -0.2677 0.8949
4.6061 -27.3289 -0.2672 0.8951
5.0870 -27.1041 -0.2659 0.8956
5.5634 -26.8815 -0.2647 0.8960
5.7213 -26.8078 -0.2643 0.8961
5.8787 -26.7342 -0.2639 0.8963
6.0356 -26.6609 -0.2635 0.8964
6.1922 -26.5877 -0.2632 0.8965
6.3089 -26.3501 -0.2612 0.8973
6.7748 -26.1442 -0.2604 0.8976
7.2814 -26.7333 -0.2671 0.8951
7.7231 -27.6787 -0.2770 0.8914
8.7130 -29.7974 -0.2993 0.8832
8.2441 -25.2664 -0.2562 0.8991
8.5437 -25.1264 -0.2559 0.8993
8.8425 -24.9868 -0.2555 0.8994
9.3267 -25.3534 -0.2605 0.8976
16.5314 -41.7234 -0.4327 0.8357
18.2916 -44.5488 -0.4643 0.8248
18.5617 -44.4227 -0.4642 0.8248
18.8316 -44.2966 -0.4641 0.8249
19.1014 -44.1706 -0.4640 0.8249
19.3711 -44.0446 -0.4639 0.8249
19.6408 -43.9187 -0.4638 0.8249
19.9103 -43.7928 -0.4638 0.8249
20.1799 -43.6669 -0.4638 0.8250
20.4494 -43.5410 -0.4638 0.8250
20.7190 -43.4151 -0.4638 0.8250
20.9476 -43.2046 -0.4629 0.8252
12.0452 -24.0802 -0.2596 0.8979
12.2389 -24.0937 -0.2605 0.8975
