ply
format ascii 1.0
element vertex 1596
property float32 x
property float32 y
property float32 z
property float32 I
end_header
0.5188 -6.9785 -2.3304 0.9709
0.5620 -6.9752 -2.3304 0.9709
0.6051 -6.9717 -2.3305 0.9709
0.6913 -6.9639 -2.3305 0.9709
0.7774 -6.9550 -2.3306 0.9709
0.9064 -6.9398 -2.3308 0.9709
0.9922 -6.9284 -2.3309 0.9709
1.0350 -6.9223 -2.3309 0.9709
1.1206 -6.9093 -2.3310 0.9709
1.4189 -6.8559 -2.3316 0.9709
1.4613 -6.8472 -2.3316 0.9709
1.5037 -6.8383 -2.3317 0.9709
1.5460 -6.8292 -2.3318 0.9709
1.6727 -6.8002 -2.3321 0.9709
1.7568 -6.7795 -2.3323 0.9709
1.8825 -6.7467 -2.3326 0.9709
2.0492 -6.6994 -2.3331 0.9709
2.1321 -6.6742 -2.3333 0.9709
2.2148 -6.6481 -2.3336 0.9709
2.2559 -6.6346 -2.3337 0.9709
2.2971 -6.6209 -2.3339 0.9709
2.3381 -6.6070 -2.3340 0.9709
2.3791 -6.5928 -2.3341 0.9709
2.4607 -6.5636 -2.3344 0.9709
2.5421 -6.5336 -2.3347 0.9709
2.5826 -6.5181 -2.3349 0.9709
2.6230 -6.5025 -2.3350 0.9709
2.7036 -6.4704 -2.3353 0.9709
2.9034 -6.3860 -2.3362 0.9709
2.9430 -6.3684 -2.3363 0.9709
3.0220 -6.3325 -2.3367 0.9709
3.1006 -6.2956 -2.3371 0.9708
3.1397 -6.2768 -2.3372 0.9708
3.1787 -6.2578 -2.3374 0.9708
3.2176 -6.2385 -2.3376 0.9708
3.2951 -6.1992 -2.3380 0.9708
3.3721 -6.1591 -2.3384 0.9708
3.5625 -6.0545 -2.3394 0.9708
3.7868 -5.9216 -2.3408 0.9708
3.8237 -5.8986 -2.3410 0.9708
3.8604 -5.8754 -2.3412 0.9708
3.9700 -5.8045 -2.3419 0.9708
4.1140 -5.7069 -2.3429 0.9708
4.2205 -5.6314 -2.3436 0.9708
4.2557 -5.6058 -2.3439 0.9708
4.3605 -5.5277 -2.3447 0.9708
4.4295 -5.4746 -2.3452 0.9707
4.4638 -5.4477 -2.3455 0.9707
4.4979 -5.4206 -2.3457 0.9707
4.5319 -5.3933 -2.3460 0.9707
4.6327 -5.3102 -2.3468 0.9707
4.6992 -5.2537 -2.3474 0.9707
4.7322 -5.2252 -2.3477 0.9707
4.7976 -5.1675 -2.3482 0.9707
4.8301 -5.1384 -2.3485 0.9707
4.8624 -5.1091 -2.3488 0.9707
4.8945 -5.0796 -2.3491 0.9707
4.9264 -5.0498 -2.3494 0.9707
4.9582 -5.0199 -2.3497 0.9707
5.0524 -4.9290 -2.3506 0.9707
5.1450 -4.8363 -2.3515 0.9707
5.1755 -4.8050 -2.3519 0.9707
5.2058 -4.7735 -2.3522 0.9707
5.2658 -4.7101 -2.3528 0.9707
5.2956 -4.6780 -2.3531 0.9706
5.4700 -4.4821 -2.3551 0.9706
5.5266 -4.4153 -2.3557 0.9706
5.6100 -4.3139 -2.3568 0.9706
5.6645 -4.2454 -2.3574 0.9706
5.7183 -4.1762 -2.3581 0.9706
5.7712 -4.1064 -2.3588 0.9706
5.8490 -4.0004 -2.3599 0.9706
5.8998 -3.9290 -2.3606 0.9706
5.9249 -3.8930 -2.3610 0.9706
5.9498 -3.8569 -2.3613 0.9705
5.9989 -3.7842 -2.3620 0.9705
6.0231 -3.7476 -2.3624 0.9705
6.0471 -3.7108 -2.3628 0.9705
6.0709 -3.6739 -2.3631 0.9705
6.1178 -3.5997 -2.3639 0.9705
6.2089 -3.4495 -2.3654 0.9705
6.2311 -3.4115 -2.3658 0.9705
6.2531 -3.3735 -2.3661 0.9705
6.2964 -3.2970 -2.3669 0.9705
6.3176 -3.2585 -2.3673 0.9705
6.3387 -3.2199 -2.3677 0.9705
6.3595 -3.1811 -2.3681 0.9705
6.4005 -3.1033 -2.3688 0.9705
6.4206 -3.0641 -2.3692 0.9705
6.4405 -3.0249 -2.3696 0.9704
6.4988 -2.9063 -2.3708 0.9704
6.5177 -2.8665 -2.3712 0.9704
6.5731 -2.7465 -2.3724 0.9704
6.5911 -2.7063 -2.3728 0.9704
6.6088 -2.6659 -2.3732 0.9704
6.6435 -2.5849 -2.3740 0.9704
6.6605 -2.5442 -2.3744 0.9704
6.6773 -2.5034 -2.3748 0.9704
6.7101 -2.4214 -2.3757 0.9704
6.7261 -2.3803 -2.3761 0.9704
6.7418 -2.3391 -2.3765 0.9704
6.7876 -2.2147 -2.3777 0.9703
6.8169 -2.1314 -2.3786 0.9703
6.8311 -2.0895 -2.3790 0.9703
6.8451 -2.0476 -2.3794 0.9703
6.8724 -1.9635 -2.3802 0.9703
6.8856 -1.9213 -2.3807 0.9703
6.9113 -1.8366 -2.3815 0.9703
6.9237 -1.7942 -2.3819 0.9703
6.9710 -1.6236 -2.3836 0.9703
6.9822 -1.5807 -2.3841 0.9703
7.0037 -1.4947 -2.3849 0.9703
7.0141 -1.4516 -2.3854 0.9703
7.0708 -1.1918 -2.3880 0.9702
7.0956 -1.0610 -2.3893 0.9702
7.1108 -0.9735 -2.3902 0.9702
7.1249 -0.8858 -2.3910 0.9702
7.1316 -0.8419 -2.3915 0.9702
7.1441 -0.7539 -2.3924 0.9702
7.1499 -0.7098 -2.3928 0.9702
7.1555 -0.6657 -2.3932 0.9702
7.1658 -0.5774 -2.3941 0.9701
7.1793 -0.4446 -2.3955 0.9701
7.1832 -0.4002 -2.3959 0.9701
7.2012 -0.1337 -2.3986 0.9701
7.2076 0.0446 -2.4004 0.9701
7.2097 0.2229 -2.4022 0.9700
7.2095 0.2676 -2.4026 0.9700
7.2091 0.3122 -2.4031 0.9700
7.2083 0.3569 -2.4035 0.9700
7.2074 0.4015 -2.4039 0.9700
7.2061 0.4462 -2.4044 0.9700
7.2045 0.4908 -2.4048 0.9700
7.2027 0.5355 -2.4053 0.9700
7.2006 0.5801 -2.4057 0.9700
7.1926 0.7140 -2.4071 0.9700
7.1821 0.8478 -2.4084 0.9700
7.1781 0.8923 -2.4089 0.9700
7.1691 0.9814 -2.4098 0.9700
7.1643 1.0259 -2.4102 0.9699
7.1591 1.0704 -2.4107 0.9699
7.1537 1.1149 -2.4111 0.9699
7.1357 1.2481 -2.4124 0.9699
7.1292 1.2924 -2.4129 0.9699
7.1153 1.3810 -2.4138 0.9699
7.1003 1.4695 -2.4147 0.9699
7.0923 1.5136 -2.4151 0.9699
7.0669 1.6459 -2.4164 0.9699
7.0579 1.6898 -2.4169 0.9699
7.0486 1.7338 -2.4173 0.9699
7.0390 1.7776 -2.4178 0.9699
6.9980 1.9526 -2.4195 0.9698
6.9870 1.9962 -2.4200 0.9698
6.9758 2.0398 -2.4204 0.9698
6.9526 2.1266 -2.4213 0.9698
6.9282 2.2133 -2.4221 0.9698
6.9156 2.2565 -2.4226 0.9698
6.9028 2.2996 -2.4230 0.9698
6.8897 2.3427 -2.4235 0.9698
6.8487 2.4714 -2.4247 0.9698
6.8345 2.5142 -2.4252 0.9698
6.7750 2.6843 -2.4269 0.9697
6.7595 2.7266 -2.4273 0.9697
6.7436 2.7689 -2.4277 0.9697
6.7276 2.8110 -2.4282 0.9697
6.7112 2.8531 -2.4286 0.9697
6.6946 2.8950 -2.4290 0.9697
6.6432 3.0203 -2.4303 0.9697
6.5333 3.2680 -2.4328 0.9697
6.4748 3.3904 -2.4340 0.9697
6.4345 3.4713 -2.4348 0.9696
6.3076 3.7113 -2.4372 0.9696
6.2855 3.7509 -2.4376 0.9696
6.2407 3.8296 -2.4384 0.9696
6.1949 3.9077 -2.4392 0.9696
6.1716 3.9466 -2.4396 0.9696
6.1242 4.0239 -2.4404 0.9696
6.1002 4.0624 -2.4408 0.9696
6.0759 4.1007 -2.4412 0.9696
6.0016 4.2147 -2.4423 0.9696
5.9509 4.2899 -2.4431 0.9695
5.8730 4.4016 -2.4442 0.9695
5.7929 4.5118 -2.4453 0.9695
5.7658 4.5483 -2.4457 0.9695
5.7108 4.6206 -2.4464 0.9695
5.6830 4.6565 -2.4468 0.9695
5.5981 4.7632 -2.4478 0.9695
5.5403 4.8335 -2.4485 0.9695
5.5111 4.8684 -2.4489 0.9695
5.4222 4.9719 -2.4499 0.9695
5.3312 5.0738 -2.4510 0.9694
5.3005 5.1074 -2.4513 0.9694
5.2695 5.1407 -2.4516 0.9694
5.1754 5.2398 -2.4526 0.9694
5.1115 5.3048 -2.4533 0.9694
5.0793 5.3370 -2.4536 0.9694
5.0469 5.3690 -2.4540 0.9694
4.9814 5.4325 -2.4546 0.9694
4.9483 5.4639 -2.4549 0.9694
4.9151 5.4951 -2.4552 0.9694
4.6850 5.4376 -2.3903 0.9702
4.5358 5.3980 -2.3480 0.9707
4.3472 5.3729 -2.3016 0.9713
4.2815 5.4275 -2.3022 0.9713
4.2483 5.4546 -2.3025 0.9713
4.2150 5.4814 -2.3027 0.9713
4.1815 5.5080 -2.3030 0.9713
4.1479 5.5344 -2.3033 0.9713
4.1140 5.5605 -2.3035 0.9713
4.0459 5.6123 -2.3041 0.9713
4.0115 5.6378 -2.3043 0.9712
3.9770 5.6632 -2.3046 0.9712
3.9424 5.6883 -2.3048 0.9712
3.8374 5.7623 -2.3056 0.9712
3.8021 5.7865 -2.3058 0.9712
3.6953 5.8579 -2.3066 0.9712
3.5870 5.9273 -2.3073 0.9712
3.5507 5.9500 -2.3075 0.9712
3.5142 5.9724 -2.3077 0.9712
3.4775 5.9946 -2.3079 0.9712
3.4407 6.0165 -2.3082 0.9712
3.3667 6.0598 -2.3086 0.9712
3.2546 6.1229 -2.3092 0.9712
3.2169 6.1435 -2.3095 0.9712
3.1032 6.2037 -2.3101 0.9712
3.0650 6.2234 -2.3103 0.9712
3.0268 6.2427 -2.3105 0.9712
2.9498 6.2807 -2.3109 0.9712
2.8724 6.3178 -2.3112 0.9712
2.8335 6.3359 -2.3114 0.9712
2.7945 6.3538 -2.3116 0.9712
2.7161 6.3889 -2.3120 0.9712
2.6767 6.4061 -2.3121 0.9712
2.6373 6.4230 -2.3123 0.9712
2.5182 6.4722 -2.3128 0.9711
2.4783 6.4881 -2.3130 0.9711
2.4383 6.5038 -2.3131 0.9711
2.3177 6.5492 -2.3136 0.9711
2.1962 6.5923 -2.3140 0.9711
2.1148 6.6198 -2.3143 0.9711
2.0330 6.6462 -2.3146 0.9711
1.9508 6.6716 -2.3149 0.9711
1.9096 6.6839 -2.3150 0.9711
1.8270 6.7077 -2.3152 0.9711
1.7025 6.7415 -2.3156 0.9711
1.5774 6.7729 -2.3159 0.9711
1.5355 6.7828 -2.3160 0.9711
1.4936 6.7924 -2.3161 0.9711
1.4517 6.8018 -2.3162 0.9711
1.4096 6.8109 -2.3163 0.9711
1.3675 6.8198 -2.3164 0.9711
1.1562 6.8601 -2.3168 0.9711
1.0714 6.8743 -2.3170 0.9711
0.8584 6.9051 -2.3173 0.9711
0.7302 6.9203 -2.3174 0.9711
0.6875 6.9248 -2.3175 0.9711
0.6446 6.9291 -2.3175 0.9711
0.6018 6.9330 -2.3176 0.9711
0.5160 6.9402 -2.3177 0.9711
0.4301 6.9463 -2.3177 0.9711
0.3872 6.9489 -2.3177 0.9711
0.3442 6.9512 -2.3178 0.9711
0.2582 6.9551 -2.3178 0.9711
0.1721 6.9579 -2.3179 0.9711
0.0430 6.9599 -2.3179 0.9711
-0.0000 6.9601 -2.3179 0.9711
-0.0430 6.9600 -2.3179 0.9711
-0.0861 6.9596 -2.3179 0.9711
-0.1291 6.9589 -2.3179 0.9711
-0.1722 6.9579 -2.3179 0.9711
-0.2152 6.9567 -2.3179 0.9711
-0.3442 6.9514 -2.3178 0.9711
-0.3872 6.9491 -2.3178 0.9711
-0.4731 6.9436 -2.3178 0.9711
-0.5160 6.9404 -2.3177 0.9711
-0.6018 6.9334 -2.3177 0.9711
-0.7303 6.9206 -2.3176 0.9711
-0.7730 6.9159 -2.3175 0.9711
-0.8585 6.9054 -2.3174 0.9711
-0.9438 6.8940 -2.3173 0.9711
-0.9864 6.8879 -2.3172 0.9711
-1.1987 6.8531 -2.3169 0.9711
-1.2833 6.8373 -2.3168 0.9711
-1.3676 6.8204 -2.3166 0.9711
-1.4518 6.8025 -2.3164 0.9711
-1.5357 6.7835 -2.3162 0.9711
-1.5775 6.7735 -2.3161 0.9711
-1.6193 6.7634 -2.3160 0.9711
-1.6611 6.7530 -2.3159 0.9711
-1.7027 6.7422 -2.3158 0.9711
-1.7443 6.7313 -2.3157 0.9711
-1.9099 6.6847 -2.3153 0.9711
-1.9511 6.6725 -2.3152 0.9711
-1.9922 6.6599 -2.3150 0.9711
-2.0332 6.6471 -2.3149 0.9711
-2.0742 6.6340 -2.3148 0.9711
-2.3180 6.5502 -2.3140 0.9711
-2.3985 6.5202 -2.3137 0.9711
-2.4787 6.4892 -2.3134 0.9711
-2.5584 6.4571 -2.3130 0.9711
-2.7166 6.3901 -2.3124 0.9712
-2.7558 6.3727 -2.3122 0.9712
-2.8340 6.3371 -2.3119 0.9712
-2.8729 6.3190 -2.3117 0.9712
-2.9504 6.2820 -2.3113 0.9712
-3.0274 6.2440 -2.3109 0.9712
-3.0657 6.2246 -2.3107 0.9712
-3.1798 6.1652 -2.3102 0.9712
-3.2552 6.1242 -2.3097 0.9712
-3.2928 6.1035 -2.3095 0.9712
-3.3301 6.0824 -2.3093 0.9712
-3.3674 6.0612 -2.3091 0.9712
-3.4045 6.0397 -2.3089 0.9712
-3.4415 6.0179 -2.3087 0.9712
-3.4783 5.9960 -2.3085 0.9712
-3.5515 5.9513 -2.3080 0.9712
-3.6241 5.9058 -2.3076 0.9712
-3.8031 5.7880 -2.3064 0.9712
-3.8384 5.7638 -2.3062 0.9712
-3.8735 5.7393 -2.3059 0.9712
-3.9085 5.7147 -2.3057 0.9712
-3.9434 5.6898 -2.3054 0.9712
-3.9781 5.6647 -2.3052 0.9712
-4.0126 5.6394 -2.3049 0.9712
-4.0469 5.6138 -2.3047 0.9712
-4.0811 5.5881 -2.3044 0.9712
-4.2495 5.4561 -2.3031 0.9713
-4.3157 5.4019 -2.3026 0.9713
-4.3811 5.3468 -2.3020 0.9713
-4.4135 5.3189 -2.3018 0.9713
-4.5098 5.2342 -2.3009 0.9713
-4.5731 5.1768 -2.3003 0.9713
-4.6044 5.1478 -2.3001 0.9713
-4.6666 5.0891 -2.2995 0.9713
-4.7601 5.0016 -2.2994 0.9713
-4.8918 5.0143 -2.3329 0.9709
-5.2014 5.0742 -2.4199 0.9698
-5.3330 5.0755 -2.4518 0.9694
-5.3939 5.0077 -2.4511 0.9694
-5.4240 4.9736 -2.4508 0.9695
-5.6000 4.7649 -2.4487 0.9695
-5.6286 4.7295 -2.4483 0.9695
-5.6569 4.6939 -2.4480 0.9695
-5.6850 4.6582 -2.4476 0.9695
-5.7128 4.6223 -2.4473 0.9695
-5.7950 4.5135 -2.4462 0.9695
-5.8220 4.4769 -2.4458 0.9695
-5.8487 4.4401 -2.4455 0.9695
-5.9014 4.3661 -2.4447 0.9695
-5.9273 4.3289 -2.4443 0.9695
-5.9531 4.2915 -2.4440 0.9695
-5.9786 4.2539 -2.4436 0.9695
-6.0289 4.1784 -2.4428 0.9695
-6.0537 4.1404 -2.4425 0.9696
-6.0782 4.1022 -2.4421 0.9696
-6.1504 3.9869 -2.4409 0.9696
-6.1739 3.9481 -2.4405 0.9696
-6.2431 3.8311 -2.4394 0.9696
-6.2880 3.7523 -2.4386 0.9696
-6.3101 3.7128 -2.4382 0.9696
-6.4166 3.5131 -2.4362 0.9696
-6.4371 3.4727 -2.4358 0.9696
-6.4972 3.3511 -2.4346 0.9696
-6.5360 3.2694 -2.4338 0.9697
-6.5549 3.2283 -2.4333 0.9697
-6.5737 3.1872 -2.4329 0.9697
-6.5921 3.1459 -2.4325 0.9697
-6.6283 3.0631 -2.4317 0.9697
-6.6634 2.9799 -2.4309 0.9697
-6.7304 2.8122 -2.4292 0.9697
-6.8229 2.5579 -2.4266 0.9697
-6.8374 2.5152 -2.4262 0.9698
-6.8516 2.4725 -2.4258 0.9698
-6.9186 2.2574 -2.4236 0.9698
-6.9312 2.2142 -2.4232 0.9698
-6.9901 1.9971 -2.4210 0.9698
-7.0011 1.9535 -2.4206 0.9698
-7.0118 1.9098 -2.4202 0.9698
-7.0222 1.8660 -2.4197 0.9698
-7.0323 1.8222 -2.4193 0.9698
-7.0517 1.7345 -2.4184 0.9698
-7.0610 1.6906 -2.4180 0.9699
-7.0788 1.6025 -2.4171 0.9699
-7.1034 1.4701 -2.4157 0.9699
-7.1184 1.3816 -2.4149 0.9699
-7.1255 1.3373 -2.4144 0.9699
-7.1853 0.8482 -2.4095 0.9700
-7.1926 0.7590 -2.4086 0.9700
-7.2014 0.6250 -2.4073 0.9700
-7.2059 0.5357 -2.4064 0.9700
-7.2078 0.4911 -2.4059 0.9700
-7.2106 0.4017 -2.4050 0.9700
-7.2116 0.3571 -2.4046 0.9700
-7.2123 0.3124 -2.4041 0.9700
-7.2109 0.0446 -2.4015 0.9701
-7.0319 -0.0870 -2.4001 0.9707
-7.0277 -0.1739 -2.3992 0.9707
-7.0252 -0.2173 -2.3988 0.9707
-7.0225 -0.2607 -2.3984 0.9707
-7.0194 -0.3041 -2.3979 0.9707
-7.0126 -0.3907 -2.3971 0.9708
-7.0047 -0.4773 -2.3962 0.9708
-7.0003 -0.5205 -2.3958 0.9708
-6.9957 -0.5637 -2.3953 0.9708
-6.9857 -0.6499 -2.3945 0.9708
-6.9803 -0.6930 -2.3940 0.9708
-6.9747 -0.7362 -2.3936 0.9708
-6.9687 -0.7790 -2.3932 0.9708
-6.9624 -0.8219 -2.3927 0.9708
-6.9560 -0.8648 -2.3923 0.9708
-6.9492 -0.9076 -2.3919 0.9708
-6.9423 -0.9504 -2.3914 0.9708
-6.9350 -0.9932 -2.3910 0.9708
-6.9275 -1.0358 -2.3906 0.9708
-6.9117 -1.1210 -2.3897 0.9708
-6.8860 -1.2484 -2.3885 0.9709
-6.8380 -1.4594 -2.3863 0.9709
-6.8170 -1.5433 -2.3855 0.9709
-6.8062 -1.5852 -2.3851 0.9709
-6.7837 -1.6686 -2.3842 0.9709
-6.7480 -1.7932 -2.3830 0.9709
-6.6560 -2.0810 -2.3801 0.9710
-6.6128 -2.2031 -2.3789 0.9710
-6.5828 -2.2839 -2.3780 0.9710
-6.5674 -2.3241 -2.3776 0.9710
-6.5199 -2.4443 -2.3764 0.9710
-6.5035 -2.4842 -2.3760 0.9710
-6.4869 -2.5239 -2.3756 0.9710
-6.4531 -2.6031 -2.3748 0.9710
-6.4182 -2.6818 -2.3740 0.9710
-6.3825 -2.7601 -2.3732 0.9710
-6.3642 -2.7990 -2.3729 0.9710
-6.3457 -2.8379 -2.3725 0.9710
-6.2300 -3.0683 -2.3701 0.9711
-6.1690 -3.1818 -2.3690 0.9711
-6.1272 -3.2568 -2.3682 0.9711
-6.0846 -3.3313 -2.3675 0.9711
-6.0629 -3.3684 -2.3671 0.9711
-6.0410 -3.4052 -2.3667 0.9711
-6.0189 -3.4420 -2.3664 0.9711
-5.9965 -3.4786 -2.3660 0.9711
-5.9282 -3.5876 -2.3649 0.9711
-5.9050 -3.6236 -2.3645 0.9711
-5.8579 -3.6953 -2.3638 0.9712
-5.8341 -3.7309 -2.3635 0.9712
-5.7858 -3.8016 -2.3628 0.9712
-5.7613 -3.8367 -2.3624 0.9712
-5.7366 -3.8717 -2.3620 0.9712
-5.6357 -4.0100 -2.3606 0.9712
-5.5579 -4.1121 -2.3596 0.9712
-5.5316 -4.1458 -2.3593 0.9712
-5.3417 -4.3770 -2.3569 0.9712
-5.2574 -4.4735 -2.3560 0.9712
-5.2003 -4.5369 -2.3553 0.9713
-5.1424 -4.5996 -2.3547 0.9713
-5.1132 -4.6307 -2.3544 0.9713
-5.0838 -4.6617 -2.3541 0.9713
-5.0542 -4.6924 -2.3538 0.9713
-4.9643 -4.7835 -2.3528 0.9713
-4.8420 -4.9023 -2.3516 0.9713
-4.8110 -4.9315 -2.3513 0.9713
-4.7484 -4.9894 -2.3508 0.9713
-4.7169 -5.0181 -2.3505 0.9713
-4.6533 -5.0748 -2.3499 0.9713
-4.6213 -5.1029 -2.3496 0.9713
-4.5891 -5.1307 -2.3493 0.9713
-4.5242 -5.1859 -2.3488 0.9713
-4.4587 -5.2402 -2.3482 0.9713
-4.4257 -5.2670 -2.3479 0.9713
-4.3926 -5.2937 -2.3477 0.9713
-4.3592 -5.3201 -2.3474 0.9713
-4.3257 -5.3464 -2.3471 0.9714
-4.2921 -5.3724 -2.3469 0.9714
-4.2583 -5.3983 -2.3466 0.9714
-4.1217 -5.4996 -2.3456 0.9714
-4.0872 -5.5243 -2.3453 0.9714
-4.0525 -5.5489 -2.3451 0.9714
-3.9827 -5.5974 -2.3446 0.9714
-3.8770 -5.6686 -2.3439 0.9714
-3.7341 -5.7605 -2.3429 0.9714
-3.6981 -5.7829 -2.3427 0.9714
-3.6619 -5.8051 -2.3425 0.9714
-3.6256 -5.8271 -2.3423 0.9714
-3.5891 -5.8488 -2.3420 0.9714
-3.2931 -6.0148 -2.3404 0.9714
-3.2556 -6.0346 -2.3402 0.9714
-3.2179 -6.0541 -2.3400 0.9714
-3.1043 -6.1112 -2.3394 0.9714
-3.0280 -6.1481 -2.3390 0.9714
-2.9127 -6.2018 -2.3385 0.9715
-2.7576 -6.2701 -2.3378 0.9715
-2.7186 -6.2866 -2.3376 0.9715
-2.5616 -6.3501 -2.3369 0.9715
-2.4825 -6.3805 -2.3366 0.9715
-2.4428 -6.3953 -2.3365 0.9715
-2.3632 -6.4242 -2.3362 0.9715
-2.3233 -6.4383 -2.3360 0.9715
-2.2031 -6.4792 -2.3356 0.9715
-2.0821 -6.5178 -2.3352 0.9715
-2.0417 -6.5302 -2.3351 0.9715
-1.7566 -6.6101 -2.3343 0.9715
-1.7156 -6.6205 -2.3342 0.9715
-1.6745 -6.6307 -2.3341 0.9715
-1.6334 -6.6406 -2.3340 0.9715
-1.5922 -6.6504 -2.3339 0.9715
-1.5097 -6.6690 -2.3337 0.9715
-1.4684 -6.6779 -2.3336 0.9715
-1.4270 -6.6866 -2.3335 0.9715
-1.3856 -6.6950 -2.3334 0.9715
-1.3441 -6.7032 -2.3333 0.9715
-1.2610 -6.7189 -2.3331 0.9715
-1.1778 -6.7335 -2.3330 0.9715
-1.1360 -6.7405 -2.3329 0.9715
-1.0943 -6.7472 -2.3328 0.9715
-1.0525 -6.7536 -2.3328 0.9715
-1.0107 -6.7598 -2.3327 0.9715
-0.9270 -6.7714 -2.3326 0.9715
-0.8851 -6.7768 -2.3325 0.9715
-0.8012 -6.7870 -2.3324 0.9715
-0.7592 -6.7916 -2.3324 0.9715
-0.7171 -6.7961 -2.3323 0.9715
-0.6751 -6.8002 -2.3323 0.9715
-0.5066 -6.8144 -2.3321 0.9715
-0.4645 -6.8173 -2.3321 0.9715
-0.4223 -6.8200 -2.3321 0.9715
-0.3801 -6.8224 -2.3320 0.9715
-0.3379 -6.8245 -2.3320 0.9715
-0.2535 -6.8280 -2.3320 0.9715
-0.1268 -6.8314 -2.3319 0.9715
0.0000 -6.8326 -2.3319 0.9715
0.0845 -6.8321 -2.3319 0.9715
0.1690 -6.8305 -2.3319 0.9715
0.2957 -6.8263 -2.3319 0.9715
0.3379 -6.8244 -2.3320 0.9715
0.4223 -6.8198 -2.3320 0.9715
0.4645 -6.8171 -2.3320 0.9715
0.5487 -6.8110 -2.3321 0.9715
0.5909 -6.8076 -2.3321 0.9715
0.6330 -6.8039 -2.3321 0.9715
0.7171 -6.7958 -2.3322 0.9715
0.7591 -6.7913 -2.3323 0.9715
0.8011 -6.7866 -2.3323 0.9715
0.8431 -6.7817 -2.3324 0.9715
0.8850 -6.7765 -2.3324 0.9715
0.9269 -6.7710 -2.3325 0.9715
1.1360 -6.7400 -2.3327 0.9715
1.2609 -6.7183 -2.3330 0.9715
1.3855 -6.6945 -2.3332 0.9715
1.4269 -6.6860 -2.3333 0.9715
1.4683 -6.6773 -2.3334 0.9715
1.5096 -6.6683 -2.3334 0.9715
1.6333 -6.6400 -2.3337 0.9715
1.7154 -6.6198 -2.3339 0.9715
1.9603 -6.5534 -2.3346 0.9715
2.1626 -6.4914 -2.3352 0.9715
2.2028 -6.4782 -2.3353 0.9715
2.2429 -6.4649 -2.3354 0.9715
2.4027 -6.4089 -2.3360 0.9715
2.4424 -6.3943 -2.3361 0.9715
2.4821 -6.3795 -2.3363 0.9715
2.5612 -6.3491 -2.3366 0.9715
2.6398 -6.3178 -2.3369 0.9715
2.7571 -6.2690 -2.3374 0.9715
2.9122 -6.2007 -2.3380 0.9715
3.2173 -6.0529 -2.3395 0.9714
3.2549 -6.0334 -2.3397 0.9714
3.2924 -6.0136 -2.3399 0.9714
3.3299 -5.9937 -2.3401 0.9714
3.3671 -5.9734 -2.3403 0.9714
3.4043 -5.9530 -2.3405 0.9714
3.4414 -5.9324 -2.3407 0.9714
3.4783 -5.9115 -2.3409 0.9714
3.5151 -5.8904 -2.3411 0.9714
3.5518 -5.8691 -2.3413 0.9714
3.6248 -5.8258 -2.3417 0.9714
3.6611 -5.8038 -2.3420 0.9714
3.7333 -5.7591 -2.3424 0.9714
3.7692 -5.7365 -2.3426 0.9714
3.8050 -5.7136 -2.3428 0.9714
3.8406 -5.6905 -2.3431 0.9714
3.9114 -5.6437 -2.3435 0.9714
3.9817 -5.5960 -2.3440 0.9714
4.0167 -5.5719 -2.3443 0.9714
4.0861 -5.5229 -2.3447 0.9714
4.1892 -5.4479 -2.3455 0.9714
4.2233 -5.4225 -2.3457 0.9714
4.2572 -5.3969 -2.3460 0.9714
4.3246 -5.3450 -2.3465 0.9714
4.3913 -5.2922 -2.3470 0.9714
4.4575 -5.2387 -2.3476 0.9713
4.4903 -5.2116 -2.3478 0.9713
4.5230 -5.1844 -2.3481 0.9713
4.5878 -5.1292 -2.3486 0.9713
4.6200 -5.1013 -2.3489 0.9713
4.6520 -5.0733 -2.3492 0.9713
4.7470 -4.9879 -2.3501 0.9713
4.8405 -4.9008 -2.3509 0.9713
4.8714 -4.8714 -2.3512 0.9713
4.9020 -4.8418 -2.3515 0.9713
4.9325 -4.8120 -2.3518 0.9713
4.9628 -4.7820 -2.3521 0.9713
5.0526 -4.6909 -2.3530 0.9713
5.0821 -4.6601 -2.3533 0.9713
5.1698 -4.5669 -2.3542 0.9713
5.2272 -4.5038 -2.3549 0.9713
5.2840 -4.4400 -2.3555 0.9713
5.3121 -4.4078 -2.3558 0.9712
5.3399 -4.3755 -2.3562 0.9712
5.3676 -4.3429 -2.3565 0.9712
5.3951 -4.3103 -2.3568 0.9712
5.4225 -4.2775 -2.3571 0.9712
5.4496 -4.2445 -2.3575 0.9712
5.5032 -4.1779 -2.3581 0.9712
5.5560 -4.1107 -2.3588 0.9712
5.5821 -4.0768 -2.3591 0.9712
5.6846 -3.9398 -2.3605 0.9712
5.7096 -3.9051 -2.3608 0.9712
5.7837 -3.8002 -2.3619 0.9712
5.8320 -3.7295 -2.3626 0.9712
5.8794 -3.6582 -2.3633 0.9712
5.9028 -3.6223 -2.3637 0.9712
5.9943 -3.4773 -2.3651 0.9711
6.0166 -3.4407 -2.3655 0.9711
6.0387 -3.4040 -2.3659 0.9711
6.0606 -3.3671 -2.3662 0.9711
6.0823 -3.3301 -2.3666 0.9711
6.1037 -3.2929 -2.3670 0.9711
6.1249 -3.2556 -2.3673 0.9711
6.1459 -3.2182 -2.3677 0.9711
6.1667 -3.1806 -2.3681 0.9711
6.2075 -3.1051 -2.3688 0.9711
6.2276 -3.0671 -2.3692 0.9711
6.2474 -3.0290 -2.3696 0.9711
6.2671 -2.9909 -2.3700 0.9711
6.3799 -2.7590 -2.3723 0.9710
6.4332 -2.6415 -2.3735 0.9710
6.4505 -2.6021 -2.3739 0.9710
6.4843 -2.5229 -2.3747 0.9710
6.5009 -2.4832 -2.3751 0.9710
6.5491 -2.3633 -2.3763 0.9710
6.5647 -2.3232 -2.3767 0.9710
6.5801 -2.2829 -2.3771 0.9710
6.5952 -2.2426 -2.3775 0.9710
6.6101 -2.2021 -2.3779 0.9710
6.6391 -2.1209 -2.3787 0.9710
6.6532 -2.0802 -2.3791 0.9710
6.6941 -1.9574 -2.3803 0.9710
6.7072 -1.9163 -2.3807 0.9709
6.7201 -1.8751 -2.3811 0.9709
6.7328 -1.8338 -2.3816 0.9709
6.8033 -1.5845 -2.3841 0.9709
6.8141 -1.5427 -2.3845 0.9709
6.8248 -1.5008 -2.3849 0.9709
6.8351 -1.4588 -2.3853 0.9709
6.8830 -1.2479 -2.3874 0.9709
6.9004 -1.1630 -2.3883 0.9709
6.9320 -0.9927 -2.3900 0.9708
6.9392 -0.9500 -2.3904 0.9708
6.9462 -0.9072 -2.3908 0.9708
6.9594 -0.8215 -2.3917 0.9708
6.9716 -0.7357 -2.3926 0.9708
6.9826 -0.6496 -2.3934 0.9708
6.9878 -0.6065 -2.3939 0.9708
6.9927 -0.5634 -2.3943 0.9708
6.9973 -0.5203 -2.3947 0.9708
7.0016 -0.4771 -2.3951 0.9708
7.0057 -0.4338 -2.3956 0.9708
7.0095 -0.3906 -2.3960 0.9708
7.0131 -0.3473 -2.3965 0.9708
7.0164 -0.3040 -2.3969 0.9708
7.0194 -0.2606 -2.3973 0.9707
7.0246 -0.1738 -2.3982 0.9707
7.0268 -0.1304 -2.3986 0.9707
7.0319 -0.0000 -2.3999 0.9707
7.0330 0.0435 -2.4004 0.9707
7.0339 0.0870 -2.4008 0.9707
7.0345 0.1305 -2.4012 0.9707
7.0349 0.1740 -2.4017 0.9707
7.0347 0.2611 -2.4026 0.9707
7.0342 0.3047 -2.4030 0.9707
7.0335 0.3483 -2.4034 0.9707
7.0325 0.3918 -2.4039 0.9707
7.0312 0.4354 -2.4043 0.9707
7.0297 0.4789 -2.4047 0.9707
7.0257 0.5661 -2.4056 0.9706
7.0179 0.6966 -2.4069 0.9706
7.0076 0.8272 -2.4082 0.9706
7.0036 0.8707 -2.4087 0.9706
6.9993 0.9141 -2.4091 0.9706
6.9948 0.9576 -2.4095 0.9706
6.9900 1.0010 -2.4100 0.9706
6.9849 1.0444 -2.4104 0.9706
6.9796 1.0877 -2.4109 0.9706
6.9740 1.1311 -2.4113 0.9706
6.9682 1.1744 -2.4117 0.9706
6.9489 1.3042 -2.4130 0.9706
6.9420 1.3473 -2.4135 0.9706
6.9347 1.3905 -2.4139 0.9705
6.9273 1.4337 -2.4143 0.9705
6.9115 1.5197 -2.4152 0.9705
6.9032 1.5627 -2.4156 0.9705
6.8946 1.6057 -2.4161 0.9705
6.8858 1.6486 -2.4165 0.9705
6.8673 1.7343 -2.4173 0.9705
6.8577 1.7770 -2.4178 0.9705
6.8376 1.8624 -2.4186 0.9705
6.8165 1.9474 -2.4195 0.9705
6.7827 2.0747 -2.4208 0.9705
6.7589 2.1592 -2.4216 0.9705
6.7340 2.2434 -2.4225 0.9704
6.6948 2.3692 -2.4237 0.9704
6.6673 2.4526 -2.4246 0.9704
6.6091 2.6186 -2.4262 0.9704
6.5939 2.6599 -2.4267 0.9704
6.5305 2.8241 -2.4283 0.9704
6.5140 2.8649 -2.4287 0.9704
6.4803 2.9462 -2.4295 0.9704
6.4630 2.9868 -2.4299 0.9704
6.4455 3.0272 -2.4304 0.9704
6.4277 3.0675 -2.4308 0.9703
6.3914 3.1478 -2.4316 0.9703
6.3541 3.2277 -2.4324 0.9703
6.2962 3.3467 -2.4336 0.9703
6.2765 3.3861 -2.4340 0.9703
6.2564 3.4254 -2.4344 0.9703
6.1738 3.5814 -2.4359 0.9703
6.1525 3.6200 -2.4363 0.9703
6.1310 3.6586 -2.4367 0.9703
6.1092 3.6971 -2.4371 0.9703
6.0424 3.8116 -2.4383 0.9703
5.9263 3.9997 -2.4401 0.9702
5.9023 4.0369 -2.4405 0.9702
5.8782 4.0739 -2.4409 0.9702
5.8537 4.1108 -2.4413 0.9702
5.8291 4.1476 -2.4416 0.9702
5.8042 4.1842 -2.4420 0.9702
5.7791 4.2206 -2.4424 0.9702
5.7537 4.2569 -2.4427 0.9702
5.7024 4.3290 -2.4435 0.9702
5.6500 4.4005 -2.4442 0.9702
5.5699 4.5066 -2.4453 0.9702
5.5153 4.5764 -2.4460 0.9702
5.4598 4.6456 -2.4467 0.9702
5.4318 4.6799 -2.4470 0.9702
5.3750 4.7481 -2.4477 0.9701
5.3463 4.7820 -2.4480 0.9701
5.3173 4.8156 -2.4484 0.9701
5.2882 4.8491 -2.4487 0.9701
5.2588 4.8823 -2.4491 0.9701
5.2292 4.9154 -2.4494 0.9701
5.1694 4.9811 -2.4501 0.9701
5.1392 5.0136 -2.4504 0.9701
5.0473 5.1101 -2.4514 0.9701
4.8580 5.2979 -2.4533 0.9701
4.8258 5.3285 -2.4536 0.9701
4.7607 5.3892 -2.4542 0.9701
4.6700 5.4201 -2.4418 0.9702
4.3778 5.3428 -2.3574 0.9712
4.2391 5.3060 -2.3179 0.9717
4.1822 5.3016 -2.3046 0.9719
4.1430 5.3193 -2.3011 0.9719
4.1105 5.3454 -2.3014 0.9719
4.0778 5.3713 -2.3016 0.9719
4.0450 5.3971 -2.3019 0.9719
3.9455 5.4730 -2.3027 0.9719
3.9120 5.4979 -2.3029 0.9719
3.7764 5.5954 -2.3039 0.9719
3.7421 5.6192 -2.3042 0.9719
3.7077 5.6429 -2.3044 0.9719
3.6035 5.7124 -2.3051 0.9719
3.3910 5.8456 -2.3065 0.9718
3.3551 5.8670 -2.3067 0.9718
3.2466 5.9299 -2.3073 0.9718
3.0260 6.0494 -2.3085 0.9718
2.9888 6.0685 -2.3087 0.9718
2.9140 6.1060 -2.3091 0.9718
2.8387 6.1426 -2.3095 0.9718
2.7629 6.1782 -2.3098 0.9718
2.7249 6.1956 -2.3100 0.9718
2.6101 6.2466 -2.3105 0.9718
2.5330 6.2793 -2.3109 0.9718
2.3776 6.3417 -2.3115 0.9718
2.2599 6.3860 -2.3120 0.9718
2.2205 6.4003 -2.3121 0.9718
2.1415 6.4280 -2.3124 0.9718
2.1018 6.4415 -2.3125 0.9718
2.0222 6.4678 -2.3128 0.9718
1.9423 6.4930 -2.3131 0.9718
1.9022 6.5053 -2.3132 0.9718
1.7411 6.5517 -2.3137 0.9718
1.7006 6.5627 -2.3138 0.9718
1.6601 6.5734 -2.3139 0.9718
1.4564 6.6230 -2.3144 0.9717
1.4154 6.6322 -2.3145 0.9717
1.3745 6.6410 -2.3146 0.9717
1.3334 6.6497 -2.3147 0.9717
1.1687 6.6816 -2.3150 0.9717
1.0860 6.6960 -2.3152 0.9717
1.0032 6.7093 -2.3153 0.9717
0.9617 6.7156 -2.3154 0.9717
0.9202 6.7216 -2.3154 0.9717
0.8786 6.7273 -2.3155 0.9717
0.8370 6.7328 -2.3155 0.9717
0.7537 6.7429 -2.3157 0.9717
0.6285 6.7561 -2.3158 0.9717
0.5868 6.7600 -2.3158 0.9717
0.5031 6.7670 -2.3159 0.9717
0.4194 6.7729 -2.3160 0.9717
0.3356 6.7777 -2.3160 0.9717
0.2937 6.7797 -2.3161 0.9717
0.1679 6.7842 -2.3161 0.9717
0.0000 6.7863 -2.3161 0.9717
-0.1259 6.7852 -2.3161 0.9717
-0.2517 6.7816 -2.3161 0.9717
-0.4613 6.7703 -2.3160 0.9717
-0.6286 6.7564 -2.3159 0.9717
-0.7538 6.7433 -2.3158 0.9717
-0.7954 6.7383 -2.3157 0.9717
-0.8371 6.7332 -2.3157 0.9717
-0.8787 6.7277 -2.3156 0.9717
-0.9202 6.7220 -2.3156 0.9717
-0.9618 6.7160 -2.3155 0.9717
-1.0032 6.7097 -2.3155 0.9717
-1.0861 6.6964 -2.3153 0.9717
-1.1688 6.6821 -2.3152 0.9717
-1.2513 6.6667 -2.3150 0.9717
-1.4156 6.6328 -2.3147 0.9717
-1.4974 6.6143 -2.3145 0.9717
-1.5789 6.5947 -2.3143 0.9717
-1.6602 6.5741 -2.3141 0.9717
-1.7817 6.5412 -2.3138 0.9718
-1.8220 6.5298 -2.3137 0.9718
-1.8623 6.5181 -2.3136 0.9718
-1.9024 6.5061 -2.3135 0.9718
-1.9425 6.4939 -2.3134 0.9718
-2.0225 6.4687 -2.3131 0.9718
-2.1021 6.4424 -2.3129 0.9718
-2.1418 6.4289 -2.3127 0.9718
-2.1814 6.4152 -2.3126 0.9718
-2.3388 6.3577 -2.3120 0.9718
-2.4947 6.2963 -2.3114 0.9718
-2.5334 6.2803 -2.3113 0.9718
-2.6489 6.2309 -2.3108 0.9718
-2.6872 6.2140 -2.3106 0.9718
-2.8014 6.1617 -2.3101 0.9718
-2.8392 6.1438 -2.3099 0.9718
-2.8769 6.1256 -2.3097 0.9718
-2.9520 6.0886 -2.3094 0.9718
-3.0637 6.0313 -2.3088 0.9718
-3.1376 5.9920 -2.3084 0.9718
-3.1743 5.9719 -2.3082 0.9718
-3.3559 5.8683 -2.3072 0.9718
-3.3918 5.8469 -2.3070 0.9718
-3.5693 5.7365 -2.3059 0.9718
-3.6392 5.6908 -2.3054 0.9719
-3.6740 5.6676 -2.3052 0.9719
-3.7430 5.6206 -2.3047 0.9719
-3.7773 5.5968 -2.3045 0.9719
-3.8455 5.5485 -2.3040 0.9719
-3.8793 5.5240 -2.3038 0.9719
-3.9130 5.4994 -2.3035 0.9719
-4.0460 5.3985 -2.3025 0.9719
-4.0789 5.3728 -2.3023 0.9719
-4.1441 5.3208 -2.3018 0.9719
-4.1765 5.2944 -2.3015 0.9719
-4.2725 5.2142 -2.3007 0.9719
-4.3041 5.1871 -2.3004 0.9719
-4.3669 5.1322 -2.2999 0.9719
-4.4904 5.0202 -2.2988 0.9719
-4.5510 4.9631 -2.2982 0.9719
-4.6033 4.9582 -2.3091 0.9718
-4.7342 4.9744 -2.3437 0.9714
-4.8780 5.0002 -2.3841 0.9709
-5.0289 5.0289 -2.4273 0.9704
-5.1065 5.0437 -2.4496 0.9701
-5.1409 5.0152 -2.4512 0.9701
-5.1711 4.9827 -2.4508 0.9701
-5.2309 4.9170 -2.4502 0.9701
-5.2605 4.8839 -2.4499 0.9701
-5.3481 4.7836 -2.4489 0.9701
-5.3768 4.7497 -2.4485 0.9701
-5.4053 4.7157 -2.4482 0.9701
-5.5172 4.5780 -2.4468 0.9702
-5.5718 4.5082 -2.4461 0.9702
-5.6255 4.4376 -2.4454 0.9702
-5.7044 4.3306 -2.4443 0.9702
-5.7558 4.2584 -2.4436 0.9702
-5.7812 4.2221 -2.4433 0.9702
-5.8803 4.0754 -2.4418 0.9702
-5.9045 4.0384 -2.4414 0.9702
-5.9522 3.9638 -2.4407 0.9702
-5.9757 3.9264 -2.4403 0.9702
-6.0219 3.8509 -2.4396 0.9702
-6.0447 3.8130 -2.4392 0.9702
-6.0895 3.7368 -2.4384 0.9703
-6.1761 3.5828 -2.4369 0.9703
-6.2180 3.5050 -2.4361 0.9703
-6.2386 3.4659 -2.4357 0.9703
-6.2987 3.3480 -2.4345 0.9703
-6.3183 3.3084 -2.4341 0.9703
-6.4123 3.1089 -2.4321 0.9703
-6.4829 2.9474 -2.4305 0.9703
-6.5167 2.8661 -2.4297 0.9704
-6.5332 2.8252 -2.4293 0.9704
-6.5654 2.7433 -2.4285 0.9704
-6.5966 2.6610 -2.4277 0.9704
-6.6118 2.6197 -2.4272 0.9704
-6.6559 2.4953 -2.4260 0.9704
-6.7240 2.2864 -2.4239 0.9704
-6.7369 2.2443 -2.4235 0.9704
-6.7618 2.1601 -2.4226 0.9704
-6.7856 2.0755 -2.4218 0.9705
-6.7971 2.0332 -2.4214 0.9705
-6.8193 1.9483 -2.4205 0.9705
-6.8405 1.8631 -2.4197 0.9705
-6.8606 1.7778 -2.4188 0.9705
-6.9519 1.3048 -2.4141 0.9705
-6.9586 1.2615 -2.4136 0.9706
-6.9650 1.2182 -2.4132 0.9706
-6.9712 1.1749 -2.4128 0.9706
-6.9880 1.0448 -2.4115 0.9706
-6.9931 1.0014 -2.4110 0.9706
-6.9979 0.9580 -2.4106 0.9706
-7.0066 0.8710 -2.4097 0.9706
-7.0143 0.7840 -2.4089 0.9706
-7.0238 0.6534 -2.4075 0.9706
-7.0288 0.5663 -2.4067 0.9706
-7.0328 0.4791 -2.4058 0.9706
-7.0356 0.3920 -2.4049 0.9707
-7.0366 0.3484 -2.4045 0.9707
-7.0378 0.2612 -2.4036 0.9707
-7.0380 0.2177 -2.4032 0.9707
-7.0379 0.1741 -2.4027 0.9707
-7.0376 0.1306 -2.4023 0.9707
-6.8677 -0.0000 -2.4010 0.9713
-6.8663 -0.0425 -2.4006 0.9713
-6.8647 -0.0849 -2.4001 0.9713
-6.8557 -0.2545 -2.3984 0.9713
-6.8528 -0.2969 -2.3980 0.9714
-6.8496 -0.3392 -2.3976 0.9714
-6.8461 -0.3815 -2.3971 0.9714
-6.8385 -0.4660 -2.3963 0.9714
-6.8298 -0.5503 -2.3955 0.9714
-6.8200 -0.6345 -2.3946 0.9714
-6.8092 -0.7186 -2.3938 0.9714
-6.8035 -0.7605 -2.3933 0.9714
-6.7912 -0.8443 -2.3925 0.9714
-6.7846 -0.8861 -2.3921 0.9714
-6.7778 -0.9279 -2.3917 0.9714
-6.7635 -1.0113 -2.3908 0.9714
-6.7559 -1.0529 -2.3904 0.9714
-6.7481 -1.0945 -2.3900 0.9714
-6.7400 -1.1360 -2.3896 0.9715
-6.7052 -1.3015 -2.3879 0.9715
-6.6958 -1.3426 -2.3875 0.9715
-6.6863 -1.3838 -2.3871 0.9715
-6.6764 -1.4249 -2.3867 0.9715
-6.6560 -1.5068 -2.3858 0.9715
-6.6345 -1.5885 -2.3850 0.9715
-6.6235 -1.6292 -2.3846 0.9715
-6.6121 -1.6699 -2.3842 0.9715
-6.5643 -1.8316 -2.3826 0.9715
-6.5518 -1.8719 -2.3822 0.9715
-6.5389 -1.9120 -2.3818 0.9715
-6.5259 -1.9521 -2.3814 0.9715
-6.4853 -2.0718 -2.3802 0.9716
-6.4128 -2.2694 -2.3782 0.9716
-6.3343 -2.4645 -2.3762 0.9716
-6.3013 -2.5419 -2.3754 0.9716
-6.2844 -2.5804 -2.3750 0.9716
-6.2146 -2.7332 -2.3735 0.9716
-6.1784 -2.8090 -2.3727 0.9717
-6.1412 -2.8843 -2.3720 0.9717
-6.1031 -2.9591 -2.3712 0.9717
-6.0443 -3.0703 -2.3701 0.9717
-6.0243 -3.1071 -2.3697 0.9717
-5.9835 -3.1804 -2.3690 0.9717
-5.9628 -3.2169 -2.3686 0.9717
-5.9418 -3.2532 -2.3683 0.9717
-5.9207 -3.2894 -2.3679 0.9717
-5.8993 -3.3254 -2.3675 0.9717
-5.8778 -3.3613 -2.3672 0.9717
-5.8118 -3.4682 -2.3661 0.9717
-5.7893 -3.5036 -2.3657 0.9717
-5.7667 -3.5388 -2.3654 0.9717
-5.7438 -3.5738 -2.3650 0.9717
-5.6975 -3.6435 -2.3643 0.9717
-5.6740 -3.6781 -2.3640 0.9718
-5.6503 -3.7126 -2.3636 0.9718
-5.6264 -3.7469 -2.3633 0.9718
-5.6023 -3.7811 -2.3629 0.9718
-5.5535 -3.8490 -2.3623 0.9718
-5.5288 -3.8827 -2.3619 0.9718
-5.5039 -3.9163 -2.3616 0.9718
-5.4788 -3.9497 -2.3612 0.9718
-5.4535 -3.9829 -2.3609 0.9718
-5.4280 -4.0160 -2.3606 0.9718
-5.4023 -4.0489 -2.3602 0.9718
-5.3503 -4.1142 -2.3596 0.9718
-5.2440 -4.2430 -2.3583 0.9718
-5.2170 -4.2748 -2.3580 0.9718
-5.1898 -4.3063 -2.3576 0.9718
-5.1623 -4.3378 -2.3573 0.9718
-5.1069 -4.4001 -2.3567 0.9718
-5.0789 -4.4311 -2.3564 0.9718
-5.0508 -4.4618 -2.3561 0.9718
-5.0224 -4.4923 -2.3558 0.9719
-4.9939 -4.5227 -2.3555 0.9719
-4.9652 -4.5529 -2.3551 0.9719
-4.9363 -4.5830 -2.3548 0.9719
-4.8780 -4.6425 -2.3542 0.9719
-4.7892 -4.7304 -2.3534 0.9719
-4.6989 -4.8166 -2.3525 0.9719
-4.6684 -4.8450 -2.3522 0.9719
-4.6378 -4.8732 -2.3519 0.9719
-4.6071 -4.9012 -2.3516 0.9719
-4.5137 -4.9840 -2.3508 0.9719
-4.4507 -5.0383 -2.3502 0.9719
-4.4190 -5.0651 -2.3500 0.9719
-4.3870 -5.0918 -2.3497 0.9719
-4.3550 -5.1183 -2.3494 0.9719
-4.3228 -5.1445 -2.3492 0.9719
-4.2252 -5.2220 -2.3484 0.9719
-4.1593 -5.2728 -2.3479 0.9719
-4.1262 -5.2978 -2.3476 0.9719
-4.0929 -5.3227 -2.3474 0.9719
-4.0259 -5.3717 -2.3469 0.9720
-3.9244 -5.4438 -2.3461 0.9720
-3.8559 -5.4908 -2.3457 0.9720
-3.7523 -5.5597 -2.3450 0.9720
-3.7175 -5.5823 -2.3447 0.9720
-3.6122 -5.6487 -2.3441 0.9720
-3.5769 -5.6703 -2.3438 0.9720
-3.5414 -5.6919 -2.3436 0.9720
-3.4701 -5.7342 -2.3432 0.9720
-3.3622 -5.7960 -2.3426 0.9720
-3.3261 -5.8162 -2.3424 0.9720
-3.1801 -5.8946 -2.3416 0.9720
-3.1433 -5.9137 -2.3414 0.9720
-3.1064 -5.9325 -2.3412 0.9720
-3.0694 -5.9512 -2.3410 0.9720
-2.9951 -5.9877 -2.3406 0.9720
-2.8075 -6.0752 -2.3397 0.9720
-2.6937 -6.1248 -2.3392 0.9720
-2.6556 -6.1410 -2.3390 0.9720
-2.6174 -6.1568 -2.3389 0.9720
-2.4637 -6.2180 -2.3383 0.9721
-2.2695 -6.2893 -2.3375 0.9721
-2.1913 -6.3161 -2.3372 0.9721
-2.1521 -6.3292 -2.3371 0.9721
-2.0340 -6.3670 -2.3367 0.9721
-1.9945 -6.3791 -2.3366 0.9721
-1.8755 -6.4140 -2.3362 0.9721
-1.8357 -6.4252 -2.3361 0.9721
-1.7559 -6.4468 -2.3359 0.9721
-1.6759 -6.4674 -2.3357 0.9721
-1.6358 -6.4773 -2.3356 0.9721
-1.5151 -6.5057 -2.3353 0.9721
-1.4748 -6.5147 -2.3352 0.9721
-1.4345 -6.5235 -2.3351 0.9721
-1.3130 -6.5482 -2.3349 0.9721
-1.2319 -6.5635 -2.3347 0.9721
-1.0282 -6.5975 -2.3343 0.9721
-0.9874 -6.6035 -2.3343 0.9721
-0.9465 -6.6093 -2.3342 0.9721
-0.8646 -6.6202 -2.3341 0.9721
-0.7416 -6.6347 -2.3339 0.9721
-0.7005 -6.6390 -2.3339 0.9721
-0.6184 -6.6469 -2.3338 0.9721
-0.5772 -6.6505 -2.3338 0.9721
-0.4949 -6.6569 -2.3337 0.9721
-0.3713 -6.6647 -2.3336 0.9721
-0.3301 -6.6668 -2.3336 0.9721
-0.2889 -6.6687 -2.3336 0.9721
-0.2063 -6.6716 -2.3335 0.9721
-0.1651 -6.6727 -2.3335 0.9721
-0.1238 -6.6736 -2.3335 0.9721
-0.0413 -6.6746 -2.3335 0.9721
0.0413 -6.6746 -2.3335 0.9721
0.1238 -6.6736 -2.3335 0.9721
0.1651 -6.6727 -2.3335 0.9721
0.2476 -6.6702 -2.3335 0.9721
0.4537 -6.6596 -2.3336 0.9721
0.4949 -6.6567 -2.3336 0.9721
0.5361 -6.6536 -2.3337 0.9721
0.5772 -6.6503 -2.3337 0.9721
0.6594 -6.6428 -2.3338 0.9721
0.7005 -6.6387 -2.3338 0.9721
0.8236 -6.6249 -2.3339 0.9721
0.9464 -6.6089 -2.3341 0.9721
0.9873 -6.6031 -2.3341 0.9721
1.0690 -6.5907 -2.3342 0.9721
1.1097 -6.5842 -2.3343 0.9721
1.2318 -6.5630 -2.3345 0.9721
1.2724 -6.5555 -2.3346 0.9721
1.3129 -6.5477 -2.3347 0.9721
1.3535 -6.5397 -2.3347 0.9721
1.5150 -6.5051 -2.3351 0.9721
1.5553 -6.4959 -2.3352 0.9721
1.5955 -6.4864 -2.3353 0.9721
1.6356 -6.4767 -2.3354 0.9721
1.7557 -6.4461 -2.3356 0.9721
1.7956 -6.4353 -2.3358 0.9721
1.9150 -6.4018 -2.3361 0.9721
1.9942 -6.3783 -2.3363 0.9721
2.1518 -6.3283 -2.3368 0.9721
2.3082 -6.2746 -2.3373 0.9721
2.3859 -6.2463 -2.3376 0.9721
2.4246 -6.2318 -2.3377 0.9721
2.6170 -6.1558 -2.3385 0.9721
2.7313 -6.1075 -2.3390 0.9720
2.7692 -6.0909 -2.3391 0.9720
2.8070 -6.0740 -2.3393 0.9720
2.8447 -6.0570 -2.3395 0.9720
2.8823 -6.0398 -2.3396 0.9720
2.9199 -6.0222 -2.3398 0.9720
3.0318 -5.9684 -2.3403 0.9720
3.1427 -5.9125 -2.3409 0.9720
3.1795 -5.8935 -2.3411 0.9720
3.2161 -5.8742 -2.3413 0.9720
3.2526 -5.8547 -2.3415 0.9720
3.3254 -5.8149 -2.3419 0.9720
3.3616 -5.7948 -2.3421 0.9720
3.3976 -5.7744 -2.3423 0.9720
3.4336 -5.7537 -2.3425 0.9720
3.4694 -5.7329 -2.3427 0.9720
3.5051 -5.7118 -2.3429 0.9720
3.5761 -5.6691 -2.3433 0.9720
3.6466 -5.6255 -2.3437 0.9720
3.7166 -5.5810 -2.3442 0.9720
3.7514 -5.5584 -2.3444 0.9720
3.8206 -5.5127 -2.3449 0.9720
3.9574 -5.4186 -2.3458 0.9720
3.9912 -5.3946 -2.3460 0.9720
4.0585 -5.3459 -2.3465 0.9720
4.0919 -5.3213 -2.3468 0.9720
4.1251 -5.2964 -2.3470 0.9720
4.1912 -5.2461 -2.3475 0.9719
4.3216 -5.1431 -2.3485 0.9719
4.3538 -5.1168 -2.3488 0.9719
4.4495 -5.0369 -2.3496 0.9719
4.6058 -4.8998 -2.3510 0.9719
4.6975 -4.8152 -2.3518 0.9719
4.7278 -4.7867 -2.3521 0.9719
4.7579 -4.7579 -2.3524 0.9719
4.7878 -4.7290 -2.3527 0.9719
4.8175 -4.6998 -2.3529 0.9719
4.8471 -4.6705 -2.3532 0.9719
4.9637 -4.5515 -2.3544 0.9719
4.9924 -4.5213 -2.3547 0.9719
5.1053 -4.3987 -2.3559 0.9718
5.1881 -4.3050 -2.3569 0.9718
5.2958 -4.1776 -2.3581 0.9718
5.4262 -4.0146 -2.3598 0.9718
5.4517 -3.9816 -2.3601 0.9718
5.5020 -3.9149 -2.3608 0.9718
5.5269 -3.8813 -2.3611 0.9718
5.5761 -3.8138 -2.3618 0.9718
5.6004 -3.7798 -2.3621 0.9718
5.6484 -3.7113 -2.3628 0.9718
5.7187 -3.6075 -2.3638 0.9718
5.7646 -3.5375 -2.3645 0.9717
5.8538 -3.3959 -2.3659 0.9717
5.8972 -3.3242 -2.3667 0.9717
5.9185 -3.2882 -2.3670 0.9717
5.9606 -3.2157 -2.3677 0.9717
6.0017 -3.1427 -2.3685 0.9717
6.0220 -3.1060 -2.3688 0.9717
6.0420 -3.0692 -2.3692 0.9717
6.0618 -3.0322 -2.3696 0.9717
6.1575 -2.8456 -2.3714 0.9717
6.2300 -2.6942 -2.3730 0.9716
6.2649 -2.6178 -2.3737 0.9716
6.2988 -2.5409 -2.3745 0.9716
6.3154 -2.5023 -2.3749 0.9716
6.3639 -2.3859 -2.3760 0.9716
6.3795 -2.3468 -2.3764 0.9716
6.3950 -2.3077 -2.3768 0.9716
6.4102 -2.2685 -2.3772 0.9716
6.4399 -2.1898 -2.3780 0.9716
6.4544 -2.1503 -2.3784 0.9716
6.4964 -2.0312 -2.3796 0.9716
6.5232 -1.9513 -2.3804 0.9716
6.5616 -1.8309 -2.3816 0.9715
6.5860 -1.7502 -2.3824 0.9715
6.5978 -1.7097 -2.3828 0.9715
6.6207 -1.6286 -2.3836 0.9715
6.6318 -1.5879 -2.3840 0.9715
6.6532 -1.5062 -2.3848 0.9715
6.6736 -1.4243 -2.3857 0.9715
6.7024 -1.3009 -2.3869 0.9715
6.7115 -1.2597 -2.3873 0.9715
6.7203 -1.2183 -2.3877 0.9715
6.7372 -1.1355 -2.3886 0.9715
6.7750 -0.9275 -2.3906 0.9714
6.7818 -0.8857 -2.3911 0.9714
6.7946 -0.8021 -2.3919 0.9714
6.8064 -0.7182 -2.3927 0.9714
6.8171 -0.6342 -2.3936 0.9714
6.8313 -0.5079 -2.3949 0.9714
6.8432 -0.3813 -2.3961 0.9714
6.8578 -0.1697 -2.3982 0.9714
6.8599 -0.1273 -2.3987 0.9713
6.8634 -0.0425 -2.3995 0.9713
6.8648 -0.0000 -2.3999 0.9713
6.8667 0.0849 -2.4008 0.9713
6.8675 0.1699 -2.4017 0.9713
6.8676 0.2124 -2.4021 0.9713
6.8673 0.2549 -2.4025 0.9713
6.8651 0.3825 -2.4038 0.9713
6.8638 0.4250 -2.4042 0.9713
6.8605 0.5100 -2.4051 0.9713
6.8584 0.5526 -2.4055 0.9713
6.8535 0.6375 -2.4063 0.9713
6.8475 0.7225 -2.4072 0.9712
6.8441 0.7650 -2.4076 0.9712
6.8404 0.8075 -2.4080 0.9712
6.8365 0.8499 -2.4085 0.9712
6.8279 0.9347 -2.4093 0.9712
6.8130 1.0618 -2.4106 0.9712
6.8075 1.1041 -2.4110 0.9712
6.8018 1.1463 -2.4115 0.9712
6.7957 1.1886 -2.4119 0.9712
6.7894 1.2308 -2.4123 0.9712
6.7761 1.3152 -2.4131 0.9712
6.7690 1.3573 -2.4136 0.9712
6.7617 1.3994 -2.4140 0.9712
6.7541 1.4414 -2.4144 0.9712
6.7462 1.4834 -2.4148 0.9712
6.7380 1.5254 -2.4153 0.9712
6.7210 1.6092 -2.4161 0.9711
6.7121 1.6510 -2.4165 0.9711
6.7029 1.6927 -2.4169 0.9711
6.6838 1.7761 -2.4178 0.9711
6.6738 1.8178 -2.4182 0.9711
6.6636 1.8593 -2.4186 0.9711
6.6532 1.9008 -2.4190 0.9711
6.6314 1.9836 -2.4199 0.9711
6.5969 2.1074 -2.4211 0.9711
6.5848 2.1486 -2.4215 0.9711
6.5725 2.1896 -2.4219 0.9711
6.5472 2.2715 -2.4228 0.9711
6.5072 2.3938 -2.4240 0.9710
6.4793 2.4749 -2.4248 0.9710
6.4503 2.5557 -2.4256 0.9710
6.4050 2.6762 -2.4268 0.9710
6.3894 2.7163 -2.4272 0.9710
6.3574 2.7960 -2.4280 0.9710
6.3244 2.8754 -2.4288 0.9710
6.2555 3.0329 -2.4304 0.9710
6.2195 3.1111 -2.4312 0.9710
6.2011 3.1500 -2.4316 0.9710
6.1825 3.1888 -2.4320 0.9710
6.1446 3.2660 -2.4328 0.9709
6.1252 3.3045 -2.4332 0.9709
6.0658 3.4191 -2.4343 0.9709
6.0454 3.4572 -2.4347 0.9709
5.9831 3.5704 -2.4358 0.9709
5.9403 3.6453 -2.4366 0.9709
5.8966 3.7196 -2.4373 0.9709
5.8743 3.7566 -2.4377 0.9709
5.8519 3.7934 -2.4381 0.9709
5.8292 3.8301 -2.4385 0.9709
5.8063 3.8667 -2.4388 0.9709
5.6882 4.0473 -2.4406 0.9709
5.6394 4.1186 -2.4414 0.9708
5.6146 4.1540 -2.4417 0.9708
5.5896 4.1892 -2.4421 0.9708
5.5390 4.2593 -2.4428 0.9708
5.4350 4.3975 -2.4442 0.9708
5.3548 4.4995 -2.4452 0.9708
5.3276 4.5331 -2.4455 0.9708
5.2726 4.5999 -2.4462 0.9708
5.2448 4.6331 -2.4466 0.9708
5.1600 4.7315 -2.4476 0.9708
5.1024 4.7962 -2.4482 0.9708
5.0441 4.8603 -2.4489 0.9708
4.9550 4.9549 -2.4498 0.9707
4.8946 5.0171 -2.4504 0.9707
4.8640 5.0480 -2.4507 0.9707
4.8334 5.0786 -2.4511 0.9707
4.8025 5.1090 -2.4514 0.9707
4.7714 5.1393 -2.4517 0.9707
4.7401 5.1693 -2.4520 0.9707
4.6769 5.2288 -2.4526 0.9707
4.6451 5.2583 -2.4529 0.9707
4.5484 5.3455 -2.4538 0.9707
4.1622 5.2763 -2.3495 0.9719
4.0365 5.2492 -2.3150 0.9723
3.9143 5.2907 -2.3008 0.9725
3.8494 5.3398 -2.3013 0.9725
3.7177 5.4357 -2.3023 0.9725
3.6844 5.4592 -2.3026 0.9725
3.6510 5.4824 -2.3028 0.9725
3.5497 5.5509 -2.3035 0.9725
3.5157 5.5733 -2.3037 0.9725
3.4815 5.5954 -2.3039 0.9725
3.4471 5.6174 -2.3042 0.9725
3.3433 5.6820 -2.3048 0.9725
3.2382 5.7446 -2.3055 0.9724
3.0604 5.8446 -2.3065 0.9724
2.9159 5.9205 -2.3072 0.9724
2.7694 5.9927 -2.3080 0.9724
2.6212 6.0612 -2.3087 0.9724
2.5838 6.0777 -2.3088 0.9724
2.5088 6.1101 -2.3092 0.9724
2.4334 6.1415 -2.3095 0.9724
2.3955 6.1569 -2.3097 0.9724
2.3575 6.1720 -2.3098 0.9724
2.3195 6.1868 -2.3100 0.9724
2.2813 6.2014 -2.3101 0.9724
2.2047 6.2300 -2.3104 0.9724
2.1278 6.2576 -2.3107 0.9724
2.0891 6.2710 -2.3108 0.9724
2.0504 6.2841 -2.3110 0.9724
2.0117 6.2970 -2.3111 0.9724
1.9338 6.3222 -2.3113 0.9724
1.8948 6.3343 -2.3115 0.9724
1.8557 6.3463 -2.3116 0.9724
1.6590 6.4022 -2.3122 0.9724
1.5798 6.4228 -2.3124 0.9724
1.5004 6.4424 -2.3126 0.9724
1.4208 6.4610 -2.3128 0.9724
1.3808 6.4700 -2.3129 0.9724
1.1803 6.5107 -2.3133 0.9724
1.1401 6.5181 -2.3134 0.9724
1.0998 6.5253 -2.3134 0.9723
1.0191 6.5388 -2.3136 0.9723
0.9786 6.5452 -2.3137 0.9723
0.9382 6.5513 -2.3137 0.9723
0.8977 6.5571 -2.3138 0.9723
0.8166 6.5680 -2.3139 0.9723
0.6946 6.5825 -2.3141 0.9723
0.6539 6.5868 -2.3141 0.9723
0.4908 6.6014 -2.3143 0.9723
0.4500 6.6044 -2.3143 0.9723
0.4091 6.6071 -2.3143 0.9723
0.3683 6.6097 -2.3143 0.9723
0.3274 6.6119 -2.3144 0.9723
0.2865 6.6138 -2.3144 0.9723
0.2456 6.6155 -2.3144 0.9723
0.2047 6.6170 -2.3144 0.9723
0.0819 6.6197 -2.3145 0.9723
-0.0000 6.6203 -2.3145 0.9723
-0.0409 6.6202 -2.3145 0.9723
-0.0819 6.6197 -2.3145 0.9723
-0.1228 6.6191 -2.3145 0.9723
-0.1637 6.6182 -2.3145 0.9723
-0.2456 6.6156 -2.3145 0.9723
-0.3683 6.6098 -2.3144 0.9723
-0.4500 6.6046 -2.3144 0.9723
-0.6132 6.5911 -2.3142 0.9723
-0.6539 6.5871 -2.3142 0.9723
-0.6946 6.5828 -2.3142 0.9723
-0.7353 6.5783 -2.3141 0.9723
-0.8572 6.5631 -2.3140 0.9723
-0.8977 6.5575 -2.3139 0.9723
-0.9382 6.5517 -2.3139 0.9723
-0.9787 6.5456 -2.3138 0.9723
-1.0191 6.5392 -2.3137 0.9723
-1.0595 6.5326 -2.3137 0.9723
-1.1402 6.5186 -2.3135 0.9723
-1.1804 6.5112 -2.3135 0.9723
-1.2608 6.4957 -2.3133 0.9724
-1.4607 6.4525 -2.3129 0.9724
-1.5800 6.4235 -2.3126 0.9724
-1.6987 6.3922 -2.3123 0.9724
-1.8167 6.3587 -2.3120 0.9724
-1.8950 6.3351 -2.3118 0.9724
-1.9341 6.3230 -2.3116 0.9724
-1.9730 6.3106 -2.3115 0.9724
-2.0119 6.2979 -2.3114 0.9724
-2.1666 6.2448 -2.3109 0.9724
-2.2050 6.2309 -2.3107 0.9724
-2.3198 6.1878 -2.3103 0.9724
-2.3959 6.1579 -2.3100 0.9724
-2.4715 6.1269 -2.3097 0.9724
-2.5468 6.0951 -2.3094 0.9724
-2.5842 6.0788 -2.3092 0.9724
-2.6216 6.0622 -2.3091 0.9724
-2.6589 6.0455 -2.3089 0.9724
-2.7330 6.0113 -2.3086 0.9724
-2.7699 5.9938 -2.3084 0.9724
-2.9528 5.9030 -2.3075 0.9724
-2.9890 5.8841 -2.3073 0.9724
-3.0251 5.8651 -2.3071 0.9724
-3.0610 5.8458 -2.3069 0.9724
-3.1325 5.8065 -2.3066 0.9724
-3.2741 5.7253 -2.3057 0.9724
-3.3091 5.7043 -2.3055 0.9724
-3.3440 5.6833 -2.3053 0.9724
-3.3788 5.6619 -2.3051 0.9724
-3.4479 5.6187 -2.3047 0.9725
-3.4823 5.5967 -2.3045 0.9725
-3.5845 5.5296 -2.3038 0.9725
-3.6854 5.4605 -2.3031 0.9725
-3.8177 5.3655 -2.3022 0.9725
-3.8830 5.3167 -2.3017 0.9725
-3.9154 5.2921 -2.3014 0.9725
-3.9476 5.2671 -2.3012 0.9725
-3.9797 5.2421 -2.3010 0.9725
-4.0749 5.1657 -2.3002 0.9725
-4.1063 5.1397 -2.2999 0.9725
-4.1375 5.1137 -2.2997 0.9725
-4.1686 5.0875 -2.2994 0.9725
-4.2385 5.0442 -2.3034 0.9725
-4.2608 5.0075 -2.2986 0.9725
-4.2912 4.9804 -2.2984 0.9725
-4.3514 4.9258 -2.2978 0.9725
-4.4569 4.9212 -2.3212 0.9723
-4.6530 4.9500 -2.3751 0.9716
-4.7919 4.9731 -2.4144 0.9712
-4.9264 4.9877 -2.4509 0.9707
-4.9565 4.9564 -2.4506 0.9707
-4.9864 4.9251 -2.4503 0.9707
-5.0456 4.8618 -2.4496 0.9707
-5.1901 4.7004 -2.4480 0.9708
-5.2465 4.6346 -2.4474 0.9708
-5.2743 4.6014 -2.4470 0.9708
-5.3294 4.5346 -2.4464 0.9708
-5.4103 4.4332 -2.4454 0.9708
-5.4632 4.3647 -2.4447 0.9708
-5.4894 4.3302 -2.4443 0.9708
-5.5409 4.2608 -2.4436 0.9708
-5.5916 4.1907 -2.4429 0.9708
-5.6414 4.1200 -2.4422 0.9708
-5.7852 3.9045 -2.4401 0.9709
-5.8084 3.8681 -2.4397 0.9709
-5.8765 3.7579 -2.4386 0.9709
-5.8987 3.7210 -2.4382 0.9709
-5.9425 3.6466 -2.4375 0.9709
-5.9853 3.5717 -2.4367 0.9709
-6.0064 3.5341 -2.4364 0.9709
-6.0272 3.4963 -2.4360 0.9709
-6.0681 3.4205 -2.4352 0.9709
-6.0881 3.3823 -2.4349 0.9709
-6.1080 3.3441 -2.4345 0.9709
-6.2219 3.1122 -2.4322 0.9710
-6.2400 3.0732 -2.4318 0.9710
-6.2579 3.0341 -2.4314 0.9710
-6.2755 2.9948 -2.4310 0.9710
-6.3100 2.9160 -2.4302 0.9710
-6.3436 2.8369 -2.4294 0.9710
-6.3599 2.7971 -2.4290 0.9710
-6.3761 2.7573 -2.4286 0.9710
-6.4229 2.6372 -2.4274 0.9710
-6.4676 2.5164 -2.4262 0.9710
-6.4819 2.4759 -2.4258 0.9710
-6.5099 2.3947 -2.4250 0.9710
-6.5627 2.2315 -2.4233 0.9711
-6.5752 2.1905 -2.4229 0.9711
-6.5875 2.1494 -2.4225 0.9711
-6.5996 2.1083 -2.4221 0.9711
-6.6114 2.0671 -2.4217 0.9711
-6.6229 2.0258 -2.4213 0.9711
-6.6342 1.9845 -2.4209 0.9711
-6.6452 1.9430 -2.4205 0.9711
-6.6559 1.9016 -2.4200 0.9711
-6.6664 1.8601 -2.4196 0.9711
-6.6766 1.8185 -2.4192 0.9711
-6.6866 1.7769 -2.4188 0.9711
-6.6963 1.7352 -2.4184 0.9711
-6.7057 1.6935 -2.4180 0.9711
-6.7149 1.6517 -2.4175 0.9711
-6.7409 1.5260 -2.4163 0.9711
-6.7490 1.4841 -2.4159 0.9711
-6.7789 1.3157 -2.4142 0.9712
-6.7986 1.1891 -2.4129 0.9712
-6.8104 1.1046 -2.4121 0.9712
-6.8211 1.0199 -2.4112 0.9712
-6.8261 0.9775 -2.4108 0.9712
-6.8394 0.8502 -2.4095 0.9712
-6.8504 0.7229 -2.4082 0.9712
-6.8564 0.6378 -2.4074 0.9712
-6.8590 0.5953 -2.4069 0.9712
-6.8613 0.5528 -2.4065 0.9713
-6.8634 0.5103 -2.4061 0.9713
-6.8652 0.4677 -2.4057 0.9713
-6.8667 0.4252 -2.4052 0.9713
-6.8690 0.3401 -2.4044 0.9713
-6.8698 0.2976 -2.4040 0.9713
-6.8705 0.1700 -2.4027 0.9713
-6.8702 0.1275 -2.4023 0.9713
-6.7074 0.0000 -2.4010 0.9719
-6.7007 -0.1658 -2.3993 0.9719
-6.6930 -0.2899 -2.3981 0.9719
-6.6899 -0.3313 -2.3976 0.9719
-6.6866 -0.3726 -2.3972 0.9719
-6.6791 -0.4551 -2.3964 0.9720
-6.6751 -0.4963 -2.3960 0.9720
-6.6707 -0.5375 -2.3956 0.9720
-6.6508 -0.7018 -2.3939 0.9720
-6.6452 -0.7428 -2.3935 0.9720
-6.6332 -0.8246 -2.3927 0.9720
-6.6202 -0.9063 -2.3919 0.9720
-6.6062 -0.9878 -2.3910 0.9720
-6.5913 -1.0691 -2.3902 0.9720
-6.5753 -1.1501 -2.3894 0.9720
-6.5495 -1.2713 -2.3882 0.9721
-6.5310 -1.3517 -2.3874 0.9721
-6.5215 -1.3918 -2.3870 0.9721
-6.5116 -1.4319 -2.3866 0.9721
-6.5016 -1.4719 -2.3862 0.9721
-6.4913 -1.5118 -2.3858 0.9721
-6.4807 -1.5517 -2.3854 0.9721
-6.4699 -1.5914 -2.3850 0.9721
-6.4122 -1.7892 -2.3830 0.9721
-6.4000 -1.8285 -2.3826 0.9721
-6.3748 -1.9069 -2.3818 0.9721
-6.3486 -1.9850 -2.3810 0.9721
-6.2935 -2.1400 -2.3795 0.9722
-6.2791 -2.1785 -2.3791 0.9722
-6.2496 -2.2553 -2.3783 0.9722
-6.2345 -2.2935 -2.3779 0.9722
-6.2192 -2.3316 -2.3775 0.9722
-6.1719 -2.4454 -2.3764 0.9722
-6.1226 -2.5583 -2.3753 0.9722
-6.1057 -2.5957 -2.3749 0.9722
-6.0885 -2.6330 -2.3745 0.9722
-6.0712 -2.6702 -2.3741 0.9722
-6.0358 -2.7442 -2.3734 0.9722
-6.0178 -2.7810 -2.3730 0.9722
-5.9810 -2.8544 -2.3723 0.9722
-5.9624 -2.8908 -2.3719 0.9722
-5.9243 -2.9634 -2.3712 0.9722
-5.9050 -2.9996 -2.3708 0.9723
-5.8854 -3.0356 -2.3704 0.9723
-5.8050 -3.1783 -2.3690 0.9723
-5.7844 -3.2136 -2.3687 0.9723
-5.7635 -3.2489 -2.3683 0.9723
-5.7212 -3.3189 -2.3676 0.9723
-5.6117 -3.4916 -2.3658 0.9723
-5.5204 -3.6273 -2.3645 0.9723
-5.4736 -3.6942 -2.3638 0.9723
-5.4260 -3.7605 -2.3631 0.9723
-5.4018 -3.7935 -2.3628 0.9723
-5.3530 -3.8589 -2.3621 0.9724
-5.3283 -3.8914 -2.3618 0.9724
-5.3034 -3.9237 -2.3615 0.9724
-5.2530 -3.9880 -2.3608 0.9724
-5.2019 -4.0515 -2.3602 0.9724
-5.1760 -4.0831 -2.3599 0.9724
-5.1500 -4.1145 -2.3596 0.9724
-5.0973 -4.1767 -2.3589 0.9724
-5.0707 -4.2076 -2.3586 0.9724
-4.9073 -4.3894 -2.3568 0.9724
-4.8515 -4.4486 -2.3562 0.9724
-4.8232 -4.4780 -2.3559 0.9724
-4.7663 -4.5362 -2.3553 0.9724
-4.6796 -4.6221 -2.3544 0.9724
-4.6503 -4.6504 -2.3541 0.9724
-4.5914 -4.7064 -2.3536 0.9725
-4.5616 -4.7341 -2.3533 0.9725
-4.5017 -4.7891 -2.3527 0.9725
-4.4410 -4.8433 -2.3522 0.9725
-4.3798 -4.8967 -2.3517 0.9725
-4.3179 -4.9494 -2.3511 0.9725
-4.2868 -4.9754 -2.3509 0.9725
-4.2240 -5.0270 -2.3503 0.9725
-4.1923 -5.0524 -2.3501 0.9725
-4.1606 -5.0777 -2.3498 0.9725
-3.9995 -5.2011 -2.3486 0.9725
-3.9668 -5.2252 -2.3483 0.9725
-3.9011 -5.2728 -2.3478 0.9725
-3.8348 -5.3196 -2.3474 0.9725
-3.8014 -5.3427 -2.3471 0.9725
-3.7343 -5.3882 -2.3467 0.9725
-3.7006 -5.4107 -2.3464 0.9725
-3.6327 -5.4549 -2.3460 0.9725
-3.5299 -5.5199 -2.3453 0.9725
-3.4607 -5.5621 -2.3449 0.9726
-3.3560 -5.6238 -2.3443 0.9726
-3.2503 -5.6836 -2.3437 0.9726
-3.2148 -5.7031 -2.3435 0.9726
-3.1792 -5.7224 -2.3433 0.9726
-3.1076 -5.7604 -2.3429 0.9726
-3.0357 -5.7974 -2.3425 0.9726
-2.9995 -5.8156 -2.3423 0.9726
-2.8905 -5.8689 -2.3418 0.9726
-2.8172 -5.9034 -2.3414 0.9726
-2.7805 -5.9202 -2.3413 0.9726
-2.7436 -5.9369 -2.3411 0.9726
-2.7066 -5.9533 -2.3409 0.9726
-2.6696 -5.9695 -2.3408 0.9726
-2.6324 -5.9855 -2.3406 0.9726
-2.5578 -6.0168 -2.3403 0.9726
-2.5204 -6.0321 -2.3401 0.9726
-2.4829 -6.0471 -2.3400 0.9726
-2.3698 -6.0910 -2.3395 0.9726
-2.3320 -6.1052 -2.3394 0.9726
-2.2941 -6.1191 -2.3392 0.9726
-2.2560 -6.1328 -2.3391 0.9726
-2.1032 -6.1853 -2.3386 0.9726
-2.0648 -6.1978 -2.3384 0.9726
-1.9877 -6.2222 -2.3382 0.9726
-1.9491 -6.2341 -2.3381 0.9726
