ply
format ascii 1.0
element vertex 1595
property float32 x
property float32 y
property float32 z
property float32 I
end_header
-0.4743 1.7415 -0.7383 0.9922
-0.5092 1.7414 -0.7422 0.9922
-0.5326 1.7413 -0.7449 0.9922
-0.5444 1.7413 -0.7463 0.9921
-0.5562 1.7412 -0.7477 0.9921
-0.6527 1.7409 -0.7605 0.9920
-0.6773 1.7408 -0.7641 0.9920
-0.6897 1.7408 -0.7660 0.9919
-0.7022 1.7407 -0.7678 0.9919
-0.7147 1.7407 -0.7697 0.9919
-0.7527 1.7406 -0.7757 0.9918
-0.7655 1.7406 -0.7778 0.9918
-0.7784 1.7405 -0.7799 0.9918
-0.7913 1.7405 -0.7821 0.9918
-0.8840 1.7403 -0.7985 0.9916
-0.9112 1.7402 -0.8035 0.9915
-0.9667 1.7401 -0.8143 0.9914
-1.0094 1.7400 -0.8228 0.9913
-1.0677 1.7399 -0.8350 0.9912
-1.0825 1.7398 -0.8382 0.9912
-1.0975 1.7398 -0.8415 0.9911
-1.1126 1.7398 -0.8448 0.9911
-1.2377 1.7396 -0.8733 0.9908
-1.2870 1.7395 -0.8851 0.9907
-1.3376 1.7394 -0.8976 0.9906
-1.3721 1.7394 -0.9062 0.9905
-1.3896 1.7393 -0.9107 0.9904
-1.4984 1.7390 -0.9390 0.9901
-1.5554 1.7389 -0.9544 0.9900
-1.5748 1.7389 -0.9597 0.9899
-1.6344 1.7387 -0.9761 0.9897
-1.6961 1.7386 -0.9936 0.9896
-1.7172 1.7385 -0.9996 0.9895
-1.7601 1.7384 -1.0120 0.9894
-1.7819 1.7384 -1.0183 0.9893
-1.8040 1.7383 -1.0248 0.9892
-1.8265 1.7383 -1.0314 0.9892
-1.8492 1.7382 -1.0382 0.9891
-1.8955 1.7381 -1.0520 0.9889
-1.9431 1.7380 -1.0664 0.9888
-2.1659 1.8896 -1.1758 0.9877
-2.1744 1.8734 -1.1741 0.9877
-2.1827 1.8572 -1.1724 0.9877
-2.1910 1.8410 -1.1707 0.9877
-2.1992 1.8248 -1.1690 0.9877
-2.2073 1.8086 -1.1673 0.9877
-2.2395 1.7892 -1.1726 0.9877
-2.3257 1.7884 -1.2001 0.9874
-2.3855 1.7878 -1.2195 0.9872
-2.5438 1.7864 -1.2715 0.9867
-2.5771 1.7861 -1.2826 0.9865
-2.6806 1.7851 -1.3174 0.9862
-2.7899 1.7841 -1.3546 0.9858
-2.8277 1.7837 -1.3676 0.9857
-3.0935 1.8984 -1.4847 0.9844
-3.0906 1.8443 -1.4722 0.9846
-3.0877 1.7912 -1.4602 0.9847
-3.0864 1.7650 -1.4544 0.9848
-3.0850 1.7390 -1.4486 0.9848
-3.1993 1.7260 -1.4870 0.9844
-3.3437 1.7246 -1.5390 0.9839
-3.3941 1.7241 -1.5572 0.9837
-3.4457 1.7236 -1.5760 0.9835
-3.4985 1.7230 -1.5953 0.9833
-3.5527 1.7225 -1.6151 0.9831
-3.6653 1.7214 -1.6564 0.9827
-3.7237 1.7208 -1.6780 0.9824
-3.9086 1.7190 -1.7467 0.9817
-3.9737 1.7184 -1.7710 0.9815
-4.0405 1.7177 -1.7960 0.9812
-4.1802 1.7163 -1.8485 0.9807
-5.4487 2.1979 -2.4034 0.9749
-5.4621 2.1641 -2.4033 0.9749
-5.4753 2.1303 -2.4033 0.9749
-5.4882 2.0963 -2.4032 0.9749
-5.5259 1.9941 -2.4031 0.9749
-5.5616 1.8911 -2.4030 0.9749
-5.5731 1.8566 -2.4029 0.9749
-5.5844 1.8221 -2.4029 0.9749
-5.5954 1.7875 -2.4028 0.9749
-5.6169 1.7181 -2.4027 0.9749
-5.6375 1.6484 -2.4027 0.9749
-5.6761 1.5084 -2.4025 0.9749
-5.7028 1.4027 -2.4023 0.9749
-5.7113 1.3674 -2.4023 0.9749
-5.7195 1.3320 -2.4022 0.9749
-5.7353 1.2611 -2.4022 0.9749
-5.7574 1.1544 -2.4020 0.9749
-5.7643 1.1188 -2.4020 0.9749
-5.7838 1.0116 -2.4018 0.9749
-5.8117 0.8322 -2.4016 0.9749
-5.8166 0.7962 -2.4016 0.9749
-5.8258 0.7243 -2.4015 0.9749
-5.8301 0.6881 -2.4014 0.9749
-5.8379 0.6160 -2.4013 0.9749
-5.8480 0.5075 -2.4012 0.9750
-5.8536 0.4352 -2.4011 0.9750
-5.8603 0.3265 -2.4009 0.9750
-5.8621 0.2902 -2.4009 0.9750
-5.8670 0.1451 -2.4007 0.9750
-5.7460 -0.0356 -2.4005 0.9754
-5.7449 -0.1066 -2.4004 0.9754
-5.7416 -0.2132 -2.4002 0.9754
-5.7383 -0.2842 -2.4002 0.9754
-5.7364 -0.3196 -2.4001 0.9754
-5.7342 -0.3551 -2.4001 0.9754
-5.7291 -0.4260 -2.4000 0.9754
-5.7164 -0.5675 -2.3998 0.9754
-5.7087 -0.6382 -2.3997 0.9754
-5.7046 -0.6734 -2.3997 0.9754
-5.7002 -0.7087 -2.3996 0.9754
-5.6956 -0.7439 -2.3996 0.9754
-5.6750 -0.8845 -2.3994 0.9754
-5.6693 -0.9196 -2.3993 0.9754
-5.6510 -1.0245 -2.3992 0.9754
-5.6377 -1.0943 -2.3991 0.9754
-5.6235 -1.1639 -2.3990 0.9754
-5.6161 -1.1986 -2.3990 0.9754
-5.6084 -1.2333 -2.3989 0.9754
-5.6006 -1.2679 -2.3989 0.9754
-5.5925 -1.3025 -2.3988 0.9754
-5.5758 -1.3715 -2.3988 0.9754
-5.5671 -1.4060 -2.3987 0.9754
-5.5398 -1.5089 -2.3986 0.9754
-5.5302 -1.5431 -2.3985 0.9754
-5.5205 -1.5773 -2.3985 0.9754
-5.4794 -1.7132 -2.3983 0.9754
-5.4464 -1.8144 -2.3982 0.9754
-5.4115 -1.9151 -2.3980 0.9754
-5.3994 -1.9485 -2.3980 0.9754
-5.3872 -1.9818 -2.3980 0.9754
-5.3361 -2.1143 -2.3978 0.9754
-5.3094 -2.1800 -2.3977 0.9754
-5.2818 -2.2455 -2.3976 0.9754
-5.2677 -2.2780 -2.3976 0.9754
-5.2390 -2.3429 -2.3975 0.9754
-5.2094 -2.4075 -2.3974 0.9754
-5.1943 -2.4396 -2.3974 0.9754
-5.1321 -2.5671 -2.3972 0.9754
-5.1160 -2.5988 -2.3972 0.9754
-5.0666 -2.6931 -2.3970 0.9754
-5.0498 -2.7243 -2.3970 0.9754
-5.0328 -2.7555 -2.3970 0.9754
-5.0156 -2.7865 -2.3969 0.9754
-4.9981 -2.8174 -2.3969 0.9754
-4.9805 -2.8482 -2.3968 0.9754
-4.9627 -2.8789 -2.3968 0.9754
-4.9448 -2.9095 -2.3968 0.9754
-4.9266 -2.9400 -2.3967 0.9754
-4.8897 -3.0006 -2.3966 0.9754
-4.8710 -3.0307 -2.3966 0.9754
-4.8521 -3.0607 -2.3966 0.9754
-4.8330 -3.0906 -2.3965 0.9754
-4.8137 -3.1204 -2.3965 0.9754
-4.7942 -3.1501 -2.3964 0.9754
-4.7547 -3.2090 -2.3964 0.9754
-4.6941 -3.2965 -2.3963 0.9754
-4.6529 -3.3542 -2.3962 0.9754
-4.6320 -3.3829 -2.3961 0.9754
-4.5466 -3.4962 -2.3960 0.9754
-4.4808 -3.5798 -2.3959 0.9754
-4.4360 -3.6348 -2.3958 0.9754
-4.4134 -3.6621 -2.3958 0.9754
-4.3906 -3.6893 -2.3957 0.9754
-4.3445 -3.7432 -2.3957 0.9754
-4.1290 -3.9786 -2.3954 0.9754
-4.0794 -4.0292 -2.3953 0.9755
-4.0037 -4.1041 -2.3952 0.9755
-3.9782 -4.1287 -2.3952 0.9755
-3.9526 -4.1532 -2.3951 0.9755
-3.9268 -4.1775 -2.3951 0.9755
-3.9008 -4.2016 -2.3951 0.9755
-3.8747 -4.2256 -2.3950 0.9755
-3.8484 -4.2494 -2.3950 0.9755
-3.8220 -4.2731 -2.3950 0.9755
-3.6879 -4.3889 -2.3948 0.9755
-3.6606 -4.4116 -2.3948 0.9755
-3.5223 -4.5224 -2.3947 0.9755
-3.4092 -4.6079 -2.3945 0.9755
-3.3518 -4.6496 -2.3945 0.9755
-3.2940 -4.6906 -2.3944 0.9755
-3.2649 -4.7109 -2.3944 0.9755
-3.2357 -4.7309 -2.3944 0.9755
-3.2063 -4.7507 -2.3944 0.9755
-3.1768 -4.7704 -2.3943 0.9755
-3.1472 -4.7900 -2.3943 0.9755
-3.0577 -4.8474 -2.3942 0.9755
-2.9672 -4.9031 -2.3942 0.9755
-2.9063 -4.9393 -2.3941 0.9755
-2.8141 -4.9922 -2.3940 0.9755
-2.7831 -5.0095 -2.3940 0.9755
-2.7520 -5.0266 -2.3940 0.9755
-2.6268 -5.0929 -2.3939 0.9755
-2.5635 -5.1249 -2.3939 0.9755
-2.5318 -5.1407 -2.3938 0.9755
-2.3717 -5.2163 -2.3937 0.9755
-2.3067 -5.2451 -2.3937 0.9755
-2.2417 -5.2732 -2.3937 0.9755
-2.2091 -5.2869 -2.3937 0.9755
-2.0445 -5.3524 -2.3936 0.9755
-2.0113 -5.3649 -2.3935 0.9755
-1.9780 -5.3772 -2.3935 0.9755
-1.9114 -5.4012 -2.3935 0.9755
-1.8780 -5.4129 -2.3935 0.9755
-1.8108 -5.4357 -2.3935 0.9755
-1.7435 -5.4576 -2.3934 0.9755
-1.7097 -5.4682 -2.3934 0.9755
-1.6758 -5.4787 -2.3934 0.9755
-1.6419 -5.4889 -2.3934 0.9755
-1.6078 -5.4989 -2.3934 0.9755
-1.5398 -5.5183 -2.3933 0.9755
-1.5056 -5.5277 -2.3933 0.9755
-1.4714 -5.5369 -2.3933 0.9755
-1.4028 -5.5546 -2.3933 0.9755
-1.3684 -5.5631 -2.3933 0.9755
-1.2995 -5.5796 -2.3933 0.9755
-1.2303 -5.5952 -2.3932 0.9755
-1.1610 -5.6099 -2.3932 0.9755
-1.1263 -5.6170 -2.3932 0.9755
-1.0219 -5.6368 -2.3932 0.9755
-0.9870 -5.6430 -2.3932 0.9755
-0.9521 -5.6490 -2.3932 0.9755
-0.8471 -5.6656 -2.3931 0.9755
-0.8121 -5.6707 -2.3931 0.9755
-0.7770 -5.6757 -2.3931 0.9755
-0.6364 -5.6931 -2.3931 0.9755
-0.6011 -5.6969 -2.3931 0.9755
-0.5306 -5.7039 -2.3931 0.9755
-0.4247 -5.7127 -2.3931 0.9755
-0.3894 -5.7152 -2.3931 0.9755
-0.3187 -5.7196 -2.3931 0.9755
-0.2833 -5.7214 -2.3931 0.9755
-0.2125 -5.7245 -2.3931 0.9755
-0.1771 -5.7257 -2.3931 0.9755
-0.1063 -5.7274 -2.3931 0.9755
-0.0000 -5.7284 -2.3931 0.9755
0.0354 -5.7283 -2.3931 0.9755
0.2125 -5.7245 -2.3931 0.9755
0.4247 -5.7127 -2.3931 0.9755
0.6011 -5.6969 -2.3931 0.9755
0.6363 -5.6930 -2.3931 0.9755
0.6715 -5.6890 -2.3931 0.9755
0.7067 -5.6848 -2.3931 0.9755
0.7419 -5.6803 -2.3931 0.9755
0.8821 -5.6603 -2.3931 0.9755
0.9171 -5.6547 -2.3931 0.9755
0.9521 -5.6489 -2.3931 0.9755
1.0219 -5.6368 -2.3932 0.9755
1.0915 -5.6237 -2.3932 0.9755
1.1957 -5.6026 -2.3932 0.9755
1.2649 -5.5874 -2.3932 0.9755
1.4371 -5.5457 -2.3933 0.9755
1.4713 -5.5368 -2.3933 0.9755
1.6079 -5.4988 -2.3933 0.9755
1.6419 -5.4888 -2.3933 0.9755
1.6758 -5.4786 -2.3934 0.9755
1.7096 -5.4681 -2.3934 0.9755
1.8110 -5.4355 -2.3934 0.9755
1.8445 -5.4243 -2.3934 0.9755
1.8779 -5.4128 -2.3934 0.9755
1.9114 -5.4011 -2.3935 0.9755
1.9447 -5.3892 -2.3935 0.9755
2.0775 -5.3396 -2.3935 0.9755
2.1105 -5.3267 -2.3936 0.9755
2.1436 -5.3136 -2.3936 0.9755
2.1762 -5.3003 -2.3936 0.9755
2.3392 -5.2307 -2.3937 0.9755
2.3715 -5.2162 -2.3937 0.9755
2.4999 -5.1561 -2.3938 0.9755
2.5317 -5.1405 -2.3938 0.9755
2.5635 -5.1248 -2.3938 0.9755
2.5950 -5.1089 -2.3938 0.9755
2.6269 -5.0928 -2.3938 0.9755
2.6896 -5.0600 -2.3939 0.9755
2.7520 -5.0264 -2.3939 0.9755
2.8140 -4.9921 -2.3940 0.9755
2.8448 -4.9747 -2.3940 0.9755
2.8756 -4.9570 -2.3940 0.9755
2.9062 -4.9392 -2.3940 0.9755
2.9974 -4.8846 -2.3941 0.9755
3.0576 -4.8472 -2.3942 0.9755
3.0876 -4.8283 -2.3942 0.9755
3.1174 -4.8091 -2.3942 0.9755
3.1471 -4.7898 -2.3942 0.9755
3.1767 -4.7703 -2.3943 0.9755
3.2062 -4.7506 -2.3943 0.9755
3.2939 -4.6905 -2.3944 0.9755
3.3229 -4.6701 -2.3944 0.9755
3.3517 -4.6495 -2.3944 0.9755
3.4375 -4.5866 -2.3945 0.9755
3.4658 -4.5654 -2.3945 0.9755
3.4941 -4.5439 -2.3945 0.9755
3.5501 -4.5004 -2.3946 0.9755
3.5779 -4.4785 -2.3946 0.9755
3.6331 -4.4339 -2.3947 0.9755
3.8483 -4.2493 -2.3949 0.9755
3.8745 -4.2255 -2.3950 0.9755
3.9266 -4.1773 -2.3950 0.9755
3.9524 -4.1530 -2.3950 0.9755
3.9781 -4.1285 -2.3951 0.9755
4.0036 -4.1039 -2.3951 0.9755
4.1534 -3.9529 -2.3953 0.9755
4.2021 -3.9013 -2.3954 0.9754
4.2501 -3.8492 -2.3954 0.9754
4.2739 -3.8228 -2.3955 0.9754
4.2975 -3.7964 -2.3955 0.9754
4.3443 -3.7431 -2.3956 0.9754
4.3674 -3.7162 -2.3956 0.9754
4.3904 -3.6891 -2.3956 0.9754
4.4132 -3.6620 -2.3957 0.9754
4.4806 -3.5796 -2.3958 0.9754
4.5027 -3.5519 -2.3958 0.9754
4.5246 -3.5241 -2.3959 0.9754
4.5894 -3.4397 -2.3960 0.9754
4.6527 -3.3541 -2.3961 0.9754
4.7143 -3.2673 -2.3962 0.9754
4.7345 -3.2382 -2.3962 0.9754
4.7545 -3.2089 -2.3963 0.9754
4.7743 -3.1795 -2.3963 0.9754
4.7940 -3.1499 -2.3963 0.9754
4.8134 -3.1203 -2.3964 0.9754
4.9080 -2.9702 -2.3966 0.9754
4.9264 -2.9398 -2.3966 0.9754
4.9625 -2.8788 -2.3967 0.9754
5.0830 -2.6617 -2.3970 0.9754
5.0995 -2.6302 -2.3970 0.9754
5.1157 -2.5987 -2.3970 0.9754
5.1318 -2.5670 -2.3971 0.9754
5.1476 -2.5353 -2.3971 0.9754
5.1633 -2.5035 -2.3972 0.9754
5.1788 -2.4715 -2.3972 0.9754
5.1941 -2.4395 -2.3972 0.9754
5.2091 -2.4073 -2.3973 0.9754
5.2240 -2.3751 -2.3973 0.9754
5.2387 -2.3428 -2.3974 0.9754
5.2532 -2.3104 -2.3974 0.9754
5.2675 -2.2779 -2.3975 0.9754
5.3091 -2.1800 -2.3976 0.9754
5.3358 -2.1142 -2.3977 0.9754
5.3991 -1.9484 -2.3979 0.9754
5.4230 -1.8815 -2.3980 0.9754
5.4346 -1.8480 -2.3980 0.9754
5.4683 -1.7469 -2.3981 0.9754
5.4791 -1.7131 -2.3982 0.9754
5.5000 -1.6453 -2.3983 0.9754
5.5202 -1.5771 -2.3984 0.9754
5.5299 -1.5430 -2.3984 0.9754
5.5395 -1.5088 -2.3984 0.9754
5.6003 -1.2678 -2.3988 0.9754
5.6232 -1.1638 -2.3989 0.9754
5.6304 -1.1290 -2.3989 0.9754
5.6507 -1.0245 -2.3991 0.9754
5.6631 -0.9545 -2.3992 0.9754
5.6690 -0.9195 -2.3992 0.9754
5.6747 -0.8845 -2.3993 0.9754
5.6854 -0.8142 -2.3993 0.9754
5.6904 -0.7790 -2.3994 0.9754
5.6953 -0.7439 -2.3994 0.9754
5.6999 -0.7086 -2.3995 0.9754
5.7084 -0.6381 -2.3996 0.9754
5.7123 -0.6028 -2.3996 0.9754
5.7161 -0.5675 -2.3997 0.9754
5.7259 -0.4614 -2.3998 0.9754
5.7288 -0.4259 -2.3998 0.9754
5.7338 -0.3551 -2.3999 0.9754
5.7398 -0.2487 -2.4001 0.9754
5.7413 -0.2132 -2.4001 0.9754
5.7426 -0.1776 -2.4002 0.9754
5.7437 -0.1421 -2.4002 0.9754
5.7446 -0.1066 -2.4003 0.9754
5.7453 -0.0711 -2.4003 0.9754
5.7457 -0.0356 -2.4004 0.9754
5.7459 -0.0000 -2.4004 0.9754
5.7459 0.0355 -2.4004 0.9754
5.7457 0.0710 -2.4005 0.9754
5.7446 0.1421 -2.4006 0.9754
5.7437 0.1776 -2.4006 0.9754
5.7413 0.2487 -2.4007 0.9754
5.7338 0.3906 -2.4009 0.9754
5.7314 0.4261 -2.4009 0.9754
5.7161 0.6031 -2.4012 0.9754
5.6952 0.7796 -2.4014 0.9754
5.6854 0.8501 -2.4015 0.9754
5.6746 0.9203 -2.4016 0.9754
5.6505 1.0605 -2.4018 0.9754
5.6372 1.1304 -2.4019 0.9754
5.6230 1.2000 -2.4019 0.9754
5.6156 1.2348 -2.4020 0.9754
5.5837 1.3735 -2.4022 0.9754
5.5752 1.4079 -2.4022 0.9754
5.5576 1.4769 -2.4023 0.9754
5.5485 1.5112 -2.4024 0.9754
5.5391 1.5455 -2.4024 0.9754
5.5296 1.5798 -2.4024 0.9754
5.5098 1.6481 -2.4025 0.9754
5.4786 1.7501 -2.4027 0.9754
5.4677 1.7840 -2.4027 0.9754
5.4567 1.8179 -2.4027 0.9754
5.4340 1.8853 -2.4028 0.9754
5.3736 2.0525 -2.4031 0.9754
5.3480 2.1189 -2.4031 0.9754
5.3349 2.1520 -2.4032 0.9754
5.3216 2.1850 -2.4032 0.9754
5.3081 2.2179 -2.4033 0.9754
5.2943 2.2507 -2.4033 0.9754
5.2804 2.2835 -2.4034 0.9754
3.8673 1.8163 -1.7849 0.9816
3.7440 1.8153 -1.7382 0.9821
3.5707 1.8138 -1.6731 0.9828
3.4622 1.8129 -1.6326 0.9832
3.4099 1.8125 -1.6132 0.9834
3.2601 1.8112 -1.5580 0.9840
3.2124 1.8108 -1.5405 0.9841
3.1658 1.8104 -1.5235 0.9843
3.1202 1.8100 -1.5069 0.9845
2.9891 1.8089 -1.4596 0.9850
2.8266 1.8076 -1.4016 0.9856
2.7567 1.8113 -1.3780 0.9858
2.7538 1.8339 -1.3822 0.9858
2.7508 1.8565 -1.3864 0.9857
2.5950 1.7748 -1.3134 0.9865
2.5600 1.7742 -1.3012 0.9866
2.4587 1.7725 -1.2662 0.9869
2.3942 1.7713 -1.2442 0.9872
2.3627 1.7708 -1.2335 0.9873
2.3318 1.7703 -1.2230 0.9874
2.3014 1.7697 -1.2128 0.9875
2.2716 1.7692 -1.2028 0.9876
2.2422 1.7687 -1.1930 0.9877
2.2132 1.7682 -1.1834 0.9878
2.1847 1.7677 -1.1740 0.9879
2.1291 1.7667 -1.1558 0.9881
2.1019 1.7662 -1.1469 0.9882
2.0228 1.7648 -1.1214 0.9884
1.9972 1.7643 -1.1133 0.9885
1.9720 1.7639 -1.1053 0.9886
1.8982 1.7623 -1.0820 0.9888
1.8506 1.7613 -1.0673 0.9890
1.7599 1.7599 -1.0397 0.9893
1.7379 1.7596 -1.0332 0.9893
1.7163 1.7592 -1.0267 0.9894
1.6117 1.7577 -0.9963 0.9897
1.5916 1.7574 -0.9905 0.9898
1.5519 1.7568 -0.9793 0.9899
1.5132 1.7562 -0.9685 0.9900
1.4199 1.7549 -0.9430 0.9903
1.3840 1.7544 -0.9335 0.9904
1.3487 1.7539 -0.9243 0.9905
1.3141 1.7534 -0.9154 0.9905
1.2802 1.7530 -0.9068 0.9906
1.2470 1.7525 -0.8985 0.9907
1.2305 1.7523 -0.8945 0.9908
1.1663 1.7514 -0.8790 0.9909
1.1506 1.7512 -0.8754 0.9910
1.1350 1.7510 -0.8717 0.9910
1.1196 1.7508 -0.8682 0.9910
1.1043 1.7506 -0.8647 0.9911
1.0891 1.7504 -0.8612 0.9911
1.0740 1.7502 -0.8578 0.9911
1.0442 1.7498 -0.8512 0.9912
1.0294 1.7496 -0.8480 0.9912
1.0148 1.7494 -0.8449 0.9913
0.9433 1.7485 -0.8299 0.9914
0.9154 1.7481 -0.8243 0.9915
0.8743 1.7478 -0.8164 0.9916
0.8608 1.7478 -0.8139 0.9916
0.8340 1.7477 -0.8090 0.9916
0.8208 1.7476 -0.8066 0.9917
0.7685 1.7474 -0.7975 0.9918
0.7556 1.7473 -0.7953 0.9918
0.7428 1.7473 -0.7932 0.9918
0.7301 1.7472 -0.7911 0.9918
0.6922 1.7471 -0.7851 0.9919
0.6797 1.7470 -0.7831 0.9919
0.6304 1.7469 -0.7758 0.9920
0.6182 1.7468 -0.7741 0.9920
0.5939 1.7467 -0.7707 0.9920
0.5699 1.7466 -0.7675 0.9921
0.5579 1.7466 -0.7660 0.9921
0.5342 1.7465 -0.7630 0.9921
0.5224 1.7464 -0.7615 0.9921
0.5106 1.7464 -0.7601 0.9921
0.4989 1.7463 -0.7587 0.9922
0.4756 1.7462 -0.7561 0.9922
0.4640 1.7461 -0.7548 0.9922
0.4525 1.7461 -0.7535 0.9922
0.4409 1.7460 -0.7523 0.9922
0.4295 1.7460 -0.7511 0.9922
0.4066 1.7459 -0.7489 0.9923
0.3952 1.7458 -0.7478 0.9923
0.3839 1.7457 -0.7467 0.9923
0.3726 1.7457 -0.7457 0.9923
0.3613 1.7456 -0.7447 0.9923
0.3500 1.7456 -0.7437 0.9923
0.3164 1.7454 -0.7410 0.9923
0.3053 1.7454 -0.7402 0.9923
0.2942 1.7453 -0.7394 0.9924
0.2720 1.7452 -0.7379 0.9924
0.2389 1.7451 -0.7358 0.9924
0.2279 1.7450 -0.7352 0.9924
0.2169 1.7450 -0.7346 0.9924
0.1841 1.7448 -0.7330 0.9924
0.1732 1.7448 -0.7325 0.9924
0.1514 1.7447 -0.7316 0.9924
0.1297 1.7446 -0.7308 0.9924
0.0972 1.7444 -0.7299 0.9925
0.0864 1.7444 -0.7296 0.9925
0.0216 1.7441 -0.7287 0.9925
-0.0000 1.7440 -0.7286 0.9925
-0.0216 1.7439 -0.7286 0.9925
-0.0647 1.7437 -0.7289 0.9925
-0.0755 1.7436 -0.7291 0.9925
-0.0863 1.7436 -0.7293 0.9925
-0.1513 1.7432 -0.7310 0.9924
-0.1948 1.7430 -0.7327 0.9924
-0.2276 1.7429 -0.7343 0.9924
-0.2496 1.7427 -0.7355 0.9924
-0.3048 1.7425 -0.7390 0.9924
-0.3382 1.7423 -0.7415 0.9923
-0.3494 1.7423 -0.7423 0.9923
-0.3831 1.7422 -0.7452 0.9923
-0.3944 1.7421 -0.7462 0.9923
-0.4057 1.7421 -0.7472 0.9923
-0.4399 1.7419 -0.7506 0.9922
-0.4860 1.7418 -0.7554 0.9922
-0.5210 1.7416 -0.7594 0.9922
-0.5445 1.7415 -0.7623 0.9921
-0.5563 1.7415 -0.7637 0.9921
-0.5682 1.7415 -0.7653 0.9921
-0.6405 1.7412 -0.7751 0.9920
-0.7148 1.7410 -0.7862 0.9919
-0.7528 1.7409 -0.7924 0.9918
-0.7915 1.7408 -0.7989 0.9917
-0.8045 1.7407 -0.8011 0.9917
-0.8175 1.7407 -0.8034 0.9917
-0.8307 1.7407 -0.8057 0.9917
-0.8439 1.7406 -0.8081 0.9916
-0.8573 1.7406 -0.8106 0.9916
-0.8977 1.7405 -0.8181 0.9915
-0.9114 1.7405 -0.8208 0.9915
-0.9251 1.7405 -0.8234 0.9915
-0.9390 1.7404 -0.8261 0.9915
-0.9669 1.7404 -0.8317 0.9914
-0.9810 1.7404 -0.8346 0.9914
-0.9952 1.7403 -0.8375 0.9913
-1.0385 1.7402 -0.8466 0.9913
-1.0977 1.7401 -0.8595 0.9911
-1.1280 1.7401 -0.8663 0.9911
-1.1587 1.7400 -0.8733 0.9910
-1.2219 1.7399 -0.8882 0.9908
-1.2380 1.7398 -0.8920 0.9908
-1.2542 1.7398 -0.8960 0.9907
-1.2706 1.7398 -0.9000 0.9907
-1.3038 1.7397 -0.9082 0.9906
-1.3207 1.7396 -0.9124 0.9906
-1.3377 1.7396 -0.9167 0.9905
-1.3549 1.7395 -0.9211 0.9905
-1.3722 1.7395 -0.9256 0.9904
-1.3897 1.7395 -0.9301 0.9904
-1.4074 1.7394 -0.9347 0.9903
-1.4252 1.7394 -0.9394 0.9903
-1.4615 1.7393 -0.9490 0.9902
-1.4799 1.7392 -0.9540 0.9901
-1.5173 1.7391 -0.9642 0.9900
-1.5363 1.7391 -0.9694 0.9900
-1.5555 1.7390 -0.9747 0.9899
-1.5749 1.7390 -0.9801 0.9899
-1.6144 1.7389 -0.9912 0.9898
-1.6345 1.7389 -0.9970 0.9897
-1.6548 1.7388 -1.0028 0.9896
-1.6754 1.7388 -1.0087 0.9896
-1.6962 1.7387 -1.0147 0.9895
-1.7602 1.7386 -1.0335 0.9893
-1.8042 1.7385 -1.0467 0.9892
-1.8957 1.7382 -1.0745 0.9889
-1.9193 1.7382 -1.0817 0.9888
-1.9433 1.7381 -1.0892 0.9888
-2.1322 1.8835 -1.1885 0.9877
-2.1656 1.7970 -1.1756 0.9879
-2.1842 1.7897 -1.1796 0.9878
-2.2116 1.7894 -1.1885 0.9877
-2.2678 1.7889 -1.2067 0.9876
-2.2965 1.7887 -1.2160 0.9875
-2.3553 1.7881 -1.2354 0.9873
-2.4160 1.7875 -1.2555 0.9871
-2.4472 1.7872 -1.2659 0.9869
-2.4788 1.7870 -1.2766 0.9868
-2.5110 1.7866 -1.2874 0.9867
-2.6109 1.7857 -1.3214 0.9864
-2.6805 1.7851 -1.3454 0.9861
-2.7898 1.7840 -1.3834 0.9857
-2.8276 1.7837 -1.3966 0.9856
-2.8662 1.7833 -1.4102 0.9855
-3.0975 1.8485 -1.5069 0.9845
-3.0961 1.8217 -1.5007 0.9845
-3.0918 1.7428 -1.4827 0.9847
-3.1082 1.7268 -1.4854 0.9847
-3.1532 1.7264 -1.5018 0.9845
-3.1992 1.7259 -1.5186 0.9844
-3.2462 1.7255 -1.5358 0.9842
-3.2944 1.7250 -1.5535 0.9840
-3.3436 1.7245 -1.5716 0.9838
-3.4985 1.7230 -1.6291 0.9832
-3.7836 1.7202 -1.7363 0.9821
-3.9085 1.7190 -1.7837 0.9817
-5.3083 2.2180 -2.4034 0.9754
-5.3219 2.1851 -2.4033 0.9754
-5.3612 2.0859 -2.4032 0.9754
-5.3739 2.0527 -2.4032 0.9754
-5.3864 2.0193 -2.4031 0.9754
-5.4108 1.9525 -2.4030 0.9754
-5.4226 1.9190 -2.4030 0.9754
-5.4458 1.8517 -2.4029 0.9754
-5.4681 1.7841 -2.4028 0.9754
-5.4789 1.7502 -2.4028 0.9754
-5.4895 1.7163 -2.4027 0.9754
-5.4999 1.6823 -2.4027 0.9754
-5.5394 1.5456 -2.4025 0.9754
-5.5488 1.5113 -2.4025 0.9754
-5.5579 1.4770 -2.4024 0.9754
-5.5756 1.4080 -2.4023 0.9754
-5.5841 1.3735 -2.4023 0.9754
-5.6083 1.2696 -2.4022 0.9754
-5.6159 1.2348 -2.4021 0.9754
-5.6233 1.2001 -2.4021 0.9754
-5.6572 1.0255 -2.4018 0.9754
-5.6633 0.9905 -2.4018 0.9754
-5.6804 0.8853 -2.4017 0.9754
-5.6857 0.8501 -2.4016 0.9754
-5.6955 0.7797 -2.4015 0.9754
-5.7045 0.7092 -2.4014 0.9754
-5.7126 0.6385 -2.4014 0.9754
-5.7364 0.3552 -2.4010 0.9754
-5.7383 0.3197 -2.4009 0.9754
-5.7416 0.2487 -2.4008 0.9754
-5.7430 0.2132 -2.4008 0.9754
-5.7449 0.1421 -2.4007 0.9754
-5.6284 -0.0001 -2.4005 0.9758
-5.6282 -0.0348 -2.4005 0.9758
-5.6278 -0.0696 -2.4004 0.9758
-5.6271 -0.1045 -2.4004 0.9758
-5.6262 -0.1392 -2.4003 0.9758
-5.6252 -0.1740 -2.4003 0.9758
-5.6224 -0.2436 -2.4002 0.9758
-5.6207 -0.2783 -2.4002 0.9758
-5.6187 -0.3131 -2.4001 0.9758
-5.6142 -0.3826 -2.4000 0.9758
-5.6116 -0.4173 -2.4000 0.9758
-5.6088 -0.4519 -2.3999 0.9758
-5.6058 -0.4866 -2.3999 0.9758
-5.6026 -0.5213 -2.3998 0.9758
-5.5992 -0.5559 -2.3998 0.9758
-5.5955 -0.5904 -2.3998 0.9758
-5.5917 -0.6250 -2.3997 0.9758
-5.5833 -0.6941 -2.3996 0.9758
-5.5741 -0.7631 -2.3995 0.9758
-5.5640 -0.8320 -2.3994 0.9758
-5.5587 -0.8663 -2.3994 0.9758
-5.5413 -0.9693 -2.3993 0.9758
-5.5351 -1.0035 -2.3992 0.9758
-5.5287 -1.0377 -2.3992 0.9758
-5.5009 -1.1740 -2.3990 0.9758
-5.4779 -1.2758 -2.3989 0.9758
-5.4698 -1.3096 -2.3988 0.9758
-5.4615 -1.3434 -2.3988 0.9758
-5.4443 -1.4108 -2.3987 0.9758
-5.4354 -1.4445 -2.3987 0.9758
-5.4169 -1.5115 -2.3986 0.9758
-5.3775 -1.6449 -2.3984 0.9758
-5.3671 -1.6781 -2.3984 0.9758
-5.3565 -1.7112 -2.3983 0.9758
-5.3457 -1.7443 -2.3983 0.9758
-5.3236 -1.8102 -2.3982 0.9758
-5.3122 -1.8430 -2.3981 0.9758
-5.3006 -1.8758 -2.3981 0.9758
-5.2888 -1.9085 -2.3981 0.9758
-5.2768 -1.9412 -2.3980 0.9758
-5.2646 -1.9737 -2.3980 0.9758
-5.2396 -2.0386 -2.3979 0.9758
-5.2268 -2.0710 -2.3978 0.9758
-5.2138 -2.1032 -2.3978 0.9758
-5.2006 -2.1354 -2.3978 0.9758
-5.1027 -2.3581 -2.3975 0.9759
-5.0730 -2.4210 -2.3974 0.9759
-5.0112 -2.5455 -2.3972 0.9759
-4.9953 -2.5765 -2.3972 0.9759
-4.9464 -2.6685 -2.3971 0.9759
-4.9128 -2.7294 -2.3970 0.9759
-4.8958 -2.7597 -2.3969 0.9759
-4.8077 -2.9095 -2.3968 0.9759
-4.7151 -3.0565 -2.3966 0.9759
-4.6960 -3.0856 -2.3965 0.9759
-4.6768 -3.1145 -2.3965 0.9759
-4.6378 -3.1721 -2.3964 0.9759
-4.5980 -3.2290 -2.3963 0.9759
-4.5576 -3.2855 -2.3963 0.9759
-4.5371 -3.3136 -2.3962 0.9759
-4.5165 -3.3416 -2.3962 0.9759
-4.4957 -3.3694 -2.3962 0.9759
-4.4747 -3.3971 -2.3961 0.9759
-4.4107 -3.4794 -2.3960 0.9759
-4.3890 -3.5065 -2.3960 0.9759
-4.3452 -3.5604 -2.3959 0.9759
-4.2556 -3.6666 -2.3958 0.9759
-4.2098 -3.7188 -2.3957 0.9759
-4.1633 -3.7705 -2.3956 0.9759
-4.1399 -3.7961 -2.3956 0.9759
-4.1163 -3.8216 -2.3956 0.9759
-4.0686 -3.8721 -2.3955 0.9759
-4.0203 -3.9220 -2.3954 0.9759
-3.9713 -3.9714 -2.3954 0.9759
-3.9466 -3.9958 -2.3953 0.9759
-3.9218 -4.0201 -2.3953 0.9759
-3.8968 -4.0442 -2.3953 0.9759
-3.8717 -4.0681 -2.3952 0.9759
-3.8464 -4.0920 -2.3952 0.9759
-3.7697 -4.1625 -2.3951 0.9759
-3.7438 -4.1857 -2.3951 0.9759
-3.7178 -4.2087 -2.3951 0.9759
-3.6917 -4.2315 -2.3950 0.9759
-3.6124 -4.2991 -2.3949 0.9759
-3.5857 -4.3213 -2.3949 0.9759
-3.5589 -4.3434 -2.3949 0.9759
-3.4776 -4.4085 -2.3948 0.9759
-3.4502 -4.4298 -2.3948 0.9759
-3.4227 -4.4511 -2.3947 0.9759
-3.3951 -4.4721 -2.3947 0.9759
-3.3673 -4.4929 -2.3947 0.9759
-3.3394 -4.5137 -2.3947 0.9759
-3.3114 -4.5342 -2.3946 0.9759
-3.1695 -4.6341 -2.3945 0.9759
-3.1407 -4.6536 -2.3945 0.9759
-2.9952 -4.7482 -2.3944 0.9759
-2.9657 -4.7666 -2.3943 0.9759
-2.8767 -4.8206 -2.3943 0.9759
-2.8468 -4.8383 -2.3942 0.9759
-2.7867 -4.8730 -2.3942 0.9759
-2.5111 -5.0201 -2.3940 0.9759
-2.2914 -5.1238 -2.3939 0.9759
-2.2598 -5.1378 -2.3938 0.9759
-2.2277 -5.1517 -2.3938 0.9759
-2.1319 -5.1920 -2.3938 0.9759
-2.0996 -5.2050 -2.3938 0.9759
-2.0352 -5.2305 -2.3937 0.9759
-2.0026 -5.2430 -2.3937 0.9759
-1.9700 -5.2552 -2.3937 0.9759
-1.9376 -5.2673 -2.3937 0.9759
-1.8396 -5.3022 -2.3936 0.9759
-1.8067 -5.3134 -2.3936 0.9759
-1.7738 -5.3245 -2.3936 0.9759
-1.7408 -5.3353 -2.3936 0.9759
-1.7078 -5.3459 -2.3936 0.9759
-1.6083 -5.3766 -2.3935 0.9759
-1.5750 -5.3864 -2.3935 0.9759
-1.5417 -5.3960 -2.3935 0.9759
-1.5083 -5.4054 -2.3935 0.9759
-1.4413 -5.4236 -2.3935 0.9759
-1.4077 -5.4324 -2.3935 0.9759
-1.3741 -5.4410 -2.3934 0.9759
-1.3067 -5.4575 -2.3934 0.9759
-1.2391 -5.4732 -2.3934 0.9759
-1.1713 -5.4881 -2.3934 0.9759
-1.1033 -5.5021 -2.3934 0.9759
-1.0692 -5.5088 -2.3934 0.9759
-1.0351 -5.5153 -2.3933 0.9759
-0.9668 -5.5276 -2.3933 0.9759
-0.8641 -5.5445 -2.3933 0.9759
-0.7267 -5.5642 -2.3933 0.9759
-0.6233 -5.5766 -2.3933 0.9759
-0.5543 -5.5839 -2.3932 0.9759
-0.4852 -5.5903 -2.3932 0.9759
-0.4160 -5.5959 -2.3932 0.9759
-0.3814 -5.5983 -2.3932 0.9759
-0.3468 -5.6006 -2.3932 0.9759
-0.3122 -5.6026 -2.3932 0.9759
-0.2082 -5.6074 -2.3932 0.9759
-0.1735 -5.6086 -2.3932 0.9759
-0.1388 -5.6095 -2.3932 0.9759
-0.1041 -5.6103 -2.3932 0.9759
-0.0000 -5.6113 -2.3932 0.9759
0.0694 -5.6108 -2.3932 0.9759
0.1041 -5.6103 -2.3932 0.9759
0.1735 -5.6086 -2.3932 0.9759
0.2428 -5.6060 -2.3932 0.9759
0.2775 -5.6044 -2.3932 0.9759
0.3121 -5.6026 -2.3932 0.9759
0.3468 -5.6005 -2.3932 0.9759
0.3814 -5.5983 -2.3932 0.9759
0.4160 -5.5959 -2.3932 0.9759
0.5198 -5.5872 -2.3932 0.9759
0.5543 -5.5839 -2.3932 0.9759
0.6233 -5.5766 -2.3932 0.9759
0.6923 -5.5685 -2.3933 0.9759
0.7267 -5.5641 -2.3933 0.9759
0.7611 -5.5596 -2.3933 0.9759
0.7955 -5.5547 -2.3933 0.9759
1.0692 -5.5087 -2.3933 0.9759
1.1033 -5.5020 -2.3933 0.9759
1.1712 -5.4880 -2.3934 0.9759
1.2052 -5.4807 -2.3934 0.9759
1.2390 -5.4732 -2.3934 0.9759
1.3066 -5.4575 -2.3934 0.9759
1.3741 -5.4409 -2.3934 0.9759
1.5082 -5.4054 -2.3935 0.9759
1.5416 -5.3959 -2.3935 0.9759
1.6415 -5.3665 -2.3935 0.9759
1.7078 -5.3459 -2.3935 0.9759
1.8397 -5.3021 -2.3936 0.9759
1.8722 -5.2907 -2.3936 0.9759
2.0673 -5.2178 -2.3937 0.9759
2.0996 -5.2049 -2.3937 0.9759
2.1317 -5.1919 -2.3937 0.9759
2.1958 -5.1652 -2.3938 0.9759
2.2913 -5.1237 -2.3938 0.9759
2.3545 -5.0950 -2.3938 0.9759
2.3861 -5.0804 -2.3939 0.9759
2.4487 -5.0506 -2.3939 0.9759
2.4799 -5.0354 -2.3939 0.9759
2.5110 -5.0200 -2.3939 0.9759
2.5421 -5.0044 -2.3940 0.9759
2.5730 -4.9886 -2.3940 0.9759
2.6651 -4.9402 -2.3940 0.9759
2.7261 -4.9069 -2.3941 0.9759
2.8467 -4.8381 -2.3942 0.9759
2.9361 -4.7846 -2.3942 0.9759
2.9656 -4.7664 -2.3943 0.9759
2.9951 -4.7481 -2.3943 0.9759
3.0244 -4.7295 -2.3943 0.9759
3.0536 -4.7108 -2.3943 0.9759
3.0828 -4.6918 -2.3944 0.9759
3.1406 -4.6534 -2.3944 0.9759
3.1980 -4.6143 -2.3945 0.9759
3.2265 -4.5945 -2.3945 0.9759
3.3949 -4.4719 -2.3946 0.9759
3.4226 -4.4509 -2.3947 0.9759
3.4501 -4.4297 -2.3947 0.9759
3.4774 -4.4083 -2.3947 0.9759
3.5047 -4.3868 -2.3948 0.9759
3.5318 -4.3651 -2.3948 0.9759
3.6123 -4.2989 -2.3949 0.9759
3.6388 -4.2766 -2.3949 0.9759
3.6653 -4.2541 -2.3949 0.9759
3.7437 -4.1855 -2.3950 0.9759
3.8208 -4.1155 -2.3951 0.9759
3.8715 -4.0680 -2.3952 0.9759
3.9217 -4.0199 -2.3952 0.9759
3.9465 -3.9956 -2.3953 0.9759
3.9712 -3.9712 -2.3953 0.9759
4.0201 -3.9219 -2.3953 0.9759
4.0684 -3.8720 -2.3954 0.9759
4.0923 -3.8468 -2.3954 0.9759
4.1397 -3.7960 -2.3955 0.9759
4.2096 -3.7187 -2.3956 0.9759
4.2326 -3.6927 -2.3956 0.9759
4.2554 -3.6664 -2.3957 0.9759
4.2780 -3.6401 -2.3957 0.9759
4.3228 -3.5870 -2.3958 0.9759
4.4105 -3.4792 -2.3959 0.9759
4.4320 -3.4519 -2.3959 0.9759
4.4533 -3.4245 -2.3960 0.9759
4.4745 -3.3969 -2.3960 0.9759
4.4955 -3.3692 -2.3961 0.9759
4.5163 -3.3414 -2.3961 0.9759
4.5369 -3.3135 -2.3961 0.9759
4.5574 -3.2854 -2.3962 0.9759
4.6178 -3.2004 -2.3963 0.9759
4.6375 -3.1719 -2.3963 0.9759
4.7149 -3.0564 -2.3965 0.9759
4.7338 -3.0272 -2.3965 0.9759
4.7525 -2.9979 -2.3965 0.9759
4.8075 -2.9094 -2.3966 0.9759
4.8255 -2.8796 -2.3967 0.9759
4.8433 -2.8498 -2.3967 0.9759
4.8955 -2.7596 -2.3968 0.9759
4.9126 -2.7293 -2.3969 0.9759
4.9295 -2.6989 -2.3969 0.9759
4.9461 -2.6684 -2.3970 0.9759
4.9626 -2.6379 -2.3970 0.9759
4.9789 -2.6071 -2.3970 0.9759
4.9950 -2.5763 -2.3971 0.9759
5.0109 -2.5454 -2.3971 0.9759
5.0727 -2.4209 -2.3973 0.9759
5.1170 -2.3265 -2.3974 0.9759
5.1314 -2.2948 -2.3974 0.9759
5.2003 -2.1353 -2.3976 0.9759
5.2135 -2.1031 -2.3977 0.9758
5.2265 -2.0709 -2.3977 0.9758
5.2393 -2.0385 -2.3978 0.9758
5.2519 -2.0061 -2.3978 0.9758
5.3119 -1.8430 -2.3980 0.9758
5.3454 -1.7442 -2.3981 0.9758
5.3668 -1.6780 -2.3982 0.9758
5.3973 -1.5782 -2.3984 0.9758
5.4070 -1.5449 -2.3984 0.9758
5.4166 -1.5114 -2.3984 0.9758
5.4440 -1.4107 -2.3986 0.9758
5.4527 -1.3771 -2.3986 0.9758
5.4695 -1.3096 -2.3987 0.9758
5.4855 -1.2419 -2.3988 0.9758
5.5006 -1.1740 -2.3989 0.9758
5.5410 -0.9692 -2.3991 0.9758
5.5470 -0.9350 -2.3992 0.9758
5.5584 -0.8663 -2.3993 0.9758
5.5738 -0.7631 -2.3994 0.9758
5.5785 -0.7286 -2.3995 0.9758
5.5830 -0.6941 -2.3995 0.9758
5.5873 -0.6596 -2.3995 0.9758
5.5914 -0.6250 -2.3996 0.9758
5.5952 -0.5904 -2.3996 0.9758
5.5989 -0.5559 -2.3997 0.9758
5.6023 -0.5212 -2.3997 0.9758
5.6085 -0.4519 -2.3998 0.9758
5.6163 -0.3478 -2.3999 0.9758
5.6184 -0.3131 -2.4000 0.9758
5.6259 -0.1392 -2.4002 0.9758
5.6274 -0.0696 -2.4003 0.9758
5.6279 -0.0348 -2.4004 0.9758
5.6281 -0.0001 -2.4004 0.9758
5.6281 0.0347 -2.4004 0.9758
5.6274 0.1044 -2.4005 0.9758
5.6259 0.1740 -2.4006 0.9758
5.6248 0.2088 -2.4007 0.9758
5.6220 0.2783 -2.4008 0.9758
5.6184 0.3479 -2.4008 0.9758
5.6113 0.4521 -2.4010 0.9758
5.5988 0.5907 -2.4012 0.9758
5.5951 0.6254 -2.4012 0.9758
5.5913 0.6600 -2.4013 0.9758
5.5829 0.7291 -2.4013 0.9758
5.5784 0.7637 -2.4014 0.9758
5.5736 0.7981 -2.4014 0.9758
5.5687 0.8326 -2.4015 0.9758
5.5635 0.8671 -2.4015 0.9758
5.5346 1.0387 -2.4017 0.9758
5.5215 1.1071 -2.4018 0.9758
5.5076 1.1754 -2.4019 0.9758
5.4773 1.3114 -2.4021 0.9758
5.4691 1.3453 -2.4021 0.9758
5.4523 1.4128 -2.4022 0.9758
5.4435 1.4465 -2.4023 0.9758
5.4346 1.4802 -2.4023 0.9758
5.4254 1.5138 -2.4024 0.9758
5.4161 1.5473 -2.4024 0.9758
5.4065 1.5809 -2.4024 0.9758
5.3967 1.6143 -2.4025 0.9758
5.3555 1.7474 -2.4027 0.9758
5.3447 1.7805 -2.4027 0.9758
5.3337 1.8136 -2.4027 0.9758
5.3225 1.8466 -2.4028 0.9758
5.3110 1.8795 -2.4028 0.9758
5.2876 1.9451 -2.4029 0.9758
5.2755 1.9778 -2.4030 0.9758
5.2508 2.0429 -2.4030 0.9758
5.2382 2.0754 -2.4031 0.9758
5.2123 2.1401 -2.4032 0.9758
5.1991 2.1723 -2.4032 0.9758
5.1720 2.2366 -2.4033 0.9758
5.1299 2.3322 -2.4034 0.9758
3.8672 1.8162 -1.8222 0.9816
3.7439 1.8152 -1.7746 0.9821
3.6269 1.8142 -1.7296 0.9825
3.5706 1.8138 -1.7081 0.9827
3.5157 1.8133 -1.6872 0.9829
3.4621 1.8129 -1.6668 0.9831
3.3587 1.8120 -1.6277 0.9835
3.3088 1.8116 -1.6089 0.9837
3.2600 1.8112 -1.5906 0.9839
3.0318 1.8093 -1.5058 0.9848
2.9062 1.8082 -1.4598 0.9852
2.8659 1.8079 -1.4452 0.9854
2.8265 1.8075 -1.4309 0.9855
2.7500 1.8069 -1.4034 0.9858
2.7394 1.8243 -1.4037 0.9858
2.7364 1.8468 -1.4080 0.9857
2.7333 1.8695 -1.4124 0.9857
2.5266 1.7743 -1.3168 0.9867
2.3636 1.7715 -1.2598 0.9872
2.3327 1.7709 -1.2491 0.9873
2.3023 1.7704 -1.2387 0.9874
2.2430 1.7694 -1.2185 0.9877
2.2141 1.7689 -1.2087 0.9878
2.1856 1.7684 -1.1991 0.9878
2.1576 1.7679 -1.1897 0.9879
2.1299 1.7674 -1.1804 0.9880
2.1027 1.7669 -1.1714 0.9881
2.0760 1.7664 -1.1625 0.9882
2.0496 1.7659 -1.1539 0.9883
1.9479 1.7641 -1.1208 0.9886
1.9233 1.7636 -1.1130 0.9887
1.8992 1.7632 -1.1053 0.9888
1.7827 1.7607 -1.0687 0.9892
1.7167 1.7597 -1.0485 0.9894
1.6953 1.7594 -1.0421 0.9894
1.6533 1.7588 -1.0295 0.9896
1.5920 1.7579 -1.0115 0.9897
1.5524 1.7573 -1.0001 0.9899
1.5136 1.7567 -0.9890 0.9900
1.4757 1.7562 -0.9783 0.9901
1.4570 1.7559 -0.9731 0.9901
1.4385 1.7556 -0.9681 0.9902
1.4203 1.7554 -0.9630 0.9902
1.4022 1.7551 -0.9581 0.9903
1.3317 1.7541 -0.9393 0.9905
1.2806 1.7534 -0.9260 0.9906
1.2473 1.7529 -0.9176 0.9907
1.2308 1.7527 -0.9135 0.9907
1.2146 1.7525 -0.9094 0.9908
1.1825 1.7520 -0.9015 0.9909
1.1666 1.7518 -0.8977 0.9909
1.1353 1.7514 -0.8902 0.9910
1.1199 1.7512 -0.8865 0.9910
1.0893 1.7508 -0.8795 0.9911
1.0742 1.7506 -0.8760 0.9911
1.0593 1.7504 -0.8726 0.9911
1.0297 1.7500 -0.8660 0.9912
1.0151 1.7498 -0.8628 0.9912
1.0005 1.7496 -0.8596 0.9913
0.9576 1.7490 -0.8505 0.9914
0.9156 1.7485 -0.8418 0.9915
0.8608 1.7478 -0.8310 0.9916
0.8341 1.7477 -0.8259 0.9916
0.8208 1.7477 -0.8235 0.9916
0.7945 1.7476 -0.8187 0.9917
0.7685 1.7474 -0.8142 0.9917
0.7556 1.7474 -0.8120 0.9918
0.7428 1.7473 -0.8098 0.9918
0.7174 1.7472 -0.8056 0.9918
0.7048 1.7472 -0.8035 0.9918
0.6304 1.7469 -0.7921 0.9920
0.6060 1.7468 -0.7886 0.9920
0.5819 1.7467 -0.7852 0.9920
0.5699 1.7467 -0.7836 0.9920
0.5461 1.7465 -0.7805 0.9921
0.5342 1.7465 -0.7790 0.9921
0.5107 1.7464 -0.7760 0.9921
0.4989 1.7464 -0.7746 0.9921
0.4640 1.7462 -0.7706 0.9922
0.4410 1.7461 -0.7681 0.9922
0.4066 1.7460 -0.7646 0.9922
0.3952 1.7459 -0.7635 0.9922
0.3839 1.7459 -0.7624 0.9923
0.3500 1.7457 -0.7594 0.9923
0.3388 1.7456 -0.7584 0.9923
0.3276 1.7456 -0.7575 0.9923
0.3165 1.7455 -0.7566 0.9923
0.3053 1.7455 -0.7558 0.9923
0.2942 1.7454 -0.7549 0.9923
0.2610 1.7453 -0.7526 0.9924
0.2389 1.7452 -0.7513 0.9924
0.2060 1.7450 -0.7494 0.9924
0.1623 1.7448 -0.7474 0.9924
0.1406 1.7447 -0.7465 0.9924
0.1080 1.7446 -0.7455 0.9924
0.0972 1.7445 -0.7452 0.9924
0.0864 1.7445 -0.7449 0.9924
0.0756 1.7445 -0.7447 0.9924
0.0540 1.7443 -0.7443 0.9924
0.0108 1.7442 -0.7439 0.9924
0.0000 1.7441 -0.7439 0.9924
-0.0108 1.7441 -0.7439 0.9924
-0.0431 1.7439 -0.7440 0.9924
-0.0539 1.7439 -0.7441 0.9924
-0.0647 1.7438 -0.7443 0.9924
-0.0755 1.7438 -0.7444 0.9924
-0.0863 1.7437 -0.7446 0.9924
-0.0972 1.7437 -0.7449 0.9924
-0.1080 1.7437 -0.7451 0.9924
-0.1296 1.7436 -0.7457 0.9924
-0.1513 1.7435 -0.7464 0.9924
-0.1731 1.7434 -0.7472 0.9924
-0.1840 1.7433 -0.7477 0.9924
-0.2167 1.7432 -0.7492 0.9924
-0.2386 1.7431 -0.7504 0.9924
-0.2496 1.7430 -0.7510 0.9924
-0.2716 1.7429 -0.7523 0.9924
-0.2827 1.7429 -0.7531 0.9924
-0.3048 1.7428 -0.7546 0.9923
-0.3159 1.7427 -0.7554 0.9923
-0.3271 1.7427 -0.7562 0.9923
-0.3382 1.7426 -0.7571 0.9923
-0.3494 1.7426 -0.7580 0.9923
-0.3606 1.7425 -0.7589 0.9923
-0.3719 1.7425 -0.7599 0.9923
-0.3832 1.7424 -0.7609 0.9923
-0.3945 1.7424 -0.7619 0.9923
-0.4171 1.7423 -0.7641 0.9922
-0.4285 1.7422 -0.7652 0.9922
-0.4630 1.7421 -0.7688 0.9922
-0.4977 1.7420 -0.7727 0.9922
-0.5094 1.7420 -0.7741 0.9921
-0.5211 1.7419 -0.7755 0.9921
-0.5328 1.7419 -0.7769 0.9921
-0.5564 1.7418 -0.7799 0.9921
-0.5683 1.7418 -0.7814 0.9921
-0.6042 1.7416 -0.7862 0.9920
-0.6163 1.7416 -0.7879 0.9920
-0.6406 1.7415 -0.7914 0.9920
-0.7024 1.7413 -0.8008 0.9919
-0.7530 1.7412 -0.8091 0.9918
-0.7658 1.7412 -0.8113 0.9918
-0.7786 1.7411 -0.8135 0.9917
-0.7916 1.7411 -0.8157 0.9917
-0.8177 1.7410 -0.8204 0.9917
-0.8441 1.7409 -0.8252 0.9916
-0.8574 1.7409 -0.8277 0.9916
-0.8708 1.7409 -0.8302 0.9916
-0.8843 1.7408 -0.8328 0.9915
-1.0241 1.7406 -0.8613 0.9913
-1.0387 1.7405 -0.8645 0.9912
-1.0533 1.7405 -0.8677 0.9912
-1.0829 1.7404 -0.8742 0.9911
-1.0978 1.7404 -0.8776 0.9911
-1.1129 1.7403 -0.8810 0.9911
-1.1281 1.7403 -0.8845 0.9910
-1.1589 1.7402 -0.8917 0.9909
-1.1744 1.7401 -0.8954 0.9909
-1.1901 1.7401 -0.8991 0.9909
-1.2060 1.7401 -0.9030 0.9908
-1.2219 1.7400 -0.9068 0.9908
-1.2380 1.7400 -0.9108 0.9908
-1.2707 1.7399 -0.9189 0.9907
-1.2872 1.7398 -0.9231 0.9906
-1.3208 1.7398 -0.9316 0.9905
-1.3723 1.7396 -0.9450 0.9904
-1.4253 1.7395 -0.9591 0.9903
-1.4616 1.7394 -0.9690 0.9902
-1.4800 1.7394 -0.9740 0.9901
-1.5364 1.7392 -0.9898 0.9900
-1.5947 1.7391 -1.0063 0.9898
-1.6346 1.7390 -1.0179 0.9897
-1.6550 1.7389 -1.0239 0.9896
-1.6755 1.7389 -1.0299 0.9896
-1.8268 1.7386 -1.0756 0.9891
-1.8725 1.7384 -1.0897 0.9890
-1.8958 1.7384 -1.0970 0.9889
-1.9194 1.7383 -1.1045 0.9888
-2.1222 1.8285 -1.1948 0.9879
-2.1322 1.7917 -1.1878 0.9880
-2.1571 1.7899 -1.1955 0.9879
-2.1841 1.7896 -1.2043 0.9878
-2.2394 1.7891 -1.2225 0.9876
-2.2965 1.7886 -1.2415 0.9874
-2.5109 1.7866 -1.3143 0.9867
-2.6108 1.7857 -1.3491 0.9863
-2.6453 1.7854 -1.3612 0.9862
-2.6804 1.7850 -1.3735 0.9861
-2.7162 1.7847 -1.3862 0.9860
-2.8276 1.7837 -1.4259 0.9856
-2.8661 1.7833 -1.4397 0.9854
-3.1061 1.8797 -1.5484 0.9843
-3.2462 1.7254 -1.5679 0.9841
-3.2943 1.7250 -1.5860 0.9840
-3.3435 1.7245 -1.6045 0.9838
-3.3939 1.7240 -1.6236 0.9836
-3.4455 1.7235 -1.6431 0.9834
-3.7235 1.7207 -1.7495 0.9823
-3.9084 1.7189 -1.8210 0.9816
-3.9734 1.7183 -1.8464 0.9814
-5.1993 2.1725 -2.4033 0.9758
-5.2511 2.0430 -2.4032 0.9758
-5.2758 1.9779 -2.4031 0.9758
-5.3340 1.8137 -2.4029 0.9758
-5.3450 1.7806 -2.4028 0.9758
-5.3558 1.7475 -2.4028 0.9758
-5.3664 1.7143 -2.4027 0.9758
-5.3870 1.6477 -2.4027 0.9758
-5.3970 1.6144 -2.4026 0.9758
-5.4349 1.4803 -2.4024 0.9758
-5.4694 1.3453 -2.4023 0.9758
-5.4775 1.3114 -2.4022 0.9758
-5.4855 1.2775 -2.4022 0.9758
-5.5079 1.1754 -2.4020 0.9758
-5.5349 1.0388 -2.4019 0.9758
-5.5411 1.0045 -2.4018 0.9758
-5.5471 0.9702 -2.4018 0.9758
-5.5639 0.8671 -2.4016 0.9758
-5.5690 0.8326 -2.4016 0.9758
-5.5787 0.7637 -2.4015 0.9758
-5.5832 0.7292 -2.4015 0.9758
-5.5875 0.6946 -2.4014 0.9758
-5.6025 0.5561 -2.4012 0.9758
-5.6088 0.4868 -2.4012 0.9758
-5.6116 0.4521 -2.4011 0.9758
-5.6165 0.3826 -2.4010 0.9758
-5.6187 0.3479 -2.4010 0.9758
-5.6224 0.2784 -2.4009 0.9758
-5.6262 0.1740 -2.4007 0.9758
-5.6284 0.0348 -2.4006 0.9758
-5.5144 -0.0342 -2.4005 0.9762
-5.5139 -0.0682 -2.4004 0.9762
-5.5133 -0.1023 -2.4004 0.9762
-5.5125 -0.1364 -2.4003 0.9762
-5.5070 -0.2727 -2.4002 0.9762
-5.5051 -0.3067 -2.4001 0.9762
-5.5030 -0.3408 -2.4001 0.9762
-5.5007 -0.3748 -2.4000 0.9762
-5.4982 -0.4088 -2.4000 0.9762
-5.4954 -0.4428 -2.3999 0.9762
-5.4893 -0.5107 -2.3999 0.9762
-5.4860 -0.5446 -2.3998 0.9762
-5.4824 -0.5786 -2.3998 0.9762
-5.4786 -0.6124 -2.3997 0.9762
-5.4704 -0.6801 -2.3996 0.9762
-5.4660 -0.7139 -2.3996 0.9762
-5.4614 -0.7477 -2.3996 0.9762
-5.4515 -0.8152 -2.3995 0.9762
-5.4463 -0.8488 -2.3994 0.9762
-5.4408 -0.8825 -2.3994 0.9762
-5.4352 -0.9161 -2.3993 0.9762
-5.4105 -1.0502 -2.3992 0.9762
-5.3898 -1.1503 -2.3990 0.9762
-5.3749 -1.2168 -2.3989 0.9762
-5.3593 -1.2832 -2.3989 0.9762
-5.3428 -1.3493 -2.3988 0.9762
-5.2788 -1.5791 -2.3985 0.9762
-5.2688 -1.6117 -2.3984 0.9762
-5.2160 -1.7737 -2.3982 0.9763
-5.1819 -1.8699 -2.3981 0.9763
-5.1702 -1.9019 -2.3981 0.9763
-5.1582 -1.9339 -2.3980 0.9763
-5.1461 -1.9657 -2.3980 0.9763
-5.1212 -2.0291 -2.3979 0.9763
-5.0824 -2.1237 -2.3978 0.9763
-5.0691 -2.1550 -2.3977 0.9763
-4.9996 -2.3105 -2.3975 0.9763
-4.9557 -2.4028 -2.3974 0.9763
-4.9254 -2.4638 -2.3973 0.9763
-4.8786 -2.5546 -2.3972 0.9763
-4.8301 -2.6445 -2.3971 0.9763
-4.7283 -2.8216 -2.3969 0.9763
-4.6928 -2.8798 -2.3968 0.9763
-4.6567 -2.9375 -2.3967 0.9763
-4.6384 -2.9662 -2.3967 0.9763
-4.6199 -2.9948 -2.3966 0.9763
-4.5441 -3.1080 -2.3965 0.9763
-4.4656 -3.2192 -2.3963 0.9763
-4.4455 -3.2467 -2.3963 0.9763
-4.3843 -3.3285 -2.3962 0.9763
-4.3217 -3.4091 -2.3961 0.9763
-4.2358 -3.5148 -2.3960 0.9763
-4.2139 -3.5408 -2.3959 0.9763
-4.1473 -3.6183 -2.3958 0.9763
-4.1248 -3.6438 -2.3958 0.9763
-4.1021 -3.6692 -2.3958 0.9763
-4.0793 -3.6944 -2.3957 0.9763
-4.0099 -3.7693 -2.3956 0.9763
-3.9629 -3.8185 -2.3956 0.9763
-3.9391 -3.8429 -2.3955 0.9763
-3.7439 -4.0326 -2.3953 0.9763
-3.7188 -4.0556 -2.3953 0.9763
-3.6936 -4.0784 -2.3952 0.9763
-3.6683 -4.1012 -2.3952 0.9763
-3.6172 -4.1461 -2.3951 0.9763
-3.5395 -4.2124 -2.3951 0.9763
-3.5134 -4.2341 -2.3950 0.9763
-3.3806 -4.3405 -2.3949 0.9763
-3.3266 -4.3818 -2.3948 0.9763
-3.2720 -4.4226 -2.3948 0.9763
-3.2446 -4.4427 -2.3948 0.9763
-3.2170 -4.4626 -2.3947 0.9763
-3.1336 -4.5214 -2.3947 0.9763
-3.1055 -4.5406 -2.3946 0.9763
-3.0207 -4.5973 -2.3946 0.9763
-2.9635 -4.6342 -2.3945 0.9763
-2.9348 -4.6524 -2.3945 0.9763
-2.8769 -4.6883 -2.3944 0.9763
-2.8479 -4.7059 -2.3944 0.9763
-2.8187 -4.7234 -2.3944 0.9763
-2.6712 -4.8080 -2.3943 0.9763
-2.6115 -4.8406 -2.3942 0.9763
-2.5211 -4.8881 -2.3942 0.9763
-2.4909 -4.9036 -2.3941 0.9763
-2.4605 -4.9188 -2.3941 0.9763
-2.4300 -4.9339 -2.3941 0.9763
-2.3994 -4.9488 -2.3941 0.9763
-2.3380 -4.9780 -2.3941 0.9763
-2.2762 -5.0065 -2.3940 0.9763
-2.2141 -5.0342 -2.3940 0.9763
-2.1516 -5.0611 -2.3939 0.9763
-2.0888 -5.0873 -2.3939 0.9763
-2.0573 -5.1000 -2.3939 0.9763
-2.0257 -5.1126 -2.3939 0.9763
-1.9940 -5.1250 -2.3939 0.9763
-1.8347 -5.1841 -2.3938 0.9763
-1.8023 -5.1953 -2.3938 0.9763
-1.7380 -5.2171 -2.3937 0.9763
-1.6406 -5.2484 -2.3937 0.9763
-1.6084 -5.2584 -2.3937 0.9763
-1.5759 -5.2682 -2.3937 0.9763
-1.5106 -5.2872 -2.3936 0.9763
-1.4451 -5.3055 -2.3936 0.9763
-1.3134 -5.3395 -2.3936 0.9763
-1.2140 -5.3628 -2.3935 0.9763
-1.1476 -5.3774 -2.3935 0.9763
-1.1144 -5.3844 -2.3935 0.9763
-1.0143 -5.4040 -2.3935 0.9763
-0.9808 -5.4102 -2.3935 0.9763
-0.8803 -5.4274 -2.3935 0.9763
-0.8467 -5.4327 -2.3934 0.9763
-0.8131 -5.4379 -2.3934 0.9763
-0.7794 -5.4428 -2.3934 0.9763
-0.7121 -5.4520 -2.3934 0.9763
-0.6446 -5.4604 -2.3934 0.9763
-0.5431 -5.4713 -2.3934 0.9763
-0.4754 -5.4776 -2.3934 0.9763
-0.4077 -5.4831 -2.3934 0.9763
-0.3737 -5.4855 -2.3934 0.9763
-0.3398 -5.4877 -2.3934 0.9763
-0.2719 -5.4914 -2.3934 0.9763
-0.2040 -5.4943 -2.3934 0.9763
-0.1700 -5.4955 -2.3934 0.9763
-0.0680 -5.4977 -2.3934 0.9763
-0.0340 -5.4980 -2.3934 0.9763
-0.0000 -5.4981 -2.3934 0.9763
0.1020 -5.4972 -2.3934 0.9763
0.3059 -5.4896 -2.3934 0.9763
0.3398 -5.4877 -2.3934 0.9763
0.4415 -5.4804 -2.3934 0.9763
0.4754 -5.4776 -2.3934 0.9763
0.5431 -5.4713 -2.3934 0.9763
0.6446 -5.4603 -2.3934 0.9763
0.6783 -5.4562 -2.3934 0.9763
0.7457 -5.4474 -2.3934 0.9763
0.7795 -5.4428 -2.3934 0.9763
0.8132 -5.4378 -2.3934 0.9763
0.8467 -5.4327 -2.3934 0.9763
0.8803 -5.4274 -2.3934 0.9763
1.0477 -5.3976 -2.3935 0.9763
1.0810 -5.3911 -2.3935 0.9763
1.1143 -5.3843 -2.3935 0.9763
1.1808 -5.3701 -2.3935 0.9763
1.2140 -5.3628 -2.3935 0.9763
1.2803 -5.3474 -2.3935 0.9763
1.3463 -5.3312 -2.3936 0.9763
1.3794 -5.3228 -2.3936 0.9763
1.4123 -5.3142 -2.3936 0.9763
1.4450 -5.3054 -2.3936 0.9763
1.4778 -5.2964 -2.3936 0.9763
1.5105 -5.2872 -2.3936 0.9763
1.5432 -5.2777 -2.3936 0.9763
1.5758 -5.2681 -2.3936 0.9763
1.6084 -5.2583 -2.3936 0.9763
1.6733 -5.2381 -2.3937 0.9763
1.7057 -5.2277 -2.3937 0.9763
1.8348 -5.1840 -2.3937 0.9763
1.8666 -5.1725 -2.3938 0.9763
1.8986 -5.1610 -2.3938 0.9763
1.9940 -5.1250 -2.3938 0.9763
2.0257 -5.1125 -2.3938 0.9763
2.0887 -5.0872 -2.3939 0.9763
2.1200 -5.0742 -2.3939 0.9763
2.1515 -5.0610 -2.3939 0.9763
2.1828 -5.0477 -2.3939 0.9763
2.2761 -5.0064 -2.3940 0.9763
2.3687 -4.9634 -2.3940 0.9763
2.3993 -4.9487 -2.3940 0.9763
2.4604 -4.9187 -2.3941 0.9763
2.5513 -4.8724 -2.3941 0.9763
2.6114 -4.8405 -2.3942 0.9763
2.6413 -4.8243 -2.3942 0.9763
2.7008 -4.7914 -2.3942 0.9763
2.7304 -4.7746 -2.3943 0.9763
2.7599 -4.7577 -2.3943 0.9763
2.8186 -4.7233 -2.3943 0.9763
2.8478 -4.7058 -2.3943 0.9763
2.9058 -4.6703 -2.3944 0.9763
2.9347 -4.6523 -2.3944 0.9763
2.9634 -4.6341 -2.3944 0.9763
2.9921 -4.6157 -2.3945 0.9763
3.0206 -4.5972 -2.3945 0.9763
3.0490 -4.5785 -2.3945 0.9763
3.1054 -4.5405 -2.3946 0.9763
3.1614 -4.5018 -2.3946 0.9763
3.2169 -4.4625 -2.3947 0.9763
3.2719 -4.4224 -2.3947 0.9763
3.3264 -4.3817 -2.3948 0.9763
3.3535 -4.3611 -2.3948 0.9763
3.4340 -4.2983 -2.3949 0.9763
3.4869 -4.2556 -2.3949 0.9763
3.5394 -4.2122 -2.3950 0.9763
3.5913 -4.1682 -2.3950 0.9763
3.6427 -4.1236 -2.3951 0.9763
3.7187 -4.0555 -2.3952 0.9763
3.8180 -3.9624 -2.3953 0.9763
3.8425 -3.9388 -2.3953 0.9763
3.8910 -3.8911 -2.3954 0.9763
3.9151 -3.8670 -2.3954 0.9763
3.9627 -3.8183 -2.3955 0.9763
3.9863 -3.7938 -2.3955 0.9763
4.0791 -3.6943 -2.3956 0.9763
4.1695 -3.5924 -2.3958 0.9763
4.1917 -3.5666 -2.3958 0.9763
4.2137 -3.5407 -2.3958 0.9763
4.2356 -3.5146 -2.3959 0.9763
4.2573 -3.4884 -2.3959 0.9763
4.3215 -3.4090 -2.3960 0.9763
4.3425 -3.3822 -2.3960 0.9763
4.4251 -3.2740 -2.3962 0.9763
4.4453 -3.2466 -2.3962 0.9763
4.5050 -3.1637 -2.3963 0.9763
4.5246 -3.1359 -2.3964 0.9763
4.5439 -3.1078 -2.3964 0.9763
4.5631 -3.0797 -2.3964 0.9763
4.6010 -3.0231 -2.3965 0.9763
4.6197 -2.9947 -2.3965 0.9763
4.6382 -2.9661 -2.3966 0.9763
4.6747 -2.9086 -2.3966 0.9763
4.6926 -2.8797 -2.3967 0.9763
4.7455 -2.7922 -2.3968 0.9763
4.7627 -2.7629 -2.3968 0.9763
4.7967 -2.7039 -2.3969 0.9763
4.8624 -2.5846 -2.3971 0.9763
4.9097 -2.4940 -2.3972 0.9763
4.9252 -2.4637 -2.3972 0.9763
4.9404 -2.4332 -2.3973 0.9763
4.9554 -2.4026 -2.3973 0.9763
4.9994 -2.3104 -2.3974 0.9763
5.0137 -2.2795 -2.3975 0.9763
5.0416 -2.2174 -2.3975 0.9763
5.0553 -2.1862 -2.3976 0.9763
5.0688 -2.1549 -2.3976 0.9763
5.0822 -2.1236 -2.3977 0.9763
5.1082 -2.0606 -2.3977 0.9763
5.1209 -2.0290 -2.3978 0.9763
5.1580 -1.9338 -2.3979 0.9763
5.1817 -1.8699 -2.3980 0.9763
5.1932 -1.8378 -2.3980 0.9763
5.2046 -1.8057 -2.3981 0.9763
5.2157 -1.7735 -2.3981 0.9763
5.2374 -1.7090 -2.3982 0.9763
5.2480 -1.6766 -2.3982 0.9763
5.2584 -1.6441 -2.3983 0.9763
5.2785 -1.5790 -2.3984 0.9763
5.2882 -1.5463 -2.3984 0.9763
5.3163 -1.4481 -2.3985 0.9762
5.3252 -1.4152 -2.3986 0.9762
5.3340 -1.3822 -2.3986 0.9762
5.3669 -1.2500 -2.3988 0.9762
5.3822 -1.1836 -2.3989 0.9762
5.3966 -1.1169 -2.3990 0.9762
5.4102 -1.0501 -2.3990 0.9762
5.4229 -0.9832 -2.3991 0.9762
5.4349 -0.9161 -2.3992 0.9762
5.4460 -0.8488 -2.3993 0.9762
5.4513 -0.8151 -2.3993 0.9762
5.4563 -0.7814 -2.3994 0.9762
5.4611 -0.7477 -2.3994 0.9762
5.4657 -0.7138 -2.3995 0.9762
5.4701 -0.6801 -2.3995 0.9762
5.4743 -0.6463 -2.3996 0.9762
5.4951 -0.4428 -2.3998 0.9762
5.4979 -0.4088 -2.3999 0.9762
5.5027 -0.3408 -2.4000 0.9762
5.5048 -0.3067 -2.4000 0.9762
5.5084 -0.2387 -2.4001 0.9762
5.5099 -0.2046 -2.4001 0.9762
5.5122 -0.1364 -2.4002 0.9762
5.5136 -0.0682 -2.4003 0.9762
5.5143 -0.0000 -2.4004 0.9762
5.5143 0.0341 -2.4004 0.9762
5.5140 0.0682 -2.4005 0.9762
5.5130 0.1363 -2.4006 0.9762
5.5098 0.2386 -2.4007 0.9762
5.4950 0.4769 -2.4010 0.9762
5.4819 0.6128 -2.4012 0.9762
5.4781 0.6466 -2.4012 0.9762
5.4741 0.6805 -2.4013 0.9762
5.4510 0.8495 -2.4015 0.9762
5.4457 0.8832 -2.4015 0.9762
5.4287 0.9841 -2.4017 0.9762
5.4226 1.0177 -2.4017 0.9762
5.4031 1.1182 -2.4018 0.9762
5.3962 1.1516 -2.4019 0.9762
5.3817 1.2183 -2.4020 0.9762
5.3664 1.2848 -2.4021 0.9762
5.3585 1.3180 -2.4021 0.9762
5.3503 1.3512 -2.4021 0.9762
5.3419 1.3843 -2.4022 0.9762
5.3246 1.4502 -2.4023 0.9762
5.3156 1.4832 -2.4023 0.9762
5.3064 1.5160 -2.4024 0.9762
5.2875 1.5816 -2.4024 0.9762
5.2777 1.6143 -2.4025 0.9762
5.2677 1.6469 -2.4025 0.9762
5.2575 1.6795 -2.4026 0.9762
5.2365 1.7445 -2.4027 0.9762
5.2147 1.8092 -2.4027 0.9762
5.2035 1.8414 -2.4028 0.9762
5.1687 1.9377 -2.4029 0.9762
5.1445 2.0016 -2.4030 0.9762
5.1322 2.0334 -2.4030 0.9762
5.1196 2.0651 -2.4031 0.9762
5.0938 2.1284 -2.4032 0.9762
5.0806 2.1599 -2.4032 0.9762
3.8046 1.8157 -1.8351 0.9818
3.7438 1.8152 -1.8112 0.9820
3.5156 1.8133 -1.7219 0.9829
3.4620 1.8128 -1.7012 0.9831
3.3586 1.8120 -1.6612 0.9835
3.2123 1.8107 -1.6052 0.9840
3.1657 1.8104 -1.5875 0.9842
2.9890 1.8089 -1.5208 0.9849
2.9471 1.8085 -1.5052 0.9850
2.9061 1.8082 -1.4899 0.9852
2.8659 1.8078 -1.4750 0.9853
2.7878 1.8072 -1.4462 0.9856
2.7190 1.8596 -1.4339 0.9857
2.5620 1.7756 -1.3569 0.9865
2.5276 1.7750 -1.3445 0.9866
2.4938 1.7744 -1.3323 0.9867
2.4606 1.7738 -1.3204 0.9869
2.4280 1.7733 -1.3088 0.9870
2.3960 1.7727 -1.2974 0.9871
2.3645 1.7721 -1.2863 0.9872
2.3336 1.7716 -1.2754 0.9873
2.2733 1.7705 -1.2543 0.9875
2.2438 1.7700 -1.2441 0.9876
2.2149 1.7695 -1.2341 0.9877
2.1584 1.7685 -1.2147 0.9879
2.1036 1.7676 -1.1961 0.9881
2.0768 1.7671 -1.1870 0.9882
2.0504 1.7666 -1.1781 0.9883
2.0244 1.7661 -1.1695 0.9883
1.9988 1.7657 -1.1609 0.9884
1.9486 1.7647 -1.1444 0.9886
1.8999 1.7639 -1.1285 0.9888
1.8760 1.7635 -1.1208 0.9888
1.8525 1.7630 -1.1132 0.9889
1.8063 1.7621 -1.0985 0.9891
1.7609 1.7609 -1.0841 0.9892
1.6958 1.7599 -1.0639 0.9894
1.6746 1.7596 -1.0574 0.9895
1.6331 1.7590 -1.0448 0.9896
1.5925 1.7584 -1.0327 0.9897
1.5725 1.7581 -1.0268 0.9898
1.5528 1.7578 -1.0210 0.9898
1.4574 1.7564 -0.9935 0.9901
1.4206 1.7558 -0.9832 0.9902
1.4026 1.7556 -0.9782 0.9902
1.3494 1.7548 -0.9636 0.9904
1.3320 1.7546 -0.9589 0.9904
1.3148 1.7543 -0.9543 0.9905
1.2809 1.7538 -0.9454 0.9906
1.2642 1.7536 -0.9410 0.9906
1.2149 1.7529 -0.9284 0.9907
1.1669 1.7522 -0.9164 0.9909
1.0595 1.7508 -0.8908 0.9911
1.0447 1.7506 -0.8874 0.9911
1.0299 1.7504 -0.8841 0.9912
1.0008 1.7500 -0.8776 0.9912
0.9437 1.7493 -0.8652 0.9914
0.8475 1.7480 -0.8457 0.9916
0.8341 1.7479 -0.8431 0.9916
0.8208 1.7477 -0.8405 0.9916
0.8076 1.7476 -0.8381 0.9916
0.7945 1.7476 -0.8357 0.9917
0.7557 1.7474 -0.8287 0.9917
0.7301 1.7473 -0.8244 0.9918
0.7174 1.7473 -0.8222 0.9918
0.6923 1.7472 -0.8181 0.9918
0.6798 1.7471 -0.8161 0.9919
0.6550 1.7470 -0.8122 0.9919
0.6427 1.7470 -0.8103 0.9919
0.6061 1.7468 -0.8049 0.9920
0.5940 1.7468 -0.8031 0.9920
0.5819 1.7467 -0.8015 0.9920
0.5580 1.7466 -0.7982 0.9920
0.4990 1.7464 -0.7906 0.9921
0.4641 1.7463 -0.7866 0.9921
0.4525 1.7462 -0.7853 0.9922
0.4410 1.7462 -0.7840 0.9922
0.4295 1.7462 -0.7828 0.9922
0.4181 1.7461 -0.7816 0.9922
0.3953 1.7460 -0.7793 0.9922
0.3726 1.7459 -0.7771 0.9922
0.3613 1.7458 -0.7761 0.9923
0.3501 1.7458 -0.7751 0.9923
0.3388 1.7457 -0.7741 0.9923
0.3276 1.7457 -0.7732 0.9923
0.3053 1.7456 -0.7714 0.9923
0.2720 1.7454 -0.7690 0.9923
0.2389 1.7453 -0.7668 0.9923
0.1951 1.7451 -0.7644 0.9924
0.1841 1.7450 -0.7638 0.9924
0.1623 1.7449 -0.7629 0.9924
0.1514 1.7449 -0.7624 0.9924
0.1297 1.7448 -0.7616 0.9924
0.1189 1.7447 -0.7613 0.9924
0.0972 1.7446 -0.7606 0.9924
0.0648 1.7445 -0.7599 0.9924
0.0540 1.7444 -0.7597 0.9924
0.0432 1.7444 -0.7596 0.9924
0.0216 1.7443 -0.7594 0.9924
-0.0108 1.7442 -0.7593 0.9924
-0.0431 1.7440 -0.7594 0.9924
