ply
format ascii 1.0
element vertex 1536
property float32 x
property float32 y
property float32 z
property float32 I
end_header
4.2557 1.9987 -0.3602 0.9813
4.0922 1.9841 -0.3484 0.9819
3.9390 1.9703 -0.3374 0.9825
3.7278 1.9520 -0.3224 0.9833
3.5352 1.9355 -0.3088 0.9840
3.4745 1.9303 -0.3045 0.9842
3.4155 1.9253 -0.3004 0.9844
3.3581 1.9204 -0.2964 0.9846
3.3022 1.9156 -0.2925 0.9848
3.2477 1.9109 -0.2887 0.9850
3.1429 1.9020 -0.2814 0.9854
3.0924 1.8976 -0.2780 0.9856
2.9951 1.8893 -0.2713 0.9859
2.8575 1.8775 -0.2619 0.9864
2.7291 1.8665 -0.2533 0.9868
2.5704 1.8529 -0.2428 0.9874
2.5327 1.8497 -0.2403 0.9875
2.4597 1.8435 -0.2355 0.9877
2.4243 1.8404 -0.2332 0.9879
2.3220 1.8317 -0.2266 0.9882
2.1942 1.8207 -0.2184 0.9886
2.1337 1.8155 -0.2146 0.9888
2.0752 1.8105 -0.2110 0.9890
2.0187 1.8056 -0.2075 0.9892
1.9912 1.8033 -0.2058 0.9893
1.9640 1.8009 -0.2041 0.9894
1.9111 1.7964 -0.2009 0.9895
1.8597 1.7920 -0.1979 0.9897
1.8347 1.7898 -0.1964 0.9898
1.8099 1.7877 -0.1949 0.9898
1.7856 1.7856 -0.1935 0.9899
1.7147 1.7795 -0.1893 0.9901
1.6917 1.7775 -0.1880 0.9902
1.6690 1.7755 -0.1867 0.9903
1.6467 1.7736 -0.1854 0.9903
1.6029 1.7699 -0.1829 0.9905
1.5393 1.7644 -0.1794 0.9907
1.5187 1.7626 -0.1782 0.9907
1.4983 1.7609 -0.1771 0.9908
1.4781 1.7591 -0.1760 0.9908
1.4583 1.7574 -0.1750 0.9909
1.3811 1.7507 -0.1708 0.9911
1.3438 1.7475 -0.1689 0.9912
1.3074 1.7444 -0.1670 0.9913
1.2894 1.7428 -0.1661 0.9913
1.2542 1.7398 -0.1643 0.9914
1.2027 1.7353 -0.1618 0.9916
1.1692 1.7324 -0.1601 0.9917
1.1528 1.7310 -0.1593 0.9917
1.1309 1.7446 -0.1593 0.9917
1.1290 1.7654 -0.1605 0.9916
1.1071 1.9928 -0.1747 0.9909
1.0973 2.0955 -0.1812 0.9906
1.0920 2.1498 -0.1847 0.9904
1.0866 2.2063 -0.1884 0.9902
1.0780 2.2954 -0.1943 0.9899
1.0751 2.3263 -0.1963 0.9898
1.0657 2.4232 -0.2028 0.9894
1.0592 2.4914 -0.2074 0.9892
1.0558 2.5267 -0.2098 0.9891
1.0487 2.5998 -0.2148 0.9888
1.0413 2.6764 -0.2200 0.9885
1.0336 2.7569 -0.2256 0.9883
1.0168 2.9308 -0.2377 0.9876
1.0123 2.9772 -0.2409 0.9875
1.0077 3.0249 -0.2443 0.9873
1.0030 3.0740 -0.2477 0.9871
0.9981 3.1244 -0.2513 0.9869
0.9715 3.4003 -0.2709 0.9859
0.9596 3.5232 -0.2798 0.9855
0.9534 3.5877 -0.2844 0.9852
0.9470 3.6543 -0.2892 0.9850
0.9403 3.7233 -0.2942 0.9847
0.9334 3.7947 -0.2994 0.9844
0.9262 3.8686 -0.3048 0.9842
0.9188 3.9452 -0.3103 0.9839
0.9111 4.0247 -0.3161 0.9836
0.9032 4.1073 -0.3222 0.9833
0.8949 4.1930 -0.3285 0.9829
0.8773 4.3750 -0.3418 0.9823
0.8585 4.5740 -0.3565 0.9815
0.8383 4.7928 -0.3728 0.9807
1.8164 10.7768 -0.8373 0.9571
1.6653 10.6852 -0.8285 0.9575
1.5909 10.6400 -0.8242 0.9578
1.5173 10.5954 -0.8200 0.9580
1.2998 10.4551 -0.8071 0.9586
1.1651 10.4234 -0.8035 0.9588
1.0982 10.4076 -0.8018 0.9589
0.9654 10.3777 -0.7985 0.9590
0.9012 10.3830 -0.7984 0.9591
0.8370 10.3883 -0.7984 0.9591
0.7727 10.3937 -0.7985 0.9591
0.7085 10.3990 -0.7985 0.9590
0.5800 10.4096 -0.7987 0.9590
0.3903 10.5141 -0.8061 0.9587
0.2615 10.5681 -0.8099 0.9585
0.1966 10.5953 -0.8119 0.9584
0.1314 10.6226 -0.8139 0.9583
-0.0662 10.6967 -0.8195 0.9580
-0.2006 10.8125 -0.8285 0.9575
-0.2690 10.8713 -0.8331 0.9573
-0.4106 11.0602 -0.8479 0.9566
-0.5598 11.3058 -0.8672 0.9556
-0.6569 11.7909 -0.9047 0.9537
-0.8026 11.7797 -0.9046 0.9537
-1.0938 11.7573 -0.9046 0.9537
-1.2395 11.7462 -0.9049 0.9537
-1.2802 10.2973 -0.7950 0.9592
-1.3231 10.1308 -0.7827 0.9598
-1.4083 10.2875 -0.7955 0.9592
-1.7591 11.7652 -0.9114 0.9534
-1.8328 11.7597 -0.9118 0.9534
-2.0540 11.7432 -0.9133 0.9533
-2.1279 11.7377 -0.9139 0.9533
-2.3503 11.7211 -0.9158 0.9532
-2.4247 11.7155 -0.9166 0.9531
-2.5737 11.7044 -0.9181 0.9531
-2.6484 11.6988 -0.9189 0.9530
-2.8254 11.4866 -0.9062 0.9537
-2.7625 10.6606 -0.8437 0.9568
-2.7046 10.1776 -0.8068 0.9586
-2.8027 10.0444 -0.7989 0.9590
-2.9025 10.1592 -0.8095 0.9585
-2.9689 10.1531 -0.8104 0.9585
-3.0533 9.9820 -0.7997 0.9590
-4.1803 11.5843 -0.9435 0.9518
-4.4614 11.4667 -0.9426 0.9518
-4.4844 10.5484 -0.8781 0.9551
-4.4053 10.0164 -0.8383 0.9571
-4.5456 9.8362 -0.8301 0.9575
-4.6897 9.9853 -0.8452 0.9567
-5.4558 11.4324 -0.9705 0.9505
-5.4895 11.1461 -0.9519 0.9514
-5.5017 10.9987 -0.9422 0.9519
-5.5370 10.9003 -0.9367 0.9521
-5.7403 10.4845 -0.9157 0.9532
-5.7917 10.4248 -0.9136 0.9533
-5.8428 10.3654 -0.9116 0.9534
-5.8938 10.3062 -0.9096 0.9535
-5.9445 10.2473 -0.9076 0.9536
-6.0590 10.1533 -0.9058 0.9537
-6.1840 10.0774 -0.9058 0.9537
-6.3090 10.0015 -0.9059 0.9537
-6.3716 9.9635 -0.9061 0.9537
-6.5196 9.9224 -0.9096 0.9535
-6.6724 9.8863 -0.9138 0.9533
-6.7493 9.8682 -0.9159 0.9532
-6.9188 9.8522 -0.9223 0.9529
-7.0159 9.8603 -0.9271 0.9526
-7.2131 9.8765 -0.9370 0.9521
-7.7393 10.0645 -0.9727 0.9503
-8.0403 10.3232 -1.0024 0.9489
-15.2381 19.3171 -1.8849 0.9060
-15.1777 18.9978 -1.8629 0.9071
-22.1013 25.3330 -2.5756 0.8738
-22.2487 25.1859 -2.5746 0.8739
-22.9706 24.4369 -2.5694 0.8741
-9.5320 9.8924 -1.0524 0.9464
-9.6143 9.8551 -1.0548 0.9463
-23.5291 23.8218 -2.5652 0.8743
-23.8019 23.5093 -2.5630 0.8744
-24.2030 23.0342 -2.5597 0.8746
-24.4649 22.7134 -2.5575 0.8747
-24.7223 22.3896 -2.5553 0.8748
-25.2237 21.7326 -2.5508 0.8750
-25.3462 21.5665 -2.5496 0.8750
-25.4676 21.3996 -2.5485 0.8751
-25.5879 21.2322 -2.5473 0.8751
-25.8249 20.8949 -2.5450 0.8752
-25.9417 20.7253 -2.5438 0.8753
-26.0573 20.5550 -2.5426 0.8753
-26.2851 20.2124 -2.5403 0.8754
-26.6180 19.6934 -2.5367 0.8756
-26.8341 19.3443 -2.5343 0.8757
-27.0454 18.9928 -2.5319 0.8758
-27.1492 18.8161 -2.5306 0.8759
-27.2519 18.6388 -2.5294 0.8759
-27.3533 18.4610 -2.5282 0.8760
-27.4536 18.2825 -2.5270 0.8761
-27.5527 18.1036 -2.5257 0.8761
-27.7472 17.7440 -2.5232 0.8762
-27.9369 17.3822 -2.5208 0.8763
-28.0299 17.2006 -2.5195 0.8764
-28.2123 16.8357 -2.5170 0.8765
-28.3017 16.6526 -2.5157 0.8766
-28.5624 16.1002 -2.5119 0.8767
-28.6468 15.9152 -2.5106 0.8768
-28.7301 15.7298 -2.5093 0.8769
-28.8121 15.5438 -2.5081 0.8769
-29.0506 14.9835 -2.5042 0.8771
-29.1277 14.7959 -2.5029 0.8772
-29.2780 14.4195 -2.5003 0.8773
-29.3514 14.2308 -2.4990 0.8773
-29.4942 13.8521 -2.4964 0.8775
-29.5638 13.6623 -2.4951 0.8775
-29.6992 13.2816 -2.4925 0.8776
-29.8297 12.8996 -2.4898 0.8778
-30.0159 12.3243 -2.4859 0.8779
-30.1338 11.9394 -2.4832 0.8781
-30.2466 11.5534 -2.4805 0.8782
-30.3012 11.3600 -2.4792 0.8783
-30.3545 11.1664 -2.4779 0.8783
-30.4065 10.9725 -2.4765 0.8784
-30.5069 10.5841 -2.4738 0.8785
-30.6925 9.8050 -2.4685 0.8787
-30.7777 9.4144 -2.4658 0.8789
-30.8186 9.2187 -2.4644 0.8789
-30.8580 9.0230 -2.4631 0.8790
-30.9333 8.6312 -2.4604 0.8791
-30.9690 8.4351 -2.4590 0.8792
-31.0368 8.0426 -2.4563 0.8793
-31.0995 7.6496 -2.4536 0.8794
-31.1290 7.4530 -2.4522 0.8795
-31.1842 7.0596 -2.4495 0.8796
-31.2577 6.4691 -2.4454 0.8798
-31.2797 6.2722 -2.4441 0.8799
-31.3004 6.0752 -2.4427 0.8799
-31.3382 5.6813 -2.4400 0.8801
-31.3553 5.4844 -2.4386 0.8801
-31.3711 5.2874 -2.4373 0.8802
-31.3857 5.0904 -2.4359 0.8802
-31.4317 4.3029 -2.4305 0.8805
-31.4402 4.1062 -2.4291 0.8806
-31.4533 3.7128 -2.4264 0.8807
-31.4581 3.5163 -2.4251 0.8807
-31.4616 3.3198 -2.4237 0.8808
-31.4639 3.1234 -2.4223 0.8809
-31.4650 2.9271 -2.4210 0.8809
-31.4611 2.3390 -2.4169 0.8811
-31.4573 2.1432 -2.4156 0.8812
-31.4524 1.9475 -2.4142 0.8812
-31.4206 1.1663 -2.4088 0.8815
-31.4096 0.9715 -2.4075 0.8816
-31.3975 0.7768 -2.4061 0.8816
-31.3697 0.3880 -2.4035 0.8817
-31.3540 0.1938 -2.4021 0.8818
-28.5518 -0.0000 -2.4007 0.8917
-28.4659 -0.8805 -2.3947 0.8920
-28.4455 -1.0560 -2.3935 0.8920
-28.3277 -1.9301 -2.3874 0.8923
-28.2731 -2.2779 -2.3850 0.8924
-28.2443 -2.4516 -2.3838 0.8924
-28.2144 -2.6249 -2.3826 0.8925
-28.1516 -2.9706 -2.3802 0.8926
-28.1186 -3.1431 -2.3790 0.8926
-28.0495 -3.4871 -2.3767 0.8927
-27.8590 -4.3419 -2.3708 0.8930
-27.8177 -4.5118 -2.3696 0.8930
-27.7756 -4.6815 -2.3684 0.8931
-27.6883 -5.0197 -2.3661 0.8932
-27.6431 -5.1883 -2.3649 0.8932
-27.5969 -5.3565 -2.3638 0.8933
-27.5016 -5.6918 -2.3614 0.8934
-27.3512 -6.1919 -2.3580 0.8935
-27.2991 -6.3579 -2.3568 0.8936
-27.0810 -7.0176 -2.3523 0.8938
-26.8476 -7.6705 -2.3478 0.8940
-26.6625 -8.1556 -2.3444 0.8941
-26.5345 -8.4768 -2.3422 0.8942
-26.4028 -8.7960 -2.3400 0.8943
-26.3355 -8.9549 -2.3389 0.8944
-26.2673 -9.1133 -2.3378 0.8944
-26.1982 -9.2712 -2.3367 0.8944
-26.1282 -9.4287 -2.3356 0.8945
-25.9855 -9.7421 -2.3335 0.8946
-25.7646 -10.2084 -2.3302 0.8947
-25.6892 -10.3628 -2.3292 0.8948
-25.6130 -10.5166 -2.3281 0.8948
-25.4974 -10.6539 -2.3235 0.8950
-25.3418 -10.7734 -2.3154 0.8954
-25.0278 -11.0074 -2.2990 0.8961
-24.7182 -11.2381 -2.2831 0.8967
-24.5633 -11.3515 -2.2753 0.8971
-24.2506 -11.5731 -2.2594 0.8978
-24.0958 -11.6828 -2.2516 0.8981
-23.9421 -11.7916 -2.2441 0.8984
-23.7884 -11.8993 -2.2365 0.8987
-23.6322 -12.0044 -2.2288 0.8991
-23.4770 -12.1088 -2.2211 0.8994
-23.1697 -12.3155 -2.2063 0.9000
-23.0176 -12.4178 -2.1991 0.9003
-22.8624 -12.5172 -2.1916 0.9007
-22.7079 -12.6158 -2.1843 0.9010
-22.2589 -12.9125 -2.1637 0.9019
-22.0338 -13.1488 -2.1575 0.9021
-21.9429 -13.2793 -2.1566 0.9022
-21.7589 -13.5384 -2.1548 0.9022
-21.5721 -13.7951 -2.1530 0.9023
-21.3823 -14.0494 -2.1513 0.9024
-21.2864 -14.1756 -2.1504 0.9024
-21.1897 -14.3012 -2.1495 0.9025
-21.0924 -14.4262 -2.1487 0.9025
-20.9944 -14.5505 -2.1478 0.9025
-20.7963 -14.7973 -2.1461 0.9026
-20.5955 -15.0415 -2.1444 0.9027
-19.7656 -15.9925 -2.1378 0.9030
-19.6590 -16.1083 -2.1370 0.9030
-19.5517 -16.2236 -2.1362 0.9030
-18.8949 -16.9005 -2.1316 0.9032
-18.7833 -17.0110 -2.1308 0.9033
-18.6711 -17.1207 -2.1300 0.9033
-18.4449 -17.3381 -2.1285 0.9034
-18.2163 -17.5527 -2.1271 0.9034
-17.9855 -17.7644 -2.1256 0.9035
-17.8691 -17.8692 -2.1249 0.9035
-17.3983 -18.2812 -2.1220 0.9037
-17.1596 -18.4828 -2.1206 0.9037
-16.9187 -18.6815 -2.1192 0.9038
-16.6757 -18.8773 -2.1179 0.9038
-16.5534 -18.9740 -2.1172 0.9039
-16.4306 -19.0701 -2.1166 0.9039
-16.0591 -19.3536 -2.1146 0.9040
-15.6831 -19.6304 -2.1127 0.9041
-15.5568 -19.7212 -2.1121 0.9041
-15.4300 -19.8112 -2.1114 0.9041
-15.3027 -19.9004 -2.1108 0.9041
-14.7889 -20.2496 -2.1084 0.9042
-14.6592 -20.3350 -2.1078 0.9043
-14.3986 -20.5034 -2.1066 0.9043
-14.2677 -20.5864 -2.1061 0.9043
-14.1362 -20.6687 -2.1055 0.9044
-14.0044 -20.7502 -2.1049 0.9044
-13.8721 -20.8308 -2.1044 0.9044
-13.7395 -20.9107 -2.1038 0.9044
-12.7990 -21.4477 -2.1001 0.9046
-12.6630 -21.5212 -2.0996 0.9046
-12.2529 -21.7370 -2.0981 0.9047
-12.1154 -21.8073 -2.0976 0.9047
-11.4226 -22.1466 -2.0953 0.9048
-11.2830 -22.2120 -2.0948 0.9048
-11.1430 -22.2766 -2.0944 0.9049
-11.0027 -22.3404 -2.0939 0.9049
-10.8621 -22.4034 -2.0935 0.9049
-10.5799 -22.5268 -2.0926 0.9049
-10.2964 -22.6470 -2.0918 0.9050
-10.1541 -22.7057 -2.0914 0.9050
-9.8687 -22.8209 -2.0906 0.9050
-9.7256 -22.8771 -2.0902 0.9050
-9.5822 -22.9327 -2.0898 0.9050
-9.4385 -22.9873 -2.0894 0.9051
-9.2945 -23.0412 -2.0891 0.9051
-9.1502 -23.0941 -2.0887 0.9051
-9.0056 -23.1463 -2.0883 0.9051
-8.8608 -23.1975 -2.0880 0.9051
-8.5704 -23.2976 -2.0873 0.9052
-8.2789 -23.3943 -2.0866 0.9052
-7.9865 -23.4877 -2.0860 0.9052
-7.6930 -23.5775 -2.0854 0.9052
-7.5460 -23.6213 -2.0850 0.9053
-7.3987 -23.6641 -2.0848 0.9053
-7.1035 -23.7472 -2.0842 0.9053
-6.9556 -23.7875 -2.0839 0.9053
-6.6591 -23.8655 -2.0834 0.9053
-6.5106 -23.9032 -2.0831 0.9053
-6.3619 -23.9401 -2.0828 0.9054
-5.9145 -24.0455 -2.0821 0.9054
-5.6155 -24.1115 -2.0816 0.9054
-5.4657 -24.1433 -2.0814 0.9054
-5.3157 -24.1741 -2.0812 0.9054
-5.1656 -24.2041 -2.0810 0.9054
-4.8649 -24.2614 -2.0806 0.9054
-4.7144 -24.2888 -2.0804 0.9055
-4.5636 -24.3154 -2.0802 0.9055
-4.4128 -24.3411 -2.0800 0.9055
-4.2619 -24.3659 -2.0799 0.9055
-4.1108 -24.3898 -2.0797 0.9055
-3.9595 -24.4129 -2.0795 0.9055
-3.2018 -24.5152 -2.0788 0.9055
-2.4230 -24.4078 -2.0624 0.9062
-2.2696 -24.3964 -2.0602 0.9063
-2.1165 -24.3850 -2.0581 0.9064
-1.9638 -24.3736 -2.0561 0.9065
-1.6591 -24.3509 -2.0523 0.9067
-1.5071 -24.3396 -2.0505 0.9067
-1.3555 -24.3283 -2.0488 0.9068
-1.2040 -24.3170 -2.0472 0.9069
-0.6005 -24.2721 -2.0415 0.9071
-0.4502 -24.2609 -2.0403 0.9072
-0.1499 -24.2385 -2.0381 0.9073
0.2068 -16.7167 -1.4057 0.9351
0.3103 -16.7227 -1.4064 0.9351
0.4156 -16.7967 -1.4128 0.9348
0.5184 -16.7588 -1.4098 0.9349
1.1378 -16.7006 -1.4075 0.9350
1.2412 -16.6951 -1.4077 0.9350
1.7583 -16.6630 -1.4089 0.9350
1.9654 -16.6501 -1.4097 0.9349
2.2767 -16.6304 -1.4114 0.9348
2.4851 -16.6202 -1.4130 0.9348
2.5900 -16.6187 -1.4142 0.9347
2.7867 -16.5338 -1.4098 0.9349
2.8925 -16.5369 -1.4116 0.9348
4.3312 -23.0770 -1.9743 0.9101
4.7596 -22.9974 -1.9747 0.9100
4.9057 -22.9864 -1.9763 0.9100
5.0522 -22.9755 -1.9780 0.9099
5.1988 -22.9645 -1.9798 0.9098
5.4930 -22.9426 -1.9836 0.9096
5.7884 -22.9204 -1.9877 0.9095
5.9365 -22.9094 -1.9899 0.9094
6.2338 -22.8871 -1.9945 0.9092
7.0890 -23.6985 -2.0799 0.9055
7.2454 -23.6868 -2.0828 0.9054
7.3982 -23.6625 -2.0846 0.9053
7.5455 -23.6196 -2.0849 0.9053
7.6925 -23.5759 -2.0852 0.9052
7.8393 -23.5313 -2.0855 0.9052
7.9859 -23.4859 -2.0858 0.9052
8.2783 -23.3926 -2.0865 0.9052
8.4242 -23.3446 -2.0868 0.9052
8.7151 -23.2462 -2.0875 0.9051
8.8601 -23.1957 -2.0878 0.9051
9.2937 -23.0392 -2.0889 0.9051
9.5814 -22.9307 -2.0896 0.9051
9.7248 -22.8752 -2.0900 0.9050
10.0107 -22.7617 -2.0908 0.9050
10.1532 -22.7036 -2.0912 0.9050
10.7201 -22.4633 -2.0929 0.9049
10.8610 -22.4011 -2.0933 0.9049
11.1419 -22.2743 -2.0942 0.9049
11.2818 -22.2097 -2.0946 0.9048
11.4214 -22.1444 -2.0951 0.9048
11.6995 -22.0110 -2.0960 0.9048
12.3886 -21.6635 -2.0984 0.9047
12.5253 -21.5915 -2.0989 0.9047
13.2029 -21.2199 -2.1014 0.9045
13.3372 -21.1431 -2.1019 0.9045
13.6047 -20.9872 -2.1030 0.9045
11.6132 -17.2071 -1.7455 0.9200
11.5899 -16.9456 -1.7262 0.9209
11.6047 -16.7441 -1.7130 0.9215
11.6105 -16.5331 -1.6987 0.9221
11.6257 -16.3390 -1.6861 0.9227
11.7098 -16.0335 -1.6694 0.9234
12.1259 -15.9725 -1.6862 0.9227
12.3039 -16.0005 -1.6972 0.9222
12.3999 -15.9207 -1.6968 0.9222
12.7048 -15.9025 -1.7115 0.9215
13.1554 -15.8542 -1.7322 0.9206
13.3099 -15.8400 -1.7397 0.9203
13.4657 -15.8257 -1.7472 0.9200
13.6229 -15.8112 -1.7549 0.9196
13.7808 -15.7959 -1.7626 0.9193
13.9400 -15.7804 -1.7704 0.9190
14.1013 -15.7654 -1.7785 0.9186
14.6778 -15.8096 -1.8139 0.9170
14.7679 -15.7107 -1.8130 0.9171
14.9707 -15.7304 -1.8259 0.9165
15.2784 -15.6611 -1.8397 0.9159
15.8578 -15.6629 -1.8741 0.9144
18.0982 -17.6560 -2.1260 0.9035
18.3279 -17.4429 -2.1274 0.9034
17.7966 -16.3189 -2.0303 0.9076
17.5683 -14.9484 -1.9396 0.9116
17.5825 -14.7740 -1.9310 0.9119
17.9534 -14.7107 -1.9516 0.9110
20.1534 -16.1010 -2.1690 0.9016
20.6129 -16.0545 -2.1969 0.9004
19.9291 -14.5548 -2.0750 0.9057
20.1237 -14.5070 -2.0859 0.9052
20.3589 -14.4860 -2.1010 0.9046
22.3081 -15.6661 -2.2921 0.8964
22.4134 -15.5340 -2.2930 0.8963
22.5181 -15.4012 -2.2939 0.8963
22.6219 -15.2678 -2.2948 0.8962
22.7251 -15.1336 -2.2957 0.8962
22.8275 -14.9989 -2.2967 0.8962
22.9291 -14.8635 -2.2976 0.8961
23.0300 -14.7274 -2.2985 0.8961
23.1300 -14.5907 -2.2995 0.8960
23.2295 -14.4533 -2.3004 0.8960
23.3280 -14.3153 -2.3014 0.8960
23.7146 -13.7569 -2.3052 0.8958
23.8093 -13.6157 -2.3062 0.8957
24.0885 -13.1886 -2.3092 0.8956
24.1800 -13.0449 -2.3102 0.8956
24.2706 -12.9007 -2.3111 0.8955
24.8822 -11.8745 -2.3182 0.8952
25.1317 -11.4261 -2.3213 0.8951
25.2937 -11.1244 -2.3234 0.8950
25.6075 -10.5143 -2.3276 0.8948
25.8335 -10.0512 -2.3308 0.8947
26.1224 -9.4266 -2.3351 0.8945
26.4631 -8.6346 -2.3406 0.8943
26.5285 -8.4748 -2.3417 0.8942
26.6565 -8.1537 -2.3439 0.8941
26.7191 -7.9925 -2.3450 0.8941
26.8415 -7.6688 -2.3472 0.8940
26.9012 -7.5062 -2.3484 0.8939
26.9600 -7.3432 -2.3495 0.8939
27.0748 -7.0159 -2.3517 0.8938
27.2927 -6.3564 -2.3563 0.8936
27.3448 -6.1905 -2.3574 0.8936
27.4952 -5.6904 -2.3609 0.8934
27.6366 -5.1870 -2.3644 0.8933
27.8524 -4.3409 -2.3702 0.8930
27.8925 -4.1706 -2.3714 0.8930
28.0068 -3.6578 -2.3749 0.8928
28.0779 -3.3145 -2.3773 0.8927
28.1119 -3.1424 -2.3785 0.8927
28.1449 -2.9699 -2.3797 0.8926
28.1768 -2.7972 -2.3809 0.8926
28.3947 -1.4060 -2.3905 0.8922
28.4172 -1.2310 -2.3917 0.8921
28.3636 -0.8773 -2.3861 0.8923
28.3829 -0.7022 -2.3873 0.8923
28.5138 -0.3527 -2.3977 0.8918
28.5589 0.1766 -2.4014 0.8917
28.5836 0.5303 -2.4038 0.8916
28.6357 1.7731 -2.4124 0.8912
28.6388 1.9512 -2.4136 0.8912
28.5530 2.4783 -2.4099 0.8913
28.6376 2.8429 -2.4198 0.8909
28.6340 3.0215 -2.4210 0.8909
28.6294 3.2001 -2.4223 0.8908
28.6167 3.5576 -2.4247 0.8907
28.6088 3.7364 -2.4260 0.8906
28.5996 3.9152 -2.4272 0.8906
28.5656 4.4519 -2.4309 0.8904
28.5521 4.6308 -2.4321 0.8904
28.5374 4.8098 -2.4334 0.8903
27.8188 5.0433 -2.3772 0.8927
22.1017 4.5742 -1.8978 0.9134
20.6061 4.6649 -1.7765 0.9187
10.8295 2.5929 -0.9363 0.9563
9.9541 2.5138 -0.8633 0.9596
7.9715 2.3309 -0.6983 0.9672
7.7148 2.3077 -0.6771 0.9682
7.4774 2.2872 -0.6575 0.9691
7.2523 2.2675 -0.6389 0.9700
7.0387 2.2486 -0.6213 0.9708
6.8354 2.2303 -0.6046 0.9716
6.2867 2.1811 -0.5595 0.9736
5.9641 2.1522 -0.5331 0.9749
5.8139 2.1387 -0.5209 0.9754
5.6705 2.1259 -0.5092 0.9760
5.2763 2.0905 -0.4772 0.9775
4.8216 2.0498 -0.4405 0.9792
4.7187 2.0406 -0.4323 0.9796
4.4317 2.0148 -0.4093 0.9806
4.1735 1.9917 -0.3888 0.9816
3.4718 1.9288 -0.3340 0.9842
3.4126 1.9236 -0.3294 0.9844
3.3553 1.9187 -0.3250 0.9846
3.2994 1.9140 -0.3207 0.9848
3.1920 1.9048 -0.3126 0.9852
3.1403 1.9004 -0.3086 0.9854
3.0408 1.8920 -0.3011 0.9857
2.8117 1.8724 -0.2840 0.9865
2.7689 1.8688 -0.2809 0.9867
2.6862 1.8617 -0.2748 0.9870
2.6462 1.8583 -0.2719 0.9871
2.5686 1.8517 -0.2662 0.9874
2.5310 1.8485 -0.2635 0.9875
2.4942 1.8453 -0.2609 0.9876
2.4581 1.8422 -0.2583 0.9877
2.4227 1.8392 -0.2558 0.9879
2.3539 1.8333 -0.2509 0.9881
2.3205 1.8305 -0.2485 0.9882
2.2239 1.8222 -0.2418 0.9885
2.1929 1.8196 -0.2396 0.9886
2.1624 1.8170 -0.2375 0.9887
2.1324 1.8144 -0.2354 0.9888
2.1029 1.8119 -0.2334 0.9889
2.0455 1.8070 -0.2295 0.9891
2.0175 1.8046 -0.2276 0.9892
1.9900 1.8022 -0.2257 0.9893
1.9629 1.7999 -0.2239 0.9894
1.8587 1.7910 -0.2170 0.9897
1.8089 1.7867 -0.2138 0.9898
1.7370 1.7805 -0.2092 0.9901
1.7137 1.7785 -0.2077 0.9901
1.6020 1.7689 -0.2007 0.9905
1.5594 1.7653 -0.1981 0.9906
1.5385 1.7635 -0.1968 0.9906
1.5179 1.7617 -0.1955 0.9907
1.4774 1.7582 -0.1931 0.9908
1.4185 1.7532 -0.1896 0.9910
1.3431 1.7467 -0.1853 0.9912
1.3248 1.7451 -0.1842 0.9912
1.3067 1.7436 -0.1832 0.9913
1.2711 1.7405 -0.1812 0.9914
1.2536 1.7390 -0.1803 0.9914
1.2363 1.7375 -0.1793 0.9915
1.2191 1.7360 -0.1784 0.9915
1.1853 1.7331 -0.1765 0.9916
1.1687 1.7317 -0.1757 0.9916
1.1300 1.7432 -0.1747 0.9917
1.1260 1.7850 -0.1775 0.9916
1.1239 1.8064 -0.1789 0.9915
1.1219 1.8281 -0.1804 0.9914
1.1176 1.8727 -0.1834 0.9913
1.1154 1.8956 -0.1849 0.9912
1.1108 1.9425 -0.1882 0.9911
1.1062 1.9910 -0.1915 0.9909
1.1037 2.0160 -0.1933 0.9908
1.0988 2.0672 -0.1969 0.9906
1.0963 2.0936 -0.1987 0.9906
1.0937 2.1204 -0.2006 0.9905
1.0910 2.1478 -0.2026 0.9904
1.0856 2.2042 -0.2066 0.9902
1.0828 2.2332 -0.2087 0.9901
1.0709 2.3555 -0.2176 0.9897
1.0678 2.3878 -0.2199 0.9896
1.0646 2.4207 -0.2224 0.9894
1.0614 2.4544 -0.2248 0.9893
1.0581 2.4888 -0.2274 0.9892
1.0546 2.5240 -0.2300 0.9891
1.0512 2.5601 -0.2327 0.9890
1.0439 2.6347 -0.2383 0.9887
1.0402 2.6735 -0.2412 0.9886
1.0200 2.8822 -0.2571 0.9878
0.9969 3.1204 -0.2754 0.9869
0.9813 3.2806 -0.2879 0.9863
0.9758 3.3372 -0.2924 0.9861
0.9702 3.3957 -0.2969 0.9859
0.9520 3.5825 -0.3117 0.9852
0.9389 3.7177 -0.3224 0.9847
0.9248 3.8626 -0.3340 0.9842
0.9174 3.9390 -0.3401 0.9839
0.9097 4.0184 -0.3464 0.9836
0.9020 4.1020 -0.3532 0.9833
0.8940 4.1889 -0.3601 0.9830
0.8770 4.3734 -0.3751 0.9823
0.8679 4.4716 -0.3830 0.9819
0.8486 4.6809 -0.4000 0.9811
1.7403 10.7302 -0.9140 0.9573
1.5908 10.6394 -0.9046 0.9577
1.5172 10.5948 -0.8999 0.9579
1.4444 10.5506 -0.8954 0.9582
1.3675 10.4705 -0.8879 0.9585
1.2997 10.4546 -0.8858 0.9586
1.2322 10.4386 -0.8838 0.9587
1.1651 10.4228 -0.8818 0.9588
1.0316 10.3914 -0.8780 0.9589
0.9654 10.3772 -0.8763 0.9590
0.4543 10.4868 -0.8826 0.9587
0.3903 10.5136 -0.8846 0.9586
0.3260 10.5405 -0.8867 0.9586
0.1966 10.5947 -0.8910 0.9584
0.0658 10.6444 -0.8950 0.9582
0.0000 10.6392 -0.8946 0.9582
-0.2019 10.8813 -0.9151 0.9573
-0.3417 11.0460 -0.9292 0.9566
-0.6569 11.7903 -0.9929 0.9537
-0.7297 11.7847 -0.9928 0.9537
-0.8753 11.7735 -0.9927 0.9537
-0.9481 11.7679 -0.9927 0.9537
-1.0209 11.7623 -0.9927 0.9537
-1.1666 11.7511 -0.9929 0.9537
-1.2069 10.2245 -0.8657 0.9595
-1.3977 10.2099 -0.8665 0.9595
-1.4614 10.2049 -0.8668 0.9595
-1.7591 11.7646 -1.0002 0.9534
-1.8327 11.7591 -1.0007 0.9534
-2.0539 11.7426 -1.0024 0.9533
-2.3502 11.7205 -1.0051 0.9531
-2.5736 11.7038 -1.0076 0.9530
-2.6483 11.6982 -1.0085 0.9530
-2.7759 11.5941 -1.0024 0.9533
-2.7927 11.0583 -0.9590 0.9552
-2.7626 10.6609 -0.9260 0.9568
-2.7493 10.0938 -0.8796 0.9589
-2.8147 10.0876 -0.8806 0.9588
-2.8352 9.9234 -0.8678 0.9594
-2.9460 10.0751 -0.8826 0.9587
-3.0120 10.0691 -0.8837 0.9587
-3.0298 9.9052 -0.8710 0.9593
-3.7117 11.6187 -1.0256 0.9522
-3.9448 11.6013 -1.0303 0.9520
-4.1014 11.5896 -1.0337 0.9518
-4.1801 11.5837 -1.0355 0.9518
-4.2591 11.5778 -1.0373 0.9517
-4.3383 11.5718 -1.0391 0.9516
-4.5015 10.7732 -0.9818 0.9542
-4.4844 10.5486 -0.9638 0.9550
-4.4053 10.0165 -0.9201 0.9570
-4.6521 9.9054 -0.9202 0.9570
-5.4555 11.4317 -1.0651 0.9504
-5.4770 11.2964 -1.0556 0.9509
-5.5369 10.9000 -1.0280 0.9521
-5.6127 10.7189 -1.0174 0.9526
-5.6501 10.6298 -1.0122 0.9528
-5.8426 10.3650 -1.0005 0.9534
-5.8936 10.3059 -0.9982 0.9535
-5.9443 10.2470 -0.9961 0.9536
-5.9962 10.1908 -0.9942 0.9536
-6.0587 10.1529 -0.9941 0.9536
-6.1212 10.1149 -0.9941 0.9537
-6.1837 10.0770 -0.9941 0.9536
-6.3713 9.9631 -0.9944 0.9536
-6.5954 9.9039 -1.0005 0.9534
-6.8683 9.7803 -1.0049 0.9532
-7.0154 9.8596 -1.0175 0.9526
-7.1135 9.8677 -1.0228 0.9523
-7.3142 9.8860 -1.0340 0.9518
-7.5941 10.0031 -1.0560 0.9508
-7.7385 10.0635 -1.0674 0.9503
-8.0387 10.3212 -1.1000 0.9488
-15.1803 19.2438 -2.0609 0.9063
-15.0832 18.6419 -2.0163 0.9082
-15.1876 18.5353 -2.0149 0.9083
-15.3272 18.4715 -2.0182 0.9081
-15.6401 18.3812 -2.0293 0.9077
-16.2850 18.4349 -2.0683 0.9060
-20.2750 22.6675 -2.5572 0.8851
-20.4074 22.5336 -2.5562 0.8851
-20.7991 22.1268 -2.5534 0.8852
-9.4805 9.9615 -1.1563 0.9463
-21.4330 21.4329 -2.5487 0.8854
-21.5569 21.2919 -2.5477 0.8855
-21.6798 21.1500 -2.5467 0.8855
-21.8018 21.0074 -2.5457 0.8856
-21.9228 20.8641 -2.5447 0.8856
-22.0428 20.7200 -2.5437 0.8856
-22.1618 20.5752 -2.5427 0.8857
-22.2798 20.4297 -2.5417 0.8857
-22.5129 20.1366 -2.5397 0.8858
-22.7418 19.8406 -2.5377 0.8859
-22.9669 19.5420 -2.5356 0.8860
-23.0779 19.3916 -2.5346 0.8860
-23.2967 19.0890 -2.5325 0.8861
-23.6173 18.6302 -2.5293 0.8863
-23.7221 18.4760 -2.5283 0.8863
-23.9285 18.1658 -2.5261 0.8864
-24.3288 17.5383 -2.5218 0.8866
-24.6178 17.0617 -2.5185 0.8867
-24.7120 16.9017 -2.5174 0.8868
-24.8973 16.5801 -2.5152 0.8869
-24.9882 16.4186 -2.5141 0.8869
-25.0781 16.2565 -2.5129 0.8869
-25.2547 15.9308 -2.5107 0.8870
-25.5112 15.4387 -2.5073 0.8872
-25.5947 15.2737 -2.5062 0.8872
-25.9950 14.4419 -2.5004 0.8875
-26.0717 14.2743 -2.4993 0.8875
-26.1473 14.1062 -2.4981 0.8876
-26.2219 13.9378 -2.4970 0.8876
-26.2953 13.7689 -2.4958 0.8877
-26.3676 13.5997 -2.4946 0.8877
-26.4388 13.4300 -2.4934 0.8878
-26.5778 13.0897 -2.4911 0.8879
-26.6456 12.9189 -2.4899 0.8879
-26.8424 12.4047 -2.4864 0.8881
-26.9680 12.0602 -2.4840 0.8882
-27.0291 11.8875 -2.4828 0.8882
-27.0891 11.7145 -2.4816 0.8883
-27.1479 11.5412 -2.4804 0.8883
-27.3176 11.0196 -2.4768 0.8885
-27.3720 10.8451 -2.4756 0.8885
-27.4252 10.6704 -2.4744 0.8886
-27.4772 10.4955 -2.4732 0.8886
-27.6265 9.9693 -2.4696 0.8888
-27.7204 9.6174 -2.4671 0.8889
-27.8098 9.2646 -2.4647 0.8890
-27.8528 9.0880 -2.4635 0.8890
-27.9353 8.7341 -2.4610 0.8892
-27.9749 8.5570 -2.4598 0.8892
-28.1219 7.8467 -2.4549 0.8894
-28.1558 7.6688 -2.4537 0.8895
-28.2201 7.3127 -2.4512 0.8896
-28.2800 6.9561 -2.4488 0.8897
-28.3082 6.7777 -2.4475 0.8897
-28.3354 6.5991 -2.4463 0.8898
-28.4324 5.8844 -2.4414 0.8900
-28.4539 5.7056 -2.4401 0.8900
-28.4934 5.3477 -2.4377 0.8901
-28.5443 4.8109 -2.4340 0.8903
-28.6157 3.7373 -2.4266 0.8906
-28.6306 3.3796 -2.4241 0.8907
-28.6364 3.2009 -2.4228 0.8908
-28.6469 2.6650 -2.4191 0.8909
-28.6485 2.3081 -2.4167 0.8910
-28.6477 2.1298 -2.4155 0.8911
-28.6457 1.9516 -2.4142 0.8911
-28.6385 1.5956 -2.4118 0.8912
-28.6268 1.2400 -2.4093 0.8913
-28.6193 1.0624 -2.4081 0.8914
-28.5787 0.3535 -2.4032 0.8916
-26.1774 -0.4857 -2.3974 0.9002
-26.1618 -0.6473 -2.3963 0.9002
-26.1272 -0.9697 -2.3940 0.9003
-26.1088 -1.1310 -2.3929 0.9004
-26.0470 -1.6129 -2.3896 0.9005
-26.0245 -1.7731 -2.3885 0.9005
-26.0009 -1.9330 -2.3874 0.9006
-25.8691 -2.7298 -2.3819 0.9008
-25.8397 -2.8882 -2.3808 0.9008
-25.8096 -3.0467 -2.3797 0.9009
-25.7785 -3.2048 -2.3786 0.9009
-25.7463 -3.3626 -2.3775 0.9010
-25.7133 -3.5202 -2.3764 0.9010
-25.6443 -3.8344 -2.3742 0.9011
-25.5716 -4.1475 -2.3721 0.9012
-25.4952 -4.4594 -2.3699 0.9013
-25.4556 -4.6149 -2.3689 0.9013
-25.3313 -5.0795 -2.3656 0.9014
-25.2880 -5.2337 -2.3646 0.9015
-25.0092 -6.1516 -2.3582 0.9017
-24.9091 -6.4547 -2.3561 0.9018
-24.8576 -6.6058 -2.3551 0.9018
-24.6981 -7.0564 -2.3520 0.9020
-24.5874 -7.3549 -2.3499 0.9021
-24.5307 -7.5035 -2.3489 0.9021
-24.4732 -7.6518 -2.3479 0.9021
-24.2954 -8.0939 -2.3448 0.9023
-24.2343 -8.2405 -2.3438 0.9023
-24.0463 -8.6775 -2.3408 0.9024
-23.9820 -8.8222 -2.3398 0.9025
-23.7838 -9.2538 -2.3368 0.9026
-23.7161 -9.3967 -2.3358 0.9026
-23.6475 -9.5391 -2.3348 0.9026
-23.4370 -9.9637 -2.3319 0.9028
-23.3653 -10.1042 -2.3309 0.9028
-23.2926 -10.2443 -2.3300 0.9028
-23.1450 -10.5229 -2.3280 0.9029
-23.0700 -10.6614 -2.3271 0.9030
-22.9942 -10.7995 -2.3261 0.9030
-22.9176 -10.9370 -2.3252 0.9030
-22.7621 -11.2105 -2.3233 0.9031
-22.6831 -11.3464 -2.3224 0.9031
-22.6034 -11.4818 -2.3214 0.9032
-22.2769 -12.0182 -2.3177 0.9033
-21.9382 -12.5458 -2.3141 0.9035
-21.7644 -12.8062 -2.3123 0.9035
-21.5877 -13.0643 -2.3105 0.9036
-21.4081 -13.3201 -2.3087 0.9037
-21.3072 -13.4408 -2.3067 0.9038
-21.1547 -13.5282 -2.2993 0.9041
-21.0032 -13.6151 -2.2919 0.9043
-20.7030 -13.7871 -2.2776 0.9049
-20.5542 -13.8723 -2.2706 0.9052
-20.1041 -14.1183 -2.2494 0.9060
-19.8074 -14.2790 -2.2358 0.9066
-19.6603 -14.3585 -2.2292 0.9068
-19.3626 -14.5118 -2.2156 0.9074
-19.2147 -14.5873 -2.2090 0.9076
-18.7759 -14.8112 -2.1898 0.9084
-18.6286 -14.8828 -2.1833 0.9087
-18.3353 -15.0237 -2.1705 0.9092
-18.1899 -15.0936 -2.1643 0.9094
-17.4248 -15.5856 -2.1406 0.9104
-17.1158 -15.8905 -2.1385 0.9105
-17.0117 -15.9909 -2.1378 0.9105
-16.9070 -16.0906 -2.1371 0.9105
-16.6960 -16.2881 -2.1358 0.9106
-16.5897 -16.3858 -2.1351 0.9106
-16.3755 -16.5794 -2.1338 0.9106
-16.2676 -16.6751 -2.1331 0.9107
-16.1592 -16.7702 -2.1324 0.9107
-16.0502 -16.8646 -2.1318 0.9107
-15.2735 -17.5069 -2.1273 0.9109
-15.1605 -17.5960 -2.1267 0.9109
-15.0471 -17.6843 -2.1261 0.9110
-14.9332 -17.7719 -2.1255 0.9110
-14.7039 -17.9451 -2.1243 0.9110
-14.5886 -18.0307 -2.1237 0.9110
-14.4728 -18.1155 -2.1231 0.9111
-14.3566 -18.1997 -2.1225 0.9111
-14.1227 -18.3659 -2.1214 0.9111
-14.0052 -18.4480 -2.1208 0.9112
-13.8871 -18.5294 -2.1203 0.9112
-13.6497 -18.6899 -2.1192 0.9112
-13.5304 -18.7691 -2.1186 0.9113
-13.4106 -18.8475 -2.1181 0.9113
-13.2904 -18.9253 -2.1175 0.9113
-12.9274 -19.1543 -2.1159 0.9114
-12.8055 -19.2291 -2.1154 0.9114
-12.6833 -19.3033 -2.1149 0.9114
-12.5606 -19.3767 -2.1144 0.9114
-12.3142 -19.5213 -2.1134 0.9115
-12.1904 -19.5925 -2.1129 0.9115
-11.9416 -19.7327 -2.1119 0.9115
-11.8167 -19.8017 -2.1115 0.9115
-11.5658 -19.9375 -2.1105 0.9116
-11.3134 -20.0703 -2.1096 0.9116
-10.9321 -20.2638 -2.1083 0.9117
-10.8044 -20.3268 -2.1078 0.9117
-9.9009 -20.7467 -2.1049 0.9118
-9.7706 -20.8037 -2.1045 0.9118
-9.3778 -20.9698 -2.1034 0.9119
-9.2463 -21.0237 -2.1030 0.9119
-8.4515 -21.3306 -2.1009 0.9120
-8.3181 -21.3791 -2.1005 0.9120
-8.1844 -21.4267 -2.1002 0.9120
-7.7820 -21.5650 -2.0992 0.9120
-7.5124 -21.6533 -2.0986 0.9120
-7.3773 -21.6963 -2.0983 0.9121
-7.1065 -21.7798 -2.0978 0.9121
-6.9707 -21.8204 -2.0975 0.9121
-6.8347 -21.8602 -2.0972 0.9121
-6.5622 -21.9375 -2.0967 0.9121
-6.4256 -21.9749 -2.0964 0.9121
-5.8773 -22.1168 -2.0954 0.9122
-5.6021 -22.1829 -2.0950 0.9122
-5.4642 -22.2148 -2.0947 0.9122
-5.3262 -22.2458 -2.0945 0.9122
-5.1880 -22.2761 -2.0943 0.9122
-5.0496 -22.3056 -2.0941 0.9122
-4.7725 -22.3621 -2.0937 0.9122
-4.6337 -22.3892 -2.0935 0.9123
-4.4947 -22.4155 -2.0933 0.9123
-4.2165 -22.4656 -2.0930 0.9123
-3.7981 -22.5348 -2.0925 0.9123
-3.6584 -22.5562 -2.0924 0.9123
-3.3787 -22.5967 -2.0921 0.9123
-3.0986 -22.6339 -2.0918 0.9123
-2.8181 -22.6679 -2.0916 0.9123
-2.6777 -22.6838 -2.0915 0.9123
-2.5372 -22.6987 -2.0914 0.9123
-2.3967 -22.7129 -2.0913 0.9123
-2.1154 -22.7388 -2.0911 0.9124
-1.6930 -22.7716 -2.0909 0.9124
-1.5521 -22.7810 -2.0908 0.9124
-1.4112 -22.7895 -2.0907 0.9124
-1.2701 -22.7972 -2.0907 0.9124
-0.9881 -22.8101 -2.0906 0.9124
-0.8470 -22.8154 -2.0905 0.9124
-0.7058 -22.8198 -2.0905 0.9124
-0.2119 -17.1322 -1.5688 0.9335
-0.1032 -16.6905 -1.5283 0.9352
-0.0000 -16.6245 -1.5222 0.9354
0.2051 -16.5824 -1.5185 0.9356
0.7240 -16.7135 -1.5318 0.9350
0.8270 -16.7026 -1.5313 0.9350
1.1361 -16.6750 -1.5304 0.9351
1.6520 -16.6412 -1.5312 0.9350
1.8588 -16.6290 -1.5321 0.9350
2.0665 -16.6222 -1.5337 0.9349
2.1708 -16.6209 -1.5348 0.9349
2.2751 -16.6186 -1.5359 0.9348
2.3793 -16.6145 -1.5368 0.9348
2.6694 -16.4586 -1.5267 0.9352
2.7710 -16.4406 -1.5266 0.9352
2.8742 -16.4322 -1.5275 0.9352
3.2318 -16.6508 -1.5531 0.9341
4.6335 -22.3882 -2.0934 0.9123
4.9109 -22.3333 -2.0938 0.9122
5.3259 -22.2447 -2.0944 0.9122
5.4640 -22.2137 -2.0946 0.9122
6.0143 -22.0813 -2.0955 0.9122
6.1515 -22.0462 -2.0958 0.9122
6.4252 -21.9737 -2.0963 0.9121
6.5618 -21.9362 -2.0965 0.9121
6.6982 -21.8979 -2.0968 0.9121
6.8343 -21.8589 -2.0971 0.9121
6.9703 -21.8191 -2.0973 0.9121
7.1060 -21.7784 -2.0976 0.9121
7.6468 -21.6081 -2.0988 0.9120
7.7814 -21.5635 -2.0991 0.9120
7.9158 -21.5182 -2.0994 0.9120
8.1838 -21.4251 -2.1001 0.9120
8.5840 -21.2798 -2.1011 0.9120
8.7168 -21.2297 -2.1014 0.9119
8.9817 -21.1274 -2.1021 0.9119
9.1138 -21.0750 -2.1025 0.9119
9.6391 -20.8580 -2.1040 0.9118
9.9000 -20.7449 -2.1047 0.9118
10.0300 -20.6871 -2.1051 0.9118
10.4181 -20.5094 -2.1064 0.9117
10.5468 -20.4486 -2.1068 0.9117
10.8033 -20.3248 -2.1076 0.9117
11.1855 -20.1335 -2.1089 0.9116
11.4385 -20.0022 -2.1098 0.9116
11.5645 -19.9354 -2.1103 0.9116
11.9404 -19.7306 -2.1117 0.9115
12.3128 -19.5191 -2.1132 0.9115
12.4362 -19.4472 -2.1137 0.9114
13.0473 -19.0764 -2.1162 0.9113
11.6075 -16.1016 -1.8175 0.9234
11.6905 -16.0071 -1.8150 0.9235
12.2658 -15.9510 -1.8425 0.9224
12.7337 -15.9386 -1.8680 0.9213
13.0028 -15.8690 -1.8785 0.9209
13.1555 -15.8544 -1.8864 0.9206
14.8448 -17.2295 -2.0824 0.9127
15.3448 -17.1556 -2.1076 0.9117
15.8212 -17.4697 -2.1581 0.9097
14.6604 -15.7908 -1.9730 0.9171
14.7923 -15.7367 -1.9776 0.9169
15.1495 -15.7223 -1.9992 0.9160
15.2777 -15.6604 -2.0033 0.9159
17.1146 -17.3277 -2.2301 0.9068
17.6960 -17.2637 -2.2637 0.9055
18.0506 -17.1788 -2.2817 0.9048
18.2733 -16.9652 -2.2831 0.9047
17.8828 -16.3979 -2.2216 0.9071
18.8200 -16.4191 -2.2869 0.9045
17.6425 -15.0116 -2.1211 0.9112
17.9499 -14.7079 -2.1249 0.9110
19.5596 -15.6266 -2.2924 0.9043
19.7651 -15.3942 -2.2940 0.9043
19.8670 -15.2771 -2.2948 0.9042
20.1685 -14.9218 -2.2972 0.9041
20.1549 -14.7197 -2.2853 0.9046
20.4640 -14.5608 -2.2997 0.9040
20.5611 -14.4392 -2.3006 0.9040
20.6576 -14.3171 -2.3014 0.9040
20.7534 -14.1942 -2.3023 0.9039
20.9428 -13.9468 -2.3040 0.9039
21.1295 -13.6970 -2.3057 0.9038
21.2218 -13.5711 -2.3065 0.9038
21.4944 -13.1901 -2.3092 0.9037
21.6725 -12.9332 -2.3109 0.9036
22.1049 -12.2808 -2.3154 0.9034
22.2727 -12.0160 -2.3173 0.9033
22.4374 -11.7489 -2.3191 0.9033
22.5187 -11.6146 -2.3200 0.9032
22.5991 -11.4797 -2.3210 0.9032
22.6788 -11.3443 -2.3219 0.9032
22.7577 -11.2084 -2.3228 0.9031
22.8358 -11.0718 -2.3238 0.9031
22.9132 -10.9349 -2.3247 0.9030
23.0655 -10.6593 -2.3266 0.9030
23.2147 -10.3818 -2.3285 0.9029
23.2880 -10.2422 -2.3295 0.9029
23.5033 -9.8207 -2.3324 0.9027
23.5735 -9.6792 -2.3334 0.9027
23.9119 -8.9647 -2.3383 0.9025
23.9771 -8.8204 -2.3393 0.9025
24.1049 -8.5304 -2.3413 0.9024
24.1676 -8.3848 -2.3423 0.9024
24.2294 -8.2387 -2.3433 0.9023
24.2904 -8.0922 -2.3443 0.9023
24.4097 -7.7979 -2.3464 0.9022
24.5256 -7.5020 -2.3484 0.9021
24.6380 -7.2043 -2.3505 0.9020
24.9543 -6.3021 -2.3567 0.9018
25.0526 -5.9982 -2.3588 0.9017
25.1473 -5.6930 -2.3609 0.9016
25.1933 -5.5398 -2.3620 0.9016
25.2384 -5.3864 -2.3630 0.9015
25.3258 -5.0784 -2.3651 0.9014
25.3682 -4.9239 -2.3662 0.9014
25.4502 -4.6139 -2.3683 0.9013
25.4897 -4.4584 -2.3694 0.9013
25.5284 -4.3027 -2.3705 0.9012
25.5661 -4.1466 -2.3716 0.9012
25.7077 -3.5194 -2.3759 0.9010
25.8342 -2.8877 -2.3803 0.9009
25.8635 -2.7292 -2.3814 0.9008
25.8918 -2.5704 -2.3825 0.9008
25.9454 -2.2521 -2.3846 0.9007
25.9708 -2.0925 -2.3857 0.9006
26.0188 -1.7727 -2.3880 0.9005
26.0629 -1.4521 -2.3902 0.9005
26.0834 -1.2915 -2.3913 0.9004
26.1217 -0.9697 -2.3935 0.9003
26.1393 -0.8086 -2.3946 0.9003
26.1717 -0.4857 -2.3968 0.9002
26.1864 -0.3239 -2.3980 0.9002
26.2128 -0.0000 -2.4002 0.9001
26.2245 0.1621 -2.4013 0.9000
26.2352 0.3245 -2.4024 0.9000
26.2450 0.4869 -2.4036 0.8999
26.2682 0.9751 -2.4069 0.8998
26.2739 1.1381 -2.4081 0.8998
26.2824 1.4643 -2.4103 0.8997
26.2851 1.6276 -2.4114 0.8996
26.2868 1.7910 -2.4126 0.8996
26.2873 2.1179 -2.4148 0.8995
26.2759 2.7726 -2.4193 0.8993
26.2642 3.1003 -2.4216 0.8992
26.2389 3.5921 -2.4250 0.8991
26.2284 3.7560 -2.4261 0.8990
26.2169 3.9200 -2.4273 0.8990
26.1908 4.2479 -2.4295 0.8989
26.1606 4.5757 -2.4318 0.8988
23.4422 4.7006 -2.1892 0.9084
21.9779 4.5486 -2.0551 0.9138
20.9503 4.4712 -1.9615 0.9176
20.7201 4.5562 -1.9426 0.9183
20.5929 4.6619 -1.9333 0.9187
8.5507 2.3859 -0.8129 0.9650
7.9769 2.3325 -0.7610 0.9672
7.2525 2.2675 -0.6958 0.9699
7.0397 2.2489 -0.6767 0.9708
6.8380 2.2311 -0.6586 0.9715
6.4624 2.1974 -0.6250 0.9730
6.1234 2.1670 -0.5948 0.9742
5.9659 2.1529 -0.5808 0.9748
5.6721 2.1265 -0.5547 0.9760
5.5349 2.1142 -0.5425 0.9765
5.4036 2.1024 -0.5309 0.9770
5.2777 2.0911 -0.5198 0.9775
5.1571 2.0803 -0.5092 0.9779
5.0412 2.0699 -0.4990 0.9783
4.9299 2.0599 -0.4892 0.9788
4.7198 2.0411 -0.4709 0.9796
4.6206 2.0321 -0.4622 0.9799
4.4327 2.0153 -0.4459 0.9806
4.3436 2.0073 -0.4381 0.9810
4.2576 1.9996 -0.4307 0.9813
4.1744 1.9921 -0.4235 0.9816
4.0161 1.9779 -0.4099 0.9822
3.9407 1.9712 -0.4035 0.9825
3.8675 1.9645 -0.3972 0.9827
3.7964 1.9580 -0.3911 0.9830
3.7277 1.9519 -0.3853 0.9832
3.5963 1.9402 -0.3742 0.9837
3.3550 1.9186 -0.3539 0.9846
3.2438 1.9087 -0.3446 0.9850
3.1904 1.9039 -0.3402 0.9852
3.0876 1.8947 -0.3317 0.9856
2.9437 1.8824 -0.3199 0.9861
2.8533 1.8747 -0.3126 0.9864
2.6843 1.8604 -0.2991 0.9870
2.6443 1.8570 -0.2959 0.9871
2.6052 1.8537 -0.2928 0.9872
2.5668 1.8504 -0.2897 0.9874
2.5293 1.8472 -0.2868 0.9875
2.4564 1.8410 -0.2811 0.9877
2.3864 1.8350 -0.2756 0.9880
2.2541 1.8238 -0.2655 0.9884
2.2225 1.8211 -0.2631 0.9885
2.1915 1.8184 -0.2608 0.9886
2.1610 1.8158 -0.2585 0.9887
2.1017 1.8108 -0.2540 0.9889
2.0443 1.8059 -0.2498 0.9891
2.0163 1.8035 -0.2477 0.9892
1.9888 1.8011 -0.2457 0.9893
1.9617 1.7988 -0.2437 0.9894
1.9351 1.7966 -0.2418 0.9894
1.9089 1.7943 -0.2399 0.9895
1.8576 1.7900 -0.2362 0.9897
1.7836 1.7836 -0.2310 0.9899
1.7128 1.7776 -0.2260 0.9901
1.6899 1.7756 -0.2244 0.9902
1.6673 1.7737 -0.2229 0.9903
1.5586 1.7644 -0.2156 0.9906
1.4178 1.7523 -0.2064 0.9910
1.3986 1.7507 -0.2052 0.9910
1.3610 1.7474 -0.2028 0.9911
1.3425 1.7459 -0.2017 0.9912
1.2705 1.7397 -0.1973 0.9914
1.2530 1.7382 -0.1962 0.9914
1.2357 1.7367 -0.1952 0.9915
1.1271 1.7625 -0.1916 0.9916
1.1230 1.8049 -0.1946 0.9915
1.1209 1.8266 -0.1962 0.9914
1.1188 1.8487 -0.1979 0.9914
1.1075 1.9648 -0.2065 0.9910
1.1028 2.0142 -0.2103 0.9908
1.0927 2.1185 -0.2183 0.9905
1.0817 2.2311 -0.2270 0.9901
1.0699 2.3532 -0.2367 0.9897
1.0569 2.4862 -0.2474 0.9892
1.0535 2.5214 -0.2502 0.9891
1.0464 2.5941 -0.2561 0.9888
1.0390 2.6705 -0.2624 0.9886
1.0312 2.7506 -0.2690 0.9883
1.0230 2.8349 -0.2760 0.9880
1.0187 2.8787 -0.2796 0.9878
1.0144 2.9237 -0.2834 0.9876
1.0099 2.9699 -0.2872 0.9875
1.0005 3.0662 -0.2953 0.9871
0.9956 3.1165 -0.2996 0.9869
0.9906 3.1682 -0.3039 0.9868
0.9854 3.2214 -0.3085 0.9866
0.9630 3.4511 -0.3281 0.9857
0.9569 3.5132 -0.3334 0.9855
0.9506 3.5773 -0.3389 0.9852
0.9442 3.6439 -0.3447 0.9850
0.9312 3.7856 -0.3570 0.9845
0.9097 4.0184 -0.3773 0.9836
0.9020 4.1019 -0.3846 0.9833
0.8940 4.1888 -0.3922 0.9829
0.8856 4.2792 -0.4001 0.9826
0.8770 4.3734 -0.4084 0.9822
0.8584 4.5739 -0.4261 0.9815
0.8486 4.6808 -0.4356 0.9811
0.8383 4.7926 -0.4455 0.9806
1.7402 10.7295 -0.9953 0.9573
1.5907 10.6388 -0.9850 0.9577
1.5171 10.5942 -0.9800 0.9579
1.3746 10.5248 -0.9719 0.9583
1.3064 10.5087 -0.9697 0.9584
1.2386 10.4928 -0.9675 0.9584
1.1039 10.4610 -0.9632 0.9586
0.9636 10.3574 -0.9525 0.9591
0.9056 10.4335 -0.9589 0.9588
0.8410 10.4389 -0.9589 0.9588
0.7120 10.4496 -0.9590 0.9588
0.6474 10.4549 -0.9591 0.9588
0.5828 10.4603 -0.9593 0.9588
0.4542 10.4863 -0.9611 0.9587
0.2615 10.5670 -0.9679 0.9584
0.1314 10.6215 -0.9726 0.9582
-0.0666 10.7643 -0.9857 0.9577
-0.2019 10.8807 -0.9965 0.9572
-0.5712 11.5358 -1.0576 0.9547
-0.6569 11.7897 -1.0812 0.9537
-0.8753 11.7729 -1.0810 0.9537
-0.9481 11.7673 -1.0810 0.9537
-1.0209 11.7617 -1.0810 0.9537
-1.1665 11.7506 -1.0812 0.9537
-1.4504 10.1284 -0.9369 0.9597
-1.7590 11.7640 -1.0892 0.9533
-1.8326 11.7585 -1.0897 0.9533
-1.9800 11.7475 -1.0908 0.9533
-2.1277 11.7365 -1.0922 0.9532
-2.2017 11.7309 -1.0929 0.9532
-2.2758 11.7254 -1.0937 0.9532
-2.3501 11.7199 -1.0945 0.9531
-2.4244 11.7143 -1.0954 0.9531
-2.4989 11.7087 -1.0963 0.9530
-2.5734 11.7032 -1.0972 0.9530
-2.7005 11.5952 -1.0901 0.9533
-2.8253 11.4860 -1.0831 0.9536
-2.7928 11.0589 -1.0444 0.9552
-2.7627 10.6612 -1.0084 0.9567
-2.7284 10.0171 -0.9506 0.9592
-2.7933 10.0108 -0.9517 0.9591
-2.9235 9.9982 -0.9538 0.9590
-2.9890 9.9922 -0.9550 0.9590
-3.1203 9.9800 -0.9575 0.9589
-3.9446 11.6006 -1.1220 0.9520
-4.0225 11.5939 -1.1237 0.9519
-4.0937 11.5677 -1.1236 0.9519
-4.1647 11.5411 -1.1235 0.9519
-4.3058 11.4850 -1.1231 0.9519
-4.4470 11.4297 -1.1230 0.9519
-4.5174 11.4013 -1.1229 0.9519
-4.5376 11.2488 -1.1107 0.9524
-4.5016 10.7734 -1.0691 0.9542
-4.4845 10.5487 -1.0496 0.9550
-4.4522 10.1231 -1.0126 0.9566
-4.4049 9.8499 -0.9880 0.9576
-4.4748 9.8423 -0.9900 0.9575
-4.5430 9.6729 -0.9785 0.9580
-5.4769 11.2963 -1.1495 0.9508
-5.4743 10.9440 -1.1205 0.9520
-5.5748 10.8087 -1.1136 0.9523
-5.6882 10.5437 -1.0970 0.9530
-5.7913 10.4240 -1.0919 0.9532
-5.8424 10.3646 -1.0894 0.9533
-5.8934 10.3055 -1.0870 0.9534
-5.9960 10.1904 -1.0826 0.9536
-6.1835 10.0765 -1.0825 0.9536
-6.3085 10.0006 -1.0827 0.9536
-6.4430 9.9393 -1.0846 0.9535
-6.8259 9.8489 -1.0972 0.9530
-6.9179 9.8509 -1.1022 0.9528
-7.1082 9.8603 -1.1130 0.9523
-7.5934 10.0021 -1.1499 0.9508
-7.7378 10.0626 -1.1623 0.9503
-15.1278 19.1773 -2.2366 0.9065
-15.3389 18.4856 -2.1995 0.9080
-15.4766 18.4186 -2.2029 0.9079
-15.6342 18.3742 -2.2091 0.9076
-17.1138 19.6162 -2.3837 0.9007
-17.5706 19.1617 -2.3805 0.9008
-17.6829 19.0463 -2.3797 0.9009
-9.5305 9.8909 -1.2577 0.9463
-19.4682 19.7104 -2.5367 0.8947
-19.6968 19.4546 -2.5350 0.8948
-19.8098 19.3256 -2.5341 0.8948
-20.1434 18.9346 -2.5314 0.8949
-20.6816 18.2697 -2.5268 0.8951
-21.2975 17.4508 -2.5212 0.8953
-21.6894 16.8929 -2.5173 0.8955
-21.8797 16.6104 -2.5154 0.8955
-21.9735 16.4684 -2.5144 0.8956
-22.0660 16.3259 -2.5134 0.8956
-22.1581 16.1827 -2.5124 0.8956
-22.2490 16.0390 -2.5114 0.8957
-22.3389 15.8948 -2.5104 0.8957
-22.4280 15.7500 -2.5094 0.8958
-22.5158 15.6048 -2.5084 0.8958
-22.6028 15.4591 -2.5074 0.8958
-22.7739 15.1661 -2.5054 0.8959
-22.9411 14.8712 -2.5034 0.8960
-23.0232 14.7230 -2.5023 0.8960
-23.2637 14.2758 -2.4993 0.8962
-23.3419 14.1258 -2.4982 0.8962
-23.4952 13.8245 -2.4961 0.8963
-23.5704 13.6732 -2.4951 0.8963
-23.6446 13.5215 -2.4941 0.8964
-23.7178 13.3694 -2.4930 0.8964
-23.8611 13.0640 -2.4909 0.8965
-23.9313 12.9107 -2.4898 0.8965
-24.1358 12.4485 -2.4866 0.8967
-24.2018 12.2937 -2.4856 0.8967
-24.2670 12.1386 -2.4845 0.8967
-24.5173 11.5147 -2.4802 0.8969
-24.7511 10.8857 -2.4759 0.8971
-24.8071 10.7276 -2.4748 0.8971
-24.9687 10.2520 -2.4715 0.8973
-25.0205 10.0929 -2.4704 0.8973
-25.1210 9.7739 -2.4682 0.8974
-25.2174 9.4540 -2.4660 0.8975
-25.2640 9.2937 -2.4649 0.8975
-25.3097 9.1332 -2.4638 0.8976
-25.4403 8.6504 -2.4604 0.8977
-25.5616 8.1658 -2.4571 0.8978
-25.7088 7.5173 -2.4526 0.8980
-25.8395 6.8666 -2.4481 0.8982
-25.9266 6.3772 -2.4448 0.8983
-25.9536 6.2139 -2.4436 0.8984
-25.9795 6.0505 -2.4425 0.8984
-26.0044 5.8870 -2.4414 0.8984
-26.0729 5.3960 -2.4380 0.8986
-26.1134 5.0684 -2.4357 0.8987
-26.1321 4.9046 -2.4346 0.8987
-26.1664 4.5767 -2.4323 0.8988
-26.1820 4.4128 -2.4312 0.8988
-26.1966 4.2488 -2.4301 0.8989
-26.2102 4.0848 -2.4289 0.8989
-26.2227 3.9208 -2.4278 0.8990
-26.2343 3.7568 -2.4267 0.8990
-26.2542 3.4289 -2.4244 0.8991
-26.2626 3.2649 -2.4233 0.8992
-26.2700 3.1010 -2.4221 0.8992
-26.2764 2.9371 -2.4210 0.8992
-26.2818 2.7732 -2.4199 0.8993
-26.2895 2.4457 -2.4176 0.8994
-26.2931 2.1184 -2.4154 0.8995
-26.2934 1.9548 -2.4142 0.8995
-26.2910 1.6279 -2.4120 0.8996
-26.2798 1.1383 -2.4086 0.8997
-26.2508 0.4871 -2.4041 0.8999
-26.2410 0.3246 -2.4030 0.9000
-24.2126 -0.2996 -2.3986 0.9073
-24.1863 -0.5984 -2.3966 0.9073
-24.1717 -0.7477 -2.3955 0.9074
-24.1562 -0.8968 -2.3945 0.9074
-24.1226 -1.1945 -2.3925 0.9075
-24.0444 -1.7877 -2.3884 0.9076
-24.0226 -1.9355 -2.3873 0.9077
-23.9519 -2.3778 -2.3843 0.9078
-23.9266 -2.5248 -2.3833 0.9078
-23.9003 -2.6716 -2.3823 0.9079
-23.8452 -2.9645 -2.3802 0.9079
-23.8163 -3.1105 -2.3792 0.9080
-23.7865 -3.2564 -2.3782 0.9080
-23.7243 -3.5474 -2.3762 0.9081
-23.6920 -3.6924 -2.3752 0.9081
-23.6587 -3.8373 -2.3742 0.9082
-23.5538 -4.2702 -2.3712 0.9083
-23.5171 -4.4139 -2.3702 0.9083
-23.4795 -4.5573 -2.3692 0.9083
-23.4018 -4.8433 -2.3673 0.9084
-23.3617 -4.9859 -2.3663 0.9084
-23.1927 -5.5530 -2.3624 0.9086
-23.1484 -5.6939 -2.3614 0.9086
-23.0573 -5.9749 -2.3594 0.9087
-23.0104 -6.1148 -2.3585 0.9087
-22.9628 -6.2545 -2.3575 0.9088
-22.9143 -6.3938 -2.3565 0.9088
-22.8650 -6.5327 -2.3556 0.9088
-22.7123 -6.9473 -2.3527 0.9089
-22.6597 -7.0848 -2.3518 0.9090
-22.6064 -7.2218 -2.3508 0.9090
-22.4415 -7.6308 -2.3480 0.9091
-22.3849 -7.7663 -2.3471 0.9092
-22.3276 -7.9015 -2.3461 0.9092
-22.2695 -8.0362 -2.3452 0.9092
-22.1508 -8.3045 -2.3433 0.9093
-22.0291 -8.5711 -2.3415 0.9094
-21.9671 -8.7037 -2.3406 0.9094
-21.9043 -8.8360 -2.3397 0.9094
-21.8407 -8.9677 -2.3388 0.9095
-21.7113 -9.2301 -2.3370 0.9095
-21.4434 -9.7493 -2.3334 0.9097
-21.3745 -9.8779 -2.3325 0.9097
-21.2346 -10.1338 -2.3307 0.9098
-21.0918 -10.3879 -2.3290 0.9098
-20.7973 -10.8901 -2.3255 0.9100
-20.5690 -11.2616 -2.3229 0.9100
-20.4915 -11.3845 -2.3221 0.9101
-20.4133 -11.5068 -2.3212 0.9101
-20.3343 -11.6286 -2.3204 0.9101
-20.2547 -11.7498 -2.3195 0.9102
-20.1744 -11.8706 -2.3187 0.9102
-20.0934 -11.9908 -2.3179 0.9102
-20.0117 -12.1105 -2.3170 0.9103
-19.9294 -12.2297 -2.3162 0.9103
-19.7626 -12.4665 -2.3146 0.9104
-19.6782 -12.5840 -2.3138 0.9104
-19.3341 -13.0487 -2.3106 0.9105
-19.2464 -13.1636 -2.3098 0.9105
-19.1581 -13.2778 -2.3090 0.9106
-19.0691 -13.3915 -2.3082 0.9106
-18.9795 -13.5046 -2.3074 0.9106
-18.7069 -13.8404 -2.3051 0.9107
-18.5220 -14.0614 -2.3036 0.9108
-18.3346 -14.2801 -2.3021 0.9108
-18.2400 -14.3884 -2.3013 0.9108
-18.1448 -14.4963 -2.3006 0.9109
-17.9526 -14.7101 -2.2991 0.9109
-17.8555 -14.8161 -2.2983 0.9110
-17.7580 -14.9215 -2.2976 0.9110
-17.1548 -15.5362 -2.2926 0.9112
-17.0129 -15.6003 -2.2865 0.9114
-16.7265 -15.7229 -2.2740 0.9119
-16.4421 -15.8430 -2.2618 0.9123
-16.3010 -15.9027 -2.2559 0.9125
-16.0201 -16.0201 -2.2442 0.9130
-15.8784 -16.0761 -2.2383 0.9132
-15.5972 -16.1870 -2.2267 0.9136
-15.4576 -16.2420 -2.2211 0.9138
-15.0410 -16.4032 -2.2046 0.9144
-14.7629 -16.5051 -2.1935 0.9148
-14.0765 -16.7524 -2.1675 0.9158
-13.8027 -16.8453 -2.1573 0.9162
-13.6668 -16.8914 -2.1523 0.9164
-13.2657 -17.0324 -2.1385 0.9169
-13.1322 -17.0777 -2.1340 0.9170
-13.0015 -17.1260 -2.1299 0.9172
-12.7825 -17.2770 -2.1289 0.9172
-12.5618 -17.4254 -2.1279 0.9173
-12.4508 -17.4986 -2.1274 0.9173
-12.1155 -17.7141 -2.1259 0.9174
-11.7768 -17.9236 -2.1244 0.9174
-11.4346 -18.1270 -2.1230 0.9175
-11.3199 -18.1934 -2.1226 0.9175
-10.9734 -18.3886 -2.1212 0.9175
-10.8572 -18.4522 -2.1208 0.9175
-10.7407 -18.5152 -2.1203 0.9176
-10.3891 -18.7000 -2.1191 0.9176
-10.2712 -18.7602 -2.1186 0.9176
-10.1530 -18.8197 -2.1182 0.9176
-10.0345 -18.8785 -2.1178 0.9177
-9.7966 -18.9940 -2.1170 0.9177
-9.6771 -19.0507 -2.1166 0.9177
-9.3170 -19.2165 -2.1155 0.9177
-9.0754 -19.3235 -2.1147 0.9178
-8.9542 -19.3759 -2.1144 0.9178
-8.8327 -19.4276 -2.1140 0.9178
-8.7109 -19.4786 -2.1137 0.9178
-8.5889 -19.5289 -2.1133 0.9178
-8.4666 -19.5785 -2.1130 0.9178
-8.3440 -19.6273 -2.1126 0.9178
-7.8511 -19.8154 -2.1113 0.9179
-7.7273 -19.8606 -2.1110 0.9179
-7.3543 -19.9920 -2.1101 0.9179
-6.7282 -20.1962 -2.1087 0.9180
-6.4763 -20.2728 -2.1082 0.9180
-6.2236 -20.3464 -2.1076 0.9180
-6.0969 -20.3821 -2.1074 0.9180
-5.7158 -20.4848 -2.1067 0.9181
-5.4608 -20.5495 -2.1062 0.9181
-5.3331 -20.5808 -2.1060 0.9181
-5.2052 -20.6113 -2.1058 0.9181
-4.9489 -20.6701 -2.1054 0.9181
-4.8205 -20.6983 -2.1052 0.9181
-3.9180 -20.8753 -2.1040 0.9182
-3.6590 -20.9192 -2.1037 0.9182
-3.3995 -20.9600 -2.1034 0.9182
-3.2696 -20.9793 -2.1032 0.9182
-2.4883 -21.0792 -2.1025 0.9182
-2.2272 -21.1064 -2.1024 0.9182
-1.9658 -21.1306 -2.1022 0.9182
-1.4423 -21.1700 -2.1019 0.9182
-1.3114 -21.1779 -2.1019 0.9182
-1.1803 -21.1852 -2.1018 0.9182
-0.9182 -21.1972 -2.1017 0.9183
-0.7871 -21.2022 -2.1017 0.9183
-0.6559 -21.2063 -2.1017 0.9183
-0.5248 -21.2097 -2.1016 0.9183
0.1024 -16.5618 -1.6406 0.9356
0.3084 -16.6190 -1.6465 0.9354
0.4158 -16.8045 -1.6651 0.9347
0.5128 -16.5793 -1.6431 0.9355
0.6166 -16.6109 -1.6466 0.9354
0.9305 -16.7013 -1.6570 0.9350
1.1368 -16.6857 -1.6567 0.9350
1.3431 -16.6707 -1.6567 0.9350
1.5497 -16.6580 -1.6572 0.9350
1.6531 -16.6522 -1.6576 0.9349
1.8600 -16.6402 -1.6586 0.9349
1.9636 -16.6345 -1.6592 0.9349
2.0678 -16.6331 -1.6603 0.9348
2.1723 -16.6329 -1.6616 0.9348
2.4648 -16.4846 -1.6511 0.9352
2.7704 -16.4374 -1.6512 0.9352
2.9739 -16.4042 -1.6514 0.9352
3.0771 -16.3948 -1.6524 0.9351
3.1892 -16.4312 -1.6580 0.9349
4.4344 -20.7779 -2.1046 0.9181
4.6918 -20.7250 -2.1049 0.9181
4.8203 -20.6974 -2.1051 0.9181
5.4606 -20.5485 -2.1061 0.9181
5.5881 -20.5165 -2.1064 0.9181
5.7155 -20.4837 -2.1066 0.9181
5.8427 -20.4502 -2.1068 0.9181
5.9697 -20.4160 -2.1070 0.9181
6.0966 -20.3810 -2.1073 0.9180
6.2232 -20.3453 -2.1075 0.9180
6.7278 -20.1950 -2.1086 0.9180
6.8535 -20.1556 -2.1088 0.9180
6.9789 -20.1154 -2.1091 0.9180
7.2291 -20.0330 -2.1097 0.9180
7.6027 -19.9038 -2.1106 0.9179
7.7268 -19.8593 -2.1109 0.9179
7.8506 -19.8140 -2.1112 0.9179
7.9742 -19.7681 -2.1115 0.9179
8.2206 -19.6739 -2.1121 0.9179
8.3434 -19.6258 -2.1125 0.9179
8.4659 -19.5769 -2.1128 0.9178
8.7103 -19.4771 -2.1135 0.9178
8.8320 -19.4261 -2.1138 0.9178
9.5566 -19.1051 -2.1161 0.9177
9.7957 -18.9923 -2.1168 0.9177
9.9148 -18.9349 -2.1172 0.9177
10.0336 -18.8768 -2.1176 0.9177
10.1521 -18.8179 -2.1180 0.9176
10.3881 -18.6983 -2.1189 0.9176
10.5056 -18.6373 -2.1193 0.9176
10.9723 -18.3867 -2.1210 0.9175
11.0881 -18.3224 -2.1214 0.9175
11.2036 -18.2573 -2.1219 0.9175
11.7755 -17.9217 -2.1242 0.9174
11.9045 -17.8762 -2.1275 0.9173
12.1979 -17.8346 -2.1403 0.9168
12.3491 -17.8182 -2.1475 0.9165
12.4339 -17.4749 -2.1245 0.9174
12.7143 -17.4090 -2.1354 0.9170
13.2785 -17.7172 -2.1932 0.9148
13.4372 -17.6999 -2.2013 0.9145
12.7303 -15.9344 -2.0203 0.9213
12.8600 -15.8942 -2.0253 0.9211
14.4154 -17.5930 -2.2530 0.9126
14.5830 -17.5747 -2.2622 0.9123
14.7519 -17.5561 -2.2715 0.9119
15.0235 -17.4367 -2.2799 0.9116
15.1351 -17.3481 -2.2805 0.9116
15.2462 -17.2589 -2.2811 0.9116
15.3567 -17.1689 -2.2818 0.9116
15.6855 -16.8950 -2.2837 0.9115
14.7746 -15.7177 -2.1368 0.9169
14.9629 -15.7221 -2.1500 0.9165
15.1129 -15.6843 -2.1575 0.9162
16.3293 -16.3293 -2.2876 0.9114
16.4348 -16.2328 -2.2882 0.9113
