ply
format ascii 1.0
element vertex 1598
property float32 x
property float32 y
property float32 z
property float32 I
end_header
-6.3357 -6.7402 -2.3347 0.9626
-6.0755 -6.9639 -2.3325 0.9626
-6.0314 -7.0002 -2.3321 0.9626
-5.9425 -7.0721 -2.3314 0.9626
-5.8528 -7.1429 -2.3307 0.9626
-5.6710 -7.2812 -2.3293 0.9626
-5.6250 -7.3151 -2.3290 0.9626
-5.5789 -7.3487 -2.3287 0.9627
-5.4860 -7.4150 -2.3280 0.9627
-5.3453 -7.5124 -2.3270 0.9627
-5.2980 -7.5443 -2.3267 0.9627
-5.2505 -7.5758 -2.3264 0.9627
-5.2029 -7.6071 -2.3261 0.9627
-5.1550 -7.6381 -2.3258 0.9627
-4.9620 -7.7593 -2.3246 0.9627
-4.9133 -7.7888 -2.3243 0.9627
-4.8153 -7.8470 -2.3237 0.9627
-4.7168 -7.9040 -2.3231 0.9627
-4.5177 -8.0145 -2.3220 0.9628
-4.2653 -8.1457 -2.3207 0.9628
-4.2144 -8.1710 -2.3204 0.9628
-4.0608 -8.2452 -2.3197 0.9628
-4.0093 -8.2693 -2.3194 0.9628
-3.9577 -8.2930 -2.3192 0.9628
-3.8020 -8.3625 -2.3185 0.9628
-3.7498 -8.3851 -2.3183 0.9628
-3.6976 -8.4073 -2.3181 0.9628
-3.6451 -8.4292 -2.3178 0.9628
-3.4343 -8.5136 -2.3170 0.9628
-3.3813 -8.5339 -2.3168 0.9628
-3.3281 -8.5539 -2.3166 0.9628
-3.2215 -8.5930 -2.3162 0.9628
-3.1145 -8.6307 -2.3158 0.9629
-3.0608 -8.6491 -2.3156 0.9629
-3.0070 -8.6672 -2.3154 0.9629
-2.8451 -8.7195 -2.3149 0.9629
-2.7909 -8.7363 -2.3147 0.9629
-2.7366 -8.7528 -2.3146 0.9629
-2.6822 -8.7689 -2.3144 0.9629
-2.5732 -8.8002 -2.3141 0.9629
-2.5186 -8.8154 -2.3139 0.9629
-2.3542 -8.8589 -2.3135 0.9629
-2.2992 -8.8727 -2.3133 0.9629
-2.2441 -8.8862 -2.3132 0.9629
-2.1890 -8.8994 -2.3131 0.9629
-1.8568 -8.9716 -2.3123 0.9629
-1.8012 -8.9825 -2.3122 0.9629
-1.7455 -8.9930 -2.3121 0.9629
-1.6340 -9.0131 -2.3119 0.9629
-1.4663 -9.0407 -2.3116 0.9629
-1.3543 -9.0575 -2.3114 0.9629
-1.2421 -9.0729 -2.3113 0.9629
-1.1859 -9.0801 -2.3112 0.9629
-1.1297 -9.0870 -2.3111 0.9629
-1.0172 -9.0997 -2.3110 0.9629
-0.9608 -9.1056 -2.3109 0.9629
-0.8481 -9.1163 -2.3108 0.9629
-0.7353 -9.1257 -2.3107 0.9629
-0.5093 -9.1405 -2.3105 0.9629
-0.4527 -9.1433 -2.3105 0.9629
-0.3962 -9.1458 -2.3105 0.9629
-0.3396 -9.1480 -2.3104 0.9629
-0.2830 -9.1498 -2.3104 0.9629
-0.2264 -9.1513 -2.3104 0.9629
-0.1698 -9.1525 -2.3104 0.9629
-0.1132 -9.1533 -2.3104 0.9629
-0.0566 -9.1538 -2.3104 0.9629
-0.0000 -9.1539 -2.3104 0.9629
0.1132 -9.1532 -2.3104 0.9629
0.1698 -9.1523 -2.3104 0.9629
0.2830 -9.1496 -2.3104 0.9629
0.3396 -9.1477 -2.3104 0.9629
0.4527 -9.1430 -2.3104 0.9629
0.5092 -9.1401 -2.3104 0.9629
0.5658 -9.1369 -2.3105 0.9629
0.6223 -9.1333 -2.3105 0.9629
0.6787 -9.1295 -2.3105 0.9629
0.7916 -9.1206 -2.3106 0.9629
0.9044 -9.1105 -2.3107 0.9629
1.0734 -9.0928 -2.3109 0.9629
1.2419 -9.0720 -2.3110 0.9629
1.5779 -9.0215 -2.3115 0.9629
1.6338 -9.0119 -2.3116 0.9629
1.6895 -9.0020 -2.3117 0.9629
2.1335 -8.9108 -2.3125 0.9629
2.1886 -8.8979 -2.3127 0.9629
2.2437 -8.8846 -2.3128 0.9629
2.2987 -8.8711 -2.3129 0.9629
2.3537 -8.8572 -2.3131 0.9629
2.4634 -8.8285 -2.3133 0.9629
2.6817 -8.7670 -2.3139 0.9629
2.7360 -8.7509 -2.3141 0.9629
2.8985 -8.7004 -2.3145 0.9629
3.0601 -8.6471 -2.3151 0.9629
3.1673 -8.6099 -2.3154 0.9629
3.2740 -8.5714 -2.3158 0.9629
3.3804 -8.5317 -2.3162 0.9628
3.4333 -8.5113 -2.3164 0.9628
3.5916 -8.4483 -2.3170 0.9628
3.7487 -8.3825 -2.3176 0.9628
3.8528 -8.3371 -2.3180 0.9628
4.1108 -8.2181 -2.3192 0.9628
4.1619 -8.1933 -2.3194 0.9628
4.2639 -8.1429 -2.3199 0.9628
4.3146 -8.1173 -2.3202 0.9628
4.3652 -8.0913 -2.3204 0.9628
4.4659 -8.0385 -2.3209 0.9628
4.5660 -7.9844 -2.3214 0.9628
4.7643 -7.8727 -2.3225 0.9627
4.8135 -7.8440 -2.3228 0.9627
4.8625 -7.8150 -2.3231 0.9627
4.9113 -7.7858 -2.3234 0.9627
5.0085 -7.7264 -2.3239 0.9627
5.0568 -7.6962 -2.3242 0.9627
5.1050 -7.6658 -2.3245 0.9627
5.1529 -7.6350 -2.3248 0.9627
5.2483 -7.5727 -2.3254 0.9627
5.2958 -7.5411 -2.3257 0.9627
5.4369 -7.4445 -2.3267 0.9627
5.4836 -7.4118 -2.3270 0.9627
5.6225 -7.3118 -2.3280 0.9627
5.6684 -7.2779 -2.3283 0.9627
5.7142 -7.2438 -2.3286 0.9627
5.8950 -7.1044 -2.3300 0.9626
5.9397 -7.0688 -2.3303 0.9626
6.1164 -6.9239 -2.3317 0.9626
6.1601 -6.8870 -2.3321 0.9626
6.2897 -6.7747 -2.3332 0.9626
6.3325 -6.7368 -2.3335 0.9626
6.5014 -6.5823 -2.3351 0.9626
6.6257 -6.4638 -2.3362 0.9625
6.7073 -6.3835 -2.3370 0.9625
6.7478 -6.3429 -2.3374 0.9625
6.7881 -6.3022 -2.3378 0.9625
6.8281 -6.2611 -2.3382 0.9625
6.8679 -6.2198 -2.3386 0.9625
6.9857 -6.0946 -2.3398 0.9625
7.0245 -6.0523 -2.3402 0.9625
7.0631 -6.0098 -2.3406 0.9625
7.1014 -5.9671 -2.3411 0.9625
7.1394 -5.9241 -2.3415 0.9625
7.2147 -5.8375 -2.3423 0.9624
7.2520 -5.7938 -2.3427 0.9624
7.2890 -5.7499 -2.3432 0.9624
7.3623 -5.6614 -2.3440 0.9624
7.5758 -5.3904 -2.3467 0.9624
7.6104 -5.3445 -2.3471 0.9624
7.6448 -5.2984 -2.3476 0.9624
7.6789 -5.2520 -2.3480 0.9623
7.7128 -5.2054 -2.3485 0.9623
7.7796 -5.1116 -2.3494 0.9623
7.8777 -4.9694 -2.3508 0.9623
7.9099 -4.9215 -2.3513 0.9623
7.9418 -4.8735 -2.3517 0.9623
8.0046 -4.7768 -2.3527 0.9623
8.0357 -4.7282 -2.3532 0.9623
8.0664 -4.6793 -2.3536 0.9623
8.0968 -4.6303 -2.3541 0.9623
8.1568 -4.5316 -2.3551 0.9622
8.1863 -4.4820 -2.3556 0.9622
8.2156 -4.4322 -2.3561 0.9622
8.3297 -4.2312 -2.3580 0.9622
8.3849 -4.1296 -2.3590 0.9622
8.4389 -4.0273 -2.3600 0.9622
8.5434 -3.8206 -2.3620 0.9621
8.5687 -3.7686 -2.3626 0.9621
8.6183 -3.6638 -2.3636 0.9621
8.7139 -3.4526 -2.3656 0.9621
8.7598 -3.3461 -2.3667 0.9621
8.8689 -3.0770 -2.3693 0.9620
8.8898 -3.0228 -2.3699 0.9620
8.9504 -2.8593 -2.3715 0.9620
8.9891 -2.7496 -2.3725 0.9620
9.0080 -2.6946 -2.3731 0.9620
9.0266 -2.6394 -2.3736 0.9619
9.0448 -2.5841 -2.3742 0.9619
9.0802 -2.4732 -2.3753 0.9619
9.0974 -2.4176 -2.3758 0.9619
9.1309 -2.3059 -2.3769 0.9619
9.1471 -2.2500 -2.3774 0.9619
9.1629 -2.1938 -2.3780 0.9619
9.1936 -2.0813 -2.3791 0.9619
9.2230 -1.9684 -2.3802 0.9618
9.2644 -1.7982 -2.3819 0.9618
9.3265 -1.5127 -2.3847 0.9618
9.3379 -1.4554 -2.3852 0.9618
9.3596 -1.3404 -2.3864 0.9617
9.3699 -1.2827 -2.3869 0.9617
9.3799 -1.2251 -2.3875 0.9617
9.3896 -1.1673 -2.3881 0.9617
9.3988 -1.1095 -2.3886 0.9617
9.4077 -1.0516 -2.3892 0.9617
9.4163 -0.9936 -2.3898 0.9617
9.4245 -0.9356 -2.3904 0.9617
9.4324 -0.8775 -2.3909 0.9617
9.4538 -0.7029 -2.3926 0.9616
9.4721 -0.5277 -2.3944 0.9616
9.4774 -0.4693 -2.3949 0.9616
9.4871 -0.3522 -2.3961 0.9616
9.4953 -0.2349 -2.3972 0.9616
9.4988 -0.1762 -2.3978 0.9616
9.5020 -0.1176 -2.3984 0.9616
9.5094 0.0588 -2.4001 0.9615
9.5142 0.2943 -2.4025 0.9615
9.5140 0.4711 -2.4042 0.9615
9.5132 0.5300 -2.4048 0.9615
9.5087 0.7069 -2.4065 0.9614
9.5064 0.7659 -2.4071 0.9614
9.5008 0.8838 -2.4083 0.9614
9.4974 0.9428 -2.4088 0.9614
9.4937 1.0018 -2.4094 0.9614
9.4896 1.0607 -2.4100 0.9614
9.4851 1.1197 -2.4106 0.9614
9.4751 1.2375 -2.4117 0.9613
9.4696 1.2964 -2.4123 0.9613
9.4574 1.4141 -2.4135 0.9613
9.4507 1.4729 -2.4141 0.9613
9.4363 1.5904 -2.4152 0.9613
9.4204 1.7079 -2.4164 0.9613
9.4119 1.7664 -2.4170 0.9613
9.3842 1.9422 -2.4187 0.9612
9.3743 2.0007 -2.4193 0.9612
9.3640 2.0590 -2.4198 0.9612
9.3308 2.2340 -2.4216 0.9612
9.3190 2.2922 -2.4221 0.9612
9.2943 2.4084 -2.4233 0.9612
9.2406 2.6401 -2.4256 0.9611
9.2263 2.6978 -2.4261 0.9611
9.2116 2.7554 -2.4267 0.9611
9.1965 2.8130 -2.4273 0.9611
9.1811 2.8705 -2.4278 0.9611
9.1653 2.9279 -2.4284 0.9611
9.1492 2.9853 -2.4290 0.9611
9.1327 3.0425 -2.4295 0.9611
9.0986 3.1567 -2.4307 0.9610
9.0630 3.2704 -2.4318 0.9610
8.9678 3.5532 -2.4346 0.9610
8.9065 3.7214 -2.4362 0.9610
7.2375 3.0768 -1.9849 0.9681
5.9854 2.7213 -1.6595 0.9732
5.7838 2.6729 -1.6081 0.9741
5.5943 2.6274 -1.5599 0.9748
5.4158 2.5846 -1.5146 0.9755
5.2474 2.5442 -1.4718 0.9762
4.9375 2.4698 -1.3934 0.9775
4.6590 2.4030 -1.3231 0.9786
4.5300 2.3720 -1.2906 0.9791
4.2901 2.3145 -1.2303 0.9801
4.0715 2.2620 -1.1756 0.9810
4.0046 2.4574 -1.1859 0.9808
3.9974 2.4872 -1.1883 0.9808
3.9902 2.5171 -1.1907 0.9807
3.9829 2.5470 -1.1932 0.9807
3.9756 2.5771 -1.1958 0.9806
3.9683 2.6074 -1.1984 0.9806
3.9610 2.6378 -1.2011 0.9806
3.9536 2.6683 -1.2038 0.9805
3.9237 2.7918 -1.2154 0.9803
3.8854 2.9497 -1.2312 0.9801
3.8777 2.9818 -1.2346 0.9800
3.8620 3.0465 -1.2415 0.9799
3.8541 3.0791 -1.2451 0.9799
3.8382 3.1449 -1.2524 0.9797
3.8301 3.1781 -1.2561 0.9797
3.8220 3.2115 -1.2600 0.9796
3.8139 3.2451 -1.2639 0.9796
3.7808 3.3817 -1.2803 0.9793
3.7639 3.4514 -1.2889 0.9792
3.7468 3.5220 -1.2979 0.9790
3.7207 3.6298 -1.3119 0.9788
3.7030 3.7030 -1.3217 0.9786
3.6940 3.7400 -1.3268 0.9785
3.6850 3.7773 -1.3319 0.9785
3.6759 3.8149 -1.3371 0.9784
3.6481 3.9294 -1.3533 0.9781
3.6197 4.0468 -1.3703 0.9779
3.6003 4.1268 -1.3822 0.9777
3.5905 4.1673 -1.3883 0.9776
3.5806 4.2081 -1.3945 0.9775
3.5706 4.2494 -1.4009 0.9774
3.5193 4.4613 -1.4342 0.9768
3.4873 4.5935 -1.4556 0.9765
3.4764 4.6385 -1.4630 0.9764
3.4654 4.6838 -1.4705 0.9763
3.4542 4.7297 -1.4782 0.9761
3.4317 4.8229 -1.4939 0.9759
3.4202 4.8703 -1.5020 0.9757
3.3969 4.9666 -1.5187 0.9755
3.3730 5.0650 -1.5359 0.9752
3.3609 5.1151 -1.5447 0.9751
3.3486 5.1657 -1.5537 0.9749
3.3362 5.2170 -1.5629 0.9748
3.3236 5.2688 -1.5723 0.9746
4.8662 7.8210 -2.3248 0.9627
4.7703 7.8826 -2.3254 0.9627
4.6736 7.9429 -2.3260 0.9627
4.6249 7.9726 -2.3263 0.9627
4.4778 8.0599 -2.3271 0.9627
4.4284 8.0884 -2.3274 0.9627
4.1786 8.2260 -2.3287 0.9627
4.0774 8.2789 -2.3292 0.9626
4.0265 8.3047 -2.3294 0.9626
3.9243 8.3557 -2.3299 0.9626
3.8216 8.4057 -2.3305 0.9626
3.7700 8.4302 -2.3308 0.9626
3.6663 8.4780 -2.3313 0.9626
3.4569 8.5696 -2.3322 0.9626
3.4041 8.5916 -2.3325 0.9626
3.3513 8.6133 -2.3327 0.9626
3.1383 8.6967 -2.3335 0.9626
3.0847 8.7167 -2.3337 0.9626
3.0310 8.7364 -2.3339 0.9626
2.9772 8.7557 -2.3341 0.9626
2.9232 8.7747 -2.3343 0.9626
2.8691 8.7933 -2.3345 0.9626
2.7606 8.8295 -2.3349 0.9626
2.7062 8.8470 -2.3350 0.9626
2.4872 8.9138 -2.3357 0.9625
2.3771 8.9452 -2.3360 0.9625
2.3219 8.9603 -2.3362 0.9625
2.2666 8.9750 -2.3363 0.9625
2.1001 9.0172 -2.3368 0.9625
2.0444 9.0305 -2.3369 0.9625
1.9327 9.0562 -2.3372 0.9625
1.8208 9.0803 -2.3374 0.9625
1.7647 9.0919 -2.3375 0.9625
1.6523 9.1139 -2.3378 0.9625
1.4831 9.1442 -2.3381 0.9625
1.2567 9.1795 -2.3384 0.9625
1.1431 9.1950 -2.3386 0.9625
1.0863 9.2022 -2.3387 0.9625
1.0294 9.2090 -2.3387 0.9625
0.9724 9.2154 -2.3388 0.9625
0.8014 9.2326 -2.3390 0.9625
0.5728 9.2504 -2.3392 0.9625
0.5156 9.2539 -2.3392 0.9625
0.4584 9.2571 -2.3393 0.9625
0.4011 9.2598 -2.3393 0.9625
0.3438 9.2622 -2.3393 0.9625
0.2293 9.2660 -2.3394 0.9625
-0.0573 9.2688 -2.3394 0.9625
-0.1146 9.2683 -2.3394 0.9625
-0.2293 9.2661 -2.3394 0.9625
-0.3438 9.2624 -2.3394 0.9625
-0.4584 9.2573 -2.3393 0.9625
-0.5156 9.2542 -2.3393 0.9625
-0.5728 9.2507 -2.3393 0.9625
-0.6300 9.2468 -2.3392 0.9625
-0.6872 9.2426 -2.3392 0.9625
-0.7443 9.2380 -2.3391 0.9625
-0.7814 9.0023 -2.2806 0.9634
-0.8363 8.9897 -2.2787 0.9634
-0.8912 8.9771 -2.2769 0.9635
-1.0007 8.9524 -2.2736 0.9635
-1.0554 8.9404 -2.2721 0.9635
-1.1100 8.9284 -2.2708 0.9636
-1.1645 8.9165 -2.2695 0.9636
-1.3701 9.1633 -2.3384 0.9625
-1.4267 9.1543 -2.3384 0.9625
-1.6524 9.1147 -2.3380 0.9625
-1.7087 9.1039 -2.3379 0.9625
-1.8770 9.0694 -2.3375 0.9625
-1.9330 9.0571 -2.3374 0.9625
-2.1003 9.0183 -2.3370 0.9625
-2.1559 9.0046 -2.3369 0.9625
-2.2114 8.9906 -2.3368 0.9625
-2.2669 8.9762 -2.3366 0.9625
-2.3774 8.9464 -2.3363 0.9625
-2.4325 8.9309 -2.3362 0.9625
-2.4876 8.9151 -2.3360 0.9625
-2.4644 8.6257 -2.2641 0.9637
-2.5186 8.6133 -2.2649 0.9637
-2.5728 8.6009 -2.2658 0.9636
-2.7611 8.8309 -2.3352 0.9625
-2.8154 8.8130 -2.3351 0.9626
-2.8696 8.7948 -2.3349 0.9626
-2.9238 8.7762 -2.3347 0.9626
-3.2989 8.6365 -2.3334 0.9626
-3.3520 8.6152 -2.3332 0.9626
-3.5102 8.5492 -2.3325 0.9626
-3.6150 8.5035 -2.3321 0.9626
-3.6672 8.4802 -2.3319 0.9626
-3.7192 8.4565 -2.3317 0.9626
-3.7711 8.4325 -2.3314 0.9626
-3.8228 8.4082 -2.3312 0.9626
-3.8743 8.3835 -2.3309 0.9626
-3.9256 8.3586 -2.3307 0.9626
-4.0279 8.3076 -2.3302 0.9626
-4.0788 8.2816 -2.3300 0.9626
-4.1800 8.2288 -2.3295 0.9626
-4.2303 8.2019 -2.3292 0.9626
-4.3304 8.1470 -2.3287 0.9627
-4.3802 8.1192 -2.3284 0.9627
-4.5285 8.0336 -2.3276 0.9627
-4.5775 8.0045 -2.3273 0.9627
-4.6264 7.9751 -2.3270 0.9627
-4.6750 7.9453 -2.3267 0.9627
-4.8198 7.8543 -2.3258 0.9627
-4.9627 7.7605 -2.3249 0.9627
-5.0099 7.7286 -2.3246 0.9627
-5.1038 7.6640 -2.3240 0.9627
-5.1504 7.6312 -2.3237 0.9627
-5.1968 7.5982 -2.3233 0.9627
-5.3346 7.4973 -2.3224 0.9628
-5.3801 7.4631 -2.3220 0.9628
-5.4704 7.3938 -2.3214 0.9628
-5.5598 7.3234 -2.3207 0.9628
-5.6041 7.2878 -2.3203 0.9628
-5.6482 7.2520 -2.3200 0.9628
-5.6921 7.2158 -2.3196 0.9628
-5.7791 7.1427 -2.3189 0.9628
-5.8223 7.1057 -2.3186 0.9628
-5.9079 7.0309 -2.3178 0.9628
-5.9503 6.9931 -2.3175 0.9628
-5.9925 6.9551 -2.3171 0.9628
-6.0344 6.9168 -2.3167 0.9628
-6.0761 6.8782 -2.3163 0.9628
-6.1996 6.7610 -2.3152 0.9629
-6.3208 6.6415 -2.3140 0.9629
-6.3606 6.6012 -2.3136 0.9629
-6.4002 6.5605 -2.3132 0.9629
-6.4396 6.5197 -2.3128 0.9629
-6.4786 6.4786 -2.3124 0.9629
-6.5174 6.4373 -2.3120 0.9629
-6.5560 6.3958 -2.3116 0.9629
-6.6322 6.3120 -2.3108 0.9629
-6.6700 6.2697 -2.3104 0.9629
-6.7074 6.2272 -2.3100 0.9629
-6.7446 6.1845 -2.3096 0.9630
-6.7814 6.1416 -2.3092 0.9630
-6.8181 6.0984 -2.3087 0.9630
-7.0317 5.8348 -2.3062 0.9630
-7.0663 5.7901 -2.3057 0.9630
-7.1588 5.7193 -2.3126 0.9629
-7.3008 5.7591 -2.3470 0.9624
-7.6576 5.8884 -2.4381 0.9609
-7.7606 5.8916 -2.4592 0.9606
-7.8639 5.7432 -2.4577 0.9606
-7.8977 5.6934 -2.4573 0.9606
-7.9312 5.6433 -2.4568 0.9606
-7.9644 5.5930 -2.4563 0.9606
-7.9972 5.5426 -2.4558 0.9607
-8.0297 5.4919 -2.4553 0.9607
-8.0619 5.4410 -2.4548 0.9607
-8.0937 5.3900 -2.4543 0.9607
-8.1873 5.2356 -2.4528 0.9607
-8.2480 5.1318 -2.4518 0.9607
-8.3074 5.0273 -2.4507 0.9607
-8.3365 4.9749 -2.4502 0.9607
-8.3654 4.9221 -2.4497 0.9607
-8.3939 4.8693 -2.4492 0.9608
-8.4221 4.8163 -2.4487 0.9608
-8.4499 4.7631 -2.4482 0.9608
-8.4774 4.7097 -2.4476 0.9608
-8.5578 4.5487 -2.4461 0.9608
-8.5839 4.4947 -2.4455 0.9608
-8.6096 4.4406 -2.4450 0.9608
-8.6601 4.3319 -2.4439 0.9608
-8.7092 4.2226 -2.4429 0.9609
-8.7333 4.1678 -2.4423 0.9609
-8.7802 4.0576 -2.4412 0.9609
-8.8032 4.0023 -2.4407 0.9609
-8.8258 3.9470 -2.4402 0.9609
-8.8700 3.8358 -2.4391 0.9609
-8.8916 3.7800 -2.4385 0.9609
-8.9128 3.7241 -2.4380 0.9609
-8.9336 3.6681 -2.4374 0.9609
-8.9541 3.6119 -2.4369 0.9610
-8.9742 3.5557 -2.4363 0.9610
-9.0325 3.3863 -2.4347 0.9610
-9.0512 3.3296 -2.4341 0.9610
-9.0695 3.2728 -2.4335 0.9610
-9.0875 3.2160 -2.4330 0.9610
-9.1224 3.1018 -2.4319 0.9610
-9.1393 3.0447 -2.4313 0.9610
-9.1878 2.8726 -2.4296 0.9611
-9.2033 2.8151 -2.4291 0.9611
-9.2184 2.7575 -2.4285 0.9611
-9.2474 2.6420 -2.4274 0.9611
-9.2614 2.5842 -2.4268 0.9611
-9.2751 2.5262 -2.4262 0.9611
-9.2883 2.4683 -2.4256 0.9611
-9.3138 2.3521 -2.4245 0.9611
-9.3377 2.2357 -2.4234 0.9612
-9.3602 2.1191 -2.4222 0.9612
-9.3709 2.0606 -2.4216 0.9612
-9.3813 2.0021 -2.4211 0.9612
-9.4009 1.8850 -2.4199 0.9612
-9.4190 1.7678 -2.4188 0.9612
-9.4356 1.6504 -2.4176 0.9613
-9.4578 1.4740 -2.4159 0.9613
-9.4645 1.4152 -2.4153 0.9613
-9.4823 1.2384 -2.4136 0.9613
-9.4875 1.1795 -2.4130 0.9613
-9.4923 1.1205 -2.4124 0.9613
-9.5009 1.0025 -2.4112 0.9614
-9.5158 0.7075 -2.4083 0.9614
-9.5193 0.5894 -2.4072 0.9614
-9.5204 0.5304 -2.4066 0.9614
-9.5208 0.2355 -2.4037 0.9615
-9.5198 0.1766 -2.4031 0.9615
-9.2252 0.0000 -2.4013 0.9626
-9.2229 -0.0570 -2.4008 0.9626
-9.2202 -0.1140 -2.4002 0.9626
-9.2171 -0.1710 -2.3997 0.9626
-9.2059 -0.3417 -2.3980 0.9626
-9.2015 -0.3986 -2.3974 0.9626
-9.1967 -0.4554 -2.3969 0.9627
-9.1803 -0.6254 -2.3952 0.9627
-9.1607 -0.7951 -2.3935 0.9627
-9.1534 -0.8515 -2.3930 0.9627
-9.1459 -0.9079 -2.3924 0.9627
-9.1297 -1.0205 -2.3913 0.9627
-9.1211 -1.0767 -2.3907 0.9627
-9.1029 -1.1889 -2.3896 0.9628
-9.0933 -1.2449 -2.3891 0.9628
-9.0833 -1.3008 -2.3885 0.9628
-9.0730 -1.3566 -2.3880 0.9628
-9.0400 -1.5236 -2.3863 0.9628
-9.0283 -1.5792 -2.3858 0.9628
-9.0163 -1.6346 -2.3852 0.9628
-9.0040 -1.6899 -2.3847 0.9628
-8.9783 -1.8003 -2.3836 0.9629
-8.9650 -1.8554 -2.3831 0.9629
-8.9513 -1.9104 -2.3825 0.9629
-8.8779 -2.1837 -2.3798 0.9629
-8.8462 -2.2923 -2.3787 0.9629
-8.8132 -2.4005 -2.3777 0.9629
-8.7613 -2.5619 -2.3761 0.9630
-8.6683 -2.8284 -2.3735 0.9630
-8.6288 -2.9340 -2.3724 0.9630
-8.6086 -2.9867 -2.3719 0.9630
-8.5881 -3.0392 -2.3714 0.9630
-8.5673 -3.0916 -2.3708 0.9631
-8.5462 -3.1438 -2.3703 0.9631
-8.5247 -3.1959 -2.3698 0.9631
-8.4584 -3.3514 -2.3683 0.9631
-8.4357 -3.4029 -2.3678 0.9631
-8.4127 -3.4542 -2.3673 0.9631
-8.3658 -3.5565 -2.3663 0.9631
-8.2682 -3.7592 -2.3642 0.9632
-8.2177 -3.8595 -2.3633 0.9632
-8.0860 -4.1075 -2.3608 0.9632
-8.0313 -4.2054 -2.3598 0.9632
-7.9754 -4.3027 -2.3589 0.9632
-7.9184 -4.3992 -2.3579 0.9633
-7.8894 -4.4472 -2.3574 0.9633
-7.8602 -4.4950 -2.3570 0.9633
-7.8307 -4.5426 -2.3565 0.9633
-7.7405 -4.6843 -2.3551 0.9633
-7.6789 -4.7778 -2.3542 0.9633
-7.6163 -4.8705 -2.3532 0.9633
-7.5202 -5.0080 -2.3519 0.9633
-7.4549 -5.0987 -2.3510 0.9634
-7.3884 -5.1886 -2.3501 0.9634
-7.3548 -5.2332 -2.3497 0.9634
-7.3210 -5.2776 -2.3492 0.9634
-7.2868 -5.3218 -2.3488 0.9634
-7.2178 -5.4095 -2.3479 0.9634
-7.1477 -5.4963 -2.3470 0.9634
-7.1123 -5.5394 -2.3466 0.9634
-6.8945 -5.7932 -2.3441 0.9635
-6.8573 -5.8347 -2.3437 0.9635
-6.8199 -5.8760 -2.3433 0.9635
-6.6679 -6.0387 -2.3417 0.9635
-6.5904 -6.1187 -2.3409 0.9635
-6.5514 -6.1582 -2.3405 0.9635
-6.4725 -6.2367 -2.3397 0.9635
-6.4328 -6.2756 -2.3393 0.9635
-6.3526 -6.3526 -2.3385 0.9635
-6.2715 -6.4286 -2.3378 0.9636
-6.2306 -6.4662 -2.3374 0.9636
-6.1482 -6.5407 -2.3367 0.9636
-6.1067 -6.5776 -2.3363 0.9636
-6.0650 -6.6142 -2.3359 0.9636
-6.0230 -6.6505 -2.3356 0.9636
-5.9808 -6.6866 -2.3352 0.9636
-5.8959 -6.7580 -2.3345 0.9636
-5.8531 -6.7933 -2.3342 0.9636
-5.7669 -6.8631 -2.3335 0.9636
-5.7235 -6.8977 -2.3331 0.9636
-5.6799 -6.9320 -2.3328 0.9636
-5.5480 -7.0331 -2.3318 0.9637
-5.5036 -7.0662 -2.3314 0.9637
-5.3693 -7.1642 -2.3305 0.9637
-5.2788 -7.2280 -2.3298 0.9637
-5.2333 -7.2595 -2.3295 0.9637
-5.1876 -7.2908 -2.3292 0.9637
-5.1418 -7.3218 -2.3289 0.9637
-5.0495 -7.3829 -2.3283 0.9637
-5.0031 -7.4129 -2.3280 0.9637
-4.9565 -7.4428 -2.3277 0.9637
-4.9098 -7.4724 -2.3274 0.9637
-4.7685 -7.5594 -2.3265 0.9637
-4.7211 -7.5878 -2.3262 0.9637
-4.6735 -7.6159 -2.3259 0.9637
-4.6258 -7.6437 -2.3257 0.9637
-4.5779 -7.6713 -2.3254 0.9637
-4.5298 -7.6986 -2.3251 0.9638
-4.4816 -7.7255 -2.3248 0.9638
-4.4332 -7.7522 -2.3246 0.9638
-4.3847 -7.7786 -2.3243 0.9638
-4.3360 -7.8047 -2.3241 0.9638
-4.1891 -7.8812 -2.3233 0.9638
-4.1398 -7.9061 -2.3230 0.9638
-3.9912 -7.9790 -2.3223 0.9638
-3.9414 -8.0027 -2.3221 0.9638
-3.8413 -8.0492 -2.3216 0.9638
-3.3848 -8.2435 -2.3196 0.9638
-3.3334 -8.2636 -2.3194 0.9638
-3.1787 -8.3219 -2.3189 0.9638
-3.0751 -8.3592 -2.3185 0.9639
-2.9188 -8.4128 -2.3179 0.9639
-2.8141 -8.4470 -2.3176 0.9639
-2.7616 -8.4636 -2.3174 0.9639
-2.7090 -8.4800 -2.3173 0.9639
-2.6563 -8.4960 -2.3171 0.9639
-2.6035 -8.5116 -2.3169 0.9639
-2.4977 -8.5420 -2.3166 0.9639
-2.4447 -8.5568 -2.3165 0.9639
-2.3916 -8.5712 -2.3163 0.9639
-2.2851 -8.5990 -2.3160 0.9639
-2.2318 -8.6125 -2.3159 0.9639
-2.1248 -8.6385 -2.3156 0.9639
-2.0713 -8.6509 -2.3155 0.9639
-1.9639 -8.6750 -2.3153 0.9639
-1.8563 -8.6977 -2.3150 0.9639
-1.8023 -8.7086 -2.3149 0.9639
-1.6403 -8.7393 -2.3146 0.9639
-1.5861 -8.7489 -2.3145 0.9639
-1.4776 -8.7672 -2.3143 0.9639
-1.3690 -8.7841 -2.3141 0.9639
-1.3146 -8.7921 -2.3140 0.9639
-1.2057 -8.8071 -2.3139 0.9639
-1.0420 -8.8271 -2.3137 0.9639
-0.9874 -8.8331 -2.3136 0.9639
-0.9327 -8.8388 -2.3135 0.9639
-0.8233 -8.8493 -2.3134 0.9639
-0.7137 -8.8584 -2.3133 0.9639
-0.6589 -8.8625 -2.3133 0.9639
-0.5492 -8.8696 -2.3132 0.9639
-0.4395 -8.8755 -2.3131 0.9639
-0.1099 -8.8852 -2.3130 0.9639
-0.0550 -8.8857 -2.3130 0.9639
0.0549 -8.8856 -2.3130 0.9639
0.1099 -8.8851 -2.3130 0.9639
0.1648 -8.8843 -2.3130 0.9639
0.2747 -8.8816 -2.3130 0.9639
0.3845 -8.8776 -2.3130 0.9639
0.4394 -8.8752 -2.3131 0.9639
0.4943 -8.8723 -2.3131 0.9639
0.5492 -8.8692 -2.3131 0.9639
0.6040 -8.8658 -2.3131 0.9639
0.6589 -8.8620 -2.3132 0.9639
0.8232 -8.8487 -2.3133 0.9639
0.9873 -8.8325 -2.3134 0.9639
1.0965 -8.8200 -2.3135 0.9639
1.1510 -8.8133 -2.3136 0.9639
1.2600 -8.7989 -2.3137 0.9639
1.3145 -8.7912 -2.3138 0.9639
1.3689 -8.7831 -2.3139 0.9639
1.5859 -8.7478 -2.3142 0.9639
1.6400 -8.7382 -2.3143 0.9639
1.7481 -8.7180 -2.3145 0.9639
1.9098 -8.6852 -2.3148 0.9639
1.9636 -8.6736 -2.3149 0.9639
2.0709 -8.6495 -2.3151 0.9639
2.4442 -8.5551 -2.3160 0.9639
2.4972 -8.5403 -2.3162 0.9639
2.6030 -8.5099 -2.3165 0.9639
2.7084 -8.4781 -2.3168 0.9639
2.7610 -8.4618 -2.3169 0.9639
2.8658 -8.4282 -2.3172 0.9639
3.0223 -8.3754 -2.3177 0.9639
3.1262 -8.3386 -2.3181 0.9639
3.1779 -8.3198 -2.3183 0.9639
3.2296 -8.3006 -2.3185 0.9639
3.2811 -8.2811 -2.3186 0.9639
3.3325 -8.2614 -2.3188 0.9638
3.3838 -8.2413 -2.3190 0.9638
3.4861 -8.2002 -2.3194 0.9638
3.5370 -8.1792 -2.3196 0.9638
3.5879 -8.1579 -2.3198 0.9638
3.6892 -8.1144 -2.3202 0.9638
3.7396 -8.0921 -2.3205 0.9638
3.8401 -8.0468 -2.3209 0.9638
3.8902 -8.0237 -2.3211 0.9638
3.9401 -8.0002 -2.3213 0.9638
3.9899 -7.9765 -2.3216 0.9638
4.0396 -7.9525 -2.3218 0.9638
4.1877 -7.8786 -2.3225 0.9638
4.2368 -7.8533 -2.3228 0.9638
4.2857 -7.8278 -2.3230 0.9638
4.3345 -7.8020 -2.3233 0.9638
4.3832 -7.7759 -2.3235 0.9638
4.4317 -7.7495 -2.3238 0.9638
4.5282 -7.6958 -2.3243 0.9638
4.6241 -7.6410 -2.3248 0.9638
4.8139 -7.5278 -2.3259 0.9637
4.8610 -7.4988 -2.3262 0.9637
4.9078 -7.4695 -2.3265 0.9637
5.0011 -7.4100 -2.3270 0.9637
5.1396 -7.3187 -2.3279 0.9637
5.2311 -7.2565 -2.3285 0.9637
5.3219 -7.1932 -2.3292 0.9637
5.3670 -7.1611 -2.3295 0.9637
5.4566 -7.0961 -2.3301 0.9637
5.5455 -7.0300 -2.3307 0.9637
5.5896 -6.9965 -2.3311 0.9637
5.6774 -6.9288 -2.3317 0.9637
5.7209 -6.8946 -2.3321 0.9636
5.8931 -6.7549 -2.3334 0.9636
5.9780 -6.6835 -2.3341 0.9636
6.0201 -6.6473 -2.3345 0.9636
6.1037 -6.5744 -2.3352 0.9636
6.1865 -6.5004 -2.3359 0.9636
6.2275 -6.4630 -2.3363 0.9636
6.2684 -6.4254 -2.3366 0.9636
6.5087 -6.1944 -2.3389 0.9635
6.5479 -6.1550 -2.3393 0.9635
6.6258 -6.0756 -2.3400 0.9635
6.7786 -5.9138 -2.3416 0.9635
6.8536 -5.8315 -2.3424 0.9635
6.8907 -5.7901 -2.3428 0.9635
6.9276 -5.7483 -2.3432 0.9635
6.9642 -5.7064 -2.3436 0.9635
7.0006 -5.6642 -2.3440 0.9635
7.2136 -5.4064 -2.3466 0.9634
7.2482 -5.3627 -2.3470 0.9634
7.3167 -5.2745 -2.3478 0.9634
7.3505 -5.2302 -2.3483 0.9634
7.3841 -5.1856 -2.3487 0.9634
7.4174 -5.1407 -2.3492 0.9634
7.4505 -5.0957 -2.3496 0.9634
7.5799 -4.9136 -2.3514 0.9634
7.6117 -4.8676 -2.3518 0.9633
7.7051 -4.7283 -2.3532 0.9633
7.8553 -4.4922 -2.3555 0.9633
7.9134 -4.3964 -2.3564 0.9633
7.9704 -4.3000 -2.3574 0.9633
8.0262 -4.2027 -2.3583 0.9632
8.0808 -4.1048 -2.3593 0.9632
8.1077 -4.0556 -2.3598 0.9632
8.1606 -3.9566 -2.3607 0.9632
8.1868 -3.9069 -2.3612 0.9632
8.2125 -3.8570 -2.3617 0.9632
8.2377 -3.8069 -2.3622 0.9632
8.2876 -3.7063 -2.3632 0.9632
8.3121 -3.6557 -2.3637 0.9632
8.3602 -3.5541 -2.3647 0.9631
8.3838 -3.5031 -2.3652 0.9631
8.4071 -3.4519 -2.3657 0.9631
8.4301 -3.4006 -2.3662 0.9631
8.4751 -3.2975 -2.3672 0.9631
8.4972 -3.2457 -2.3677 0.9631
8.5403 -3.1417 -2.3687 0.9631
8.5615 -3.0895 -2.3692 0.9631
8.5823 -3.0372 -2.3697 0.9631
8.6229 -2.9321 -2.3708 0.9631
8.6623 -2.8264 -2.3718 0.9630
8.6815 -2.7734 -2.3723 0.9630
8.7372 -2.6136 -2.3739 0.9630
8.8236 -2.3448 -2.3765 0.9630
8.8400 -2.2907 -2.3771 0.9630
8.8559 -2.2365 -2.3776 0.9630
8.8716 -2.1822 -2.3781 0.9629
8.9019 -2.0732 -2.3792 0.9629
8.9309 -1.9638 -2.3803 0.9629
8.9849 -1.7439 -2.3824 0.9629
9.0099 -1.6334 -2.3835 0.9629
9.0219 -1.5780 -2.3841 0.9629
9.0335 -1.5226 -2.3846 0.9628
9.0448 -1.4670 -2.3852 0.9628
9.0664 -1.3556 -2.3863 0.9628
9.0767 -1.2999 -2.3868 0.9628
9.1056 -1.1320 -2.3885 0.9628
9.1231 -1.0198 -2.3896 0.9628
9.1468 -0.8509 -2.3912 0.9627
9.1674 -0.6816 -2.3929 0.9627
9.1900 -0.4551 -2.3951 0.9627
9.1948 -0.3983 -2.3957 0.9627
9.2070 -0.2278 -2.3973 0.9626
9.2134 -0.1140 -2.3985 0.9626
9.2184 -0.0000 -2.3996 0.9626
9.2220 0.1141 -2.4007 0.9626
9.2233 0.1711 -2.4013 0.9626
9.2248 0.2854 -2.4024 0.9626
9.2244 0.4567 -2.4041 0.9625
9.2224 0.5710 -2.4052 0.9625
9.2208 0.6282 -2.4058 0.9625
9.2140 0.7997 -2.4075 0.9625
9.2111 0.8569 -2.4080 0.9625
9.2077 0.9141 -2.4086 0.9625
9.1909 1.1426 -2.4108 0.9624
9.1745 1.3138 -2.4125 0.9624
9.1684 1.3709 -2.4131 0.9624
9.1550 1.4848 -2.4142 0.9624
9.1477 1.5418 -2.4148 0.9624
9.1153 1.7692 -2.4170 0.9623
9.0771 1.9960 -2.4192 0.9623
9.0559 2.1090 -2.4204 0.9623
9.0448 2.1655 -2.4209 0.9623
9.0333 2.2219 -2.4215 0.9623
8.9967 2.3908 -2.4231 0.9623
8.9838 2.4469 -2.4237 0.9622
8.9286 2.6708 -2.4259 0.9622
8.8989 2.7823 -2.4270 0.9622
8.8836 2.8379 -2.4276 0.9622
8.8679 2.8935 -2.4281 0.9622
8.8354 3.0043 -2.4292 0.9622
8.8186 3.0595 -2.4297 0.9622
8.7480 3.2797 -2.4319 0.9621
8.7107 3.3891 -2.4330 0.9621
8.6719 3.4982 -2.4341 0.9621
8.6520 3.5525 -2.4346 0.9621
8.6318 3.6067 -2.4351 0.9621
6.9599 3.0098 -1.9738 0.9691
6.7044 2.9486 -1.9065 0.9702
5.4138 2.5837 -1.5615 0.9755
5.2455 2.5433 -1.5175 0.9762
4.9359 2.4690 -1.4366 0.9774
4.7931 2.4347 -1.3994 0.9780
4.6575 2.4022 -1.3641 0.9786
4.4058 2.3418 -1.2988 0.9796
4.2888 2.3138 -1.2685 0.9801
4.0472 2.2813 -1.2093 0.9810
4.0401 2.3104 -1.2115 0.9809
4.0260 2.3689 -1.2159 0.9809
3.9973 2.4871 -1.2255 0.9807
3.9901 2.5170 -1.2280 0.9807
3.9829 2.5470 -1.2306 0.9806
3.9756 2.5771 -1.2333 0.9806
3.9682 2.6074 -1.2360 0.9806
3.9609 2.6377 -1.2387 0.9805
3.9535 2.6682 -1.2416 0.9805
3.9461 2.6989 -1.2444 0.9804
3.9386 2.7297 -1.2474 0.9804
3.9236 2.7918 -1.2535 0.9803
3.9084 2.8544 -1.2598 0.9802
3.8854 2.9496 -1.2698 0.9800
3.8776 2.9817 -1.2733 0.9800
3.8698 3.0140 -1.2768 0.9799
3.8619 3.0464 -1.2804 0.9799
3.8461 3.1119 -1.2878 0.9798
3.8381 3.1449 -1.2916 0.9797
3.8300 3.1781 -1.2955 0.9796
3.8056 3.2789 -1.3076 0.9795
3.7974 3.3129 -1.3118 0.9794
3.7891 3.3472 -1.3160 0.9793
3.7807 3.3817 -1.3204 0.9793
3.7723 3.4164 -1.3248 0.9792
3.7553 3.4865 -1.3339 0.9790
3.7468 3.5219 -1.3385 0.9790
3.7381 3.5576 -1.3433 0.9789
3.7118 3.6662 -1.3580 0.9787
3.7029 3.7029 -1.3631 0.9786
3.6849 3.7772 -1.3736 0.9784
3.6758 3.8148 -1.3790 0.9783
3.6666 3.8527 -1.3844 0.9783
3.6574 3.8908 -1.3900 0.9782
3.6481 3.9294 -1.3957 0.9781
3.6387 3.9682 -1.4014 0.9780
3.6292 4.0073 -1.4073 0.9779
3.5706 4.2493 -1.4447 0.9773
3.5605 4.2909 -1.4514 0.9772
3.5503 4.3329 -1.4581 0.9771
3.5400 4.3753 -1.4650 0.9770
3.5297 4.4180 -1.4720 0.9769
3.5086 4.5048 -1.4863 0.9767
3.4980 4.5489 -1.4937 0.9766
3.4872 4.5934 -1.5012 0.9764
3.4763 4.6383 -1.5088 0.9763
3.4653 4.6837 -1.5166 0.9762
3.4542 4.7296 -1.5245 0.9761
3.4316 4.8228 -1.5407 0.9758
3.4085 4.9180 -1.5576 0.9756
3.3968 4.9664 -1.5662 0.9754
3.3849 5.0154 -1.5750 0.9753
3.3729 5.0649 -1.5840 0.9752
3.3608 5.1149 -1.5931 0.9750
3.3235 5.2687 -1.6215 0.9746
4.7128 7.5745 -2.3222 0.9638
4.6205 7.6351 -2.3230 0.9638
4.5738 7.6644 -2.3233 0.9638
4.5268 7.6934 -2.3236 0.9638
4.4797 7.7222 -2.3238 0.9638
4.3848 7.7788 -2.3244 0.9638
4.3371 7.8067 -2.3247 0.9638
4.2893 7.8342 -2.3249 0.9638
4.2412 7.8615 -2.3252 0.9638
4.1930 7.8884 -2.3254 0.9637
4.1445 7.9151 -2.3257 0.9637
4.0960 7.9414 -2.3259 0.9637
4.0472 7.9674 -2.3262 0.9637
3.9983 7.9931 -2.3264 0.9637
3.8999 8.0436 -2.3269 0.9637
3.8009 8.0928 -2.3273 0.9637
3.7511 8.1170 -2.3276 0.9637
3.6011 8.1879 -2.3284 0.9637
3.3480 8.2996 -2.3296 0.9637
3.2969 8.3209 -2.3298 0.9637
3.2456 8.3418 -2.3300 0.9637
3.1943 8.3625 -2.3302 0.9637
3.1428 8.3829 -2.3304 0.9637
3.0911 8.4029 -2.3306 0.9637
3.0394 8.4226 -2.3308 0.9637
2.9875 8.4419 -2.3310 0.9637
2.9355 8.4609 -2.3312 0.9637
2.8833 8.4796 -2.3314 0.9637
2.8310 8.4979 -2.3316 0.9637
2.7787 8.5159 -2.3317 0.9637
2.6735 8.5510 -2.3321 0.9636
2.6208 8.5679 -2.3323 0.9636
2.4619 8.6169 -2.3328 0.9636
2.4087 8.6326 -2.3329 0.9636
2.3554 8.6479 -2.3331 0.9636
2.2486 8.6775 -2.3334 0.9636
2.1414 8.7057 -2.3337 0.9636
2.0338 8.7325 -2.3339 0.9636
1.9798 8.7455 -2.3341 0.9636
1.8717 8.7702 -2.3343 0.9636
1.8176 8.7821 -2.3344 0.9636
1.6546 8.8156 -2.3348 0.9636
1.3815 8.8644 -2.3353 0.9636
1.3267 8.8731 -2.3354 0.9636
1.2170 8.8895 -2.3356 0.9636
1.1620 8.8971 -2.3356 0.9636
0.8313 8.9357 -2.3360 0.9636
0.7761 8.9409 -2.3361 0.9636
0.7207 8.9457 -2.3361 0.9636
0.3884 8.9672 -2.3364 0.9636
0.3330 8.9695 -2.3364 0.9636
0.2220 8.9731 -2.3364 0.9636
0.1665 8.9744 -2.3365 0.9636
0.0000 8.9760 -2.3365 0.9636
-0.0555 8.9759 -2.3365 0.9636
-0.1110 8.9753 -2.3365 0.9636
-0.1665 8.9745 -2.3365 0.9636
-0.2220 8.9732 -2.3365 0.9636
-0.2775 8.9716 -2.3365 0.9636
-0.6101 8.9546 -2.3363 0.9636
-0.6654 8.9505 -2.3363 0.9636
-0.7761 8.9413 -2.3362 0.9636
-0.8866 8.9306 -2.3361 0.9636
-1.0520 8.9120 -2.3359 0.9636
-1.1621 8.8978 -2.3358 0.9636
-1.2170 8.8901 -2.3357 0.9636
-1.3268 8.8738 -2.3356 0.9636
-1.3816 8.8651 -2.3355 0.9636
-1.4364 8.8561 -2.3354 0.9636
-1.4911 8.8467 -2.3353 0.9636
-1.6002 8.8269 -2.3351 0.9636
-1.7091 8.8056 -2.3349 0.9636
-1.7635 8.7945 -2.3348 0.9636
-1.8719 8.7712 -2.3346 0.9636
-1.9260 8.7589 -2.3345 0.9636
-2.0340 8.7336 -2.3342 0.9636
-2.0879 8.7204 -2.3341 0.9636
-2.1954 8.6929 -2.3338 0.9636
-2.3024 8.6641 -2.3336 0.9636
-2.3558 8.6492 -2.3334 0.9636
-2.4623 8.6183 -2.3331 0.9636
-2.5154 8.6023 -2.3330 0.9636
-2.5684 8.5860 -2.3328 0.9636
-2.6739 8.5524 -2.3325 0.9636
-2.7266 8.5351 -2.3323 0.9636
-2.8838 8.4812 -2.3318 0.9637
-2.9360 8.4625 -2.3316 0.9637
-3.1949 8.3643 -2.3307 0.9637
-3.3487 8.3015 -2.3301 0.9637
-3.3996 8.2798 -2.3299 0.9637
-3.4505 8.2579 -2.3297 0.9637
-3.5517 8.2131 -2.3292 0.9637
-3.6021 8.1902 -2.3290 0.9637
-3.6523 8.1670 -2.3288 0.9637
-3.7024 8.1434 -2.3286 0.9637
-3.8021 8.0954 -2.3281 0.9637
-3.8517 8.0710 -2.3279 0.9637
-3.9011 8.0461 -2.3276 0.9637
-3.9504 8.0211 -2.3274 0.9637
-4.0484 7.9699 -2.3269 0.9637
-4.0972 7.9438 -2.3266 0.9637
-4.1458 7.9175 -2.3264 0.9637
-4.2425 7.8638 -2.3259 0.9637
-4.2905 7.8366 -2.3256 0.9637
-4.3861 7.7811 -2.3251 0.9638
-4.4810 7.7244 -2.3245 0.9638
-4.5281 7.6956 -2.3242 0.9638
-4.5750 7.6665 -2.3240 0.9638
-4.6684 7.6075 -2.3234 0.9638
-4.7147 7.5775 -2.3231 0.9638
-4.7609 7.5473 -2.3228 0.9638
-4.8527 7.4859 -2.3222 0.9638
-4.8982 7.4548 -2.3219 0.9638
-4.9887 7.3917 -2.3213 0.9638
-5.0337 7.3597 -2.3210 0.9638
-5.0784 7.3275 -2.3207 0.9638
-5.1229 7.2949 -2.3204 0.9638
-5.2552 7.1956 -2.3194 0.9638
-5.3423 7.1281 -2.3187 0.9639
-5.4712 7.0247 -2.3177 0.9639
-5.5137 6.9897 -2.3174 0.9639
-5.5981 6.9189 -2.3167 0.9639
-5.6399 6.8832 -2.3163 0.9639
-5.6815 6.8471 -2.3160 0.9639
-5.7640 6.7742 -2.3153 0.9639
-5.8049 6.7374 -2.3149 0.9639
-5.8455 6.7003 -2.3146 0.9639
-5.9660 6.5876 -2.3135 0.9639
-6.1232 6.4338 -2.3120 0.9640
-6.2002 6.3555 -2.3112 0.9640
-6.2384 6.3160 -2.3108 0.9640
-6.2762 6.2762 -2.3104 0.9640
-6.3139 6.2362 -2.3100 0.9640
-6.4252 6.1149 -2.3089 0.9640
-6.4618 6.0740 -2.3085 0.9640
-6.5699 5.9499 -2.3073 0.9640
-6.6054 5.9082 -2.3068 0.9640
-6.6406 5.8662 -2.3064 0.9640
-6.7103 5.7815 -2.3056 0.9641
-6.7447 5.7388 -2.3052 0.9641
-6.7788 5.6960 -2.3048 0.9641
-6.8481 5.6112 -2.3046 0.9641
-6.9659 5.6361 -2.3324 0.9636
-7.1110 5.6812 -2.3692 0.9631
-7.2672 5.7326 -2.4094 0.9625
-7.4387 5.7937 -2.4543 0.9618
-7.5528 5.6606 -2.4569 0.9617
-7.6194 5.5646 -2.4560 0.9618
-7.6846 5.4679 -2.4550 0.9618
-7.7168 5.4192 -2.4545 0.9618
-7.7487 5.3703 -2.4541 0.9618
-7.8114 5.2720 -2.4531 0.9618
-7.8423 5.2225 -2.4526 0.9618
-7.8729 5.1729 -2.4521 0.9618
-7.9921 4.9726 -2.4502 0.9618
-8.0210 4.9221 -2.4497 0.9618
-8.0497 4.8714 -2.4492 0.9619
-8.0780 4.8206 -2.4487 0.9619
-8.1337 4.7184 -2.4477 0.9619
-8.1611 4.6670 -2.4472 0.9619
-8.1881 4.6155 -2.4467 0.9619
-8.2148 4.5638 -2.4462 0.9619
-8.2411 4.5120 -2.4457 0.9619
-8.3182 4.3556 -2.4441 0.9619
-8.3679 4.2506 -2.4431 0.9619
-8.3923 4.1979 -2.4426 0.9620
-8.4163 4.1450 -2.4421 0.9620
-8.4400 4.0921 -2.4415 0.9620
-8.4633 4.0389 -2.4410 0.9620
-8.5090 3.9322 -2.4400 0.9620
-8.5313 3.8787 -2.4395 0.9620
-8.5533 3.8251 -2.4389 0.9620
-8.6580 3.5549 -2.4363 0.9621
-8.6975 3.4461 -2.4352 0.9621
-8.7167 3.3914 -2.4347 0.9621
-8.7541 3.2819 -2.4336 0.9621
-8.7723 3.2270 -2.4331 0.9621
-8.7902 3.1720 -2.4325 0.9621
-8.8077 3.1169 -2.4320 0.9621
-8.8416 3.0064 -2.4309 0.9621
-8.8580 2.9510 -2.4304 0.9621
-8.8741 2.8955 -2.4298 0.9622
-8.9052 2.7843 -2.4287 0.9622
-8.9203 2.7285 -2.4282 0.9622
-8.9350 2.6727 -2.4276 0.9622
-8.9493 2.6168 -2.4271 0.9622
-8.9769 2.5048 -2.4260 0.9622
-8.9902 2.4487 -2.4254 0.9622
-9.0398 2.2235 -2.4232 0.9623
-9.0732 2.0540 -2.4215 0.9623
-9.0937 1.9408 -2.4204 0.9623
-9.1035 1.8841 -2.4199 0.9623
-9.1219 1.7705 -2.4188 0.9623
-9.1388 1.6568 -2.4176 0.9623
-9.1468 1.5998 -2.4171 0.9623
-9.1544 1.5429 -2.4165 0.9624
-9.1685 1.4289 -2.4154 0.9624
-9.1750 1.3719 -2.4148 0.9624
-9.1812 1.3148 -2.4143 0.9624
-9.1925 1.2006 -2.4132 0.9624
-9.2068 1.0290 -2.4115 0.9624
-9.2108 0.9719 -2.4109 0.9624
-9.2257 0.6859 -2.4081 0.9625
-9.2276 0.6287 -2.4075 0.9625
-9.2312 0.4571 -2.4058 0.9625
-9.2317 0.3999 -2.4053 0.9625
-9.2316 0.2855 -2.4042 0.9625
-9.2310 0.2284 -2.4036 0.9626
-9.2301 0.1713 -2.4030 0.9626
-9.2288 0.1142 -2.4025 0.9626
-8.9497 -0.0554 -2.4008 0.9636
-8.9443 -0.1660 -2.3997 0.9636
-8.9375 -0.2765 -2.3986 0.9636
-8.9336 -0.3316 -2.3981 0.9637
-8.9146 -0.5520 -2.3959 0.9637
-8.9090 -0.6070 -2.3953 0.9637
-8.9031 -0.6619 -2.3948 0.9637
-8.8902 -0.7717 -2.3937 0.9637
-8.8832 -0.8264 -2.3932 0.9637
-8.8759 -0.8812 -2.3926 0.9637
-8.8683 -0.9358 -2.3921 0.9637
-8.8604 -0.9904 -2.3916 0.9638
-8.8521 -1.0450 -2.3910 0.9638
-8.8435 -1.0995 -2.3905 0.9638
-8.8345 -1.1538 -2.3899 0.9638
-8.8252 -1.2082 -2.3894 0.9638
-8.8057 -1.3166 -2.3883 0.9638
-8.7391 -1.6402 -2.3852 0.9638
-8.7268 -1.6938 -2.3846 0.9639
-8.7143 -1.7474 -2.3841 0.9639
-8.6881 -1.8542 -2.3830 0.9639
-8.6607 -1.9607 -2.3820 0.9639
-8.6172 -2.1196 -2.3804 0.9639
-8.5708 -2.2776 -2.3789 0.9639
-8.5546 -2.3301 -2.3783 0.9639
-8.5215 -2.4346 -2.3773 0.9640
-8.4870 -2.5387 -2.3763 0.9640
-8.4693 -2.5906 -2.3758 0.9640
-8.4513 -2.6424 -2.3753 0.9640
-8.4330 -2.6940 -2.3747 0.9640
-8.3762 -2.8482 -2.3732 0.9640
-8.3567 -2.8993 -2.3727 0.9640
-8.3368 -2.9503 -2.3722 0.9640
-8.3166 -3.0012 -2.3717 0.9640
-8.2329 -3.2032 -2.3697 0.9641
-8.2112 -3.2534 -2.3692 0.9641
-8.1892 -3.3035 -2.3687 0.9641
-8.1444 -3.4031 -2.3677 0.9641
-8.0983 -3.5021 -2.3668 0.9641
-8.0748 -3.5514 -2.3663 0.9641
-8.0511 -3.6005 -2.3658 0.9641
-8.0027 -3.6983 -2.3648 0.9641
-7.9531 -3.7954 -2.3639 0.9642
-7.9278 -3.8438 -2.3634 0.9642
-7.8765 -3.9399 -2.3624 0.9642
-7.7974 -4.0829 -2.3610 0.9642
-7.7704 -4.1303 -2.3605 0.9642
-7.6880 -4.2712 -2.3592 0.9642
-7.6599 -4.3178 -2.3587 0.9642
-7.6316 -4.3642 -2.3582 0.9642
-7.5741 -4.4566 -2.3573 0.9643
-7.5155 -4.5482 -2.3564 0.9643
-7.4858 -4.5937 -2.3560 0.9643
-7.4558 -4.6390 -2.3555 0.9643
-7.3950 -4.7290 -2.3546 0.9643
-7.3643 -4.7738 -2.3542 0.9643
-7.3332 -4.8184 -2.3537 0.9643
-7.3019 -4.8627 -2.3533 0.9643
-7.2704 -4.9068 -2.3529 0.9643
-7.1415 -5.0814 -2.3511 0.9644
-7.1087 -5.1246 -2.3507 0.9644
-7.0422 -5.2102 -2.3498 0.9644
-7.0086 -5.2527 -2.3494 0.9644
-6.9747 -5.2950 -2.3490 0.9644
-6.9406 -5.3371 -2.3486 0.9644
-6.6226 -5.7060 -2.3449 0.9644
-6.5123 -5.8250 -2.3437 0.9645
-6.4751 -5.8641 -2.3434 0.9645
-6.4377 -5.9031 -2.3430 0.9645
-6.3621 -5.9803 -2.3422 0.9645
-6.3239 -6.0186 -2.3418 0.9645
-6.2470 -6.0944 -2.3411 0.9645
-6.2082 -6.1319 -2.3407 0.9645
-6.1299 -6.2062 -2.3400 0.9645
-6.0110 -6.3160 -2.3389 0.9645
-5.8901 -6.4235 -2.3378 0.9646
-5.7673 -6.5287 -2.3367 0.9646
-5.7260 -6.5632 -2.3364 0.9646
-5.6844 -6.5976 -2.3361 0.9646
-5.6427 -6.6317 -2.3357 0.9646
-5.6008 -6.6655 -2.3354 0.9646
-5.4311 -6.7981 -2.3341 0.9646
-5.2584 -6.9266 -2.3328 0.9646
-5.1710 -6.9892 -2.3322 0.9646
-5.1270 -7.0201 -2.3319 0.9646
-5.0384 -7.0811 -2.3312 0.9646
-4.9492 -7.1411 -2.3306 0.9647
-4.6315 -7.3422 -2.3286 0.9647
-4.5855 -7.3698 -2.3284 0.9647
-4.4929 -7.4242 -2.3278 0.9647
-4.3530 -7.5037 -2.3270 0.9647
-4.2116 -7.5807 -2.3262 0.9647
-4.0211 -7.6793 -2.3253 0.9647
-3.9731 -7.7032 -2.3250 0.9647
-3.9250 -7.7269 -2.3248 0.9647
-3.8284 -7.7733 -2.3243 0.9648
-3.6335 -7.8626 -2.3234 0.9648
-3.3872 -7.9675 -2.3224 0.9648
-3.2379 -8.0269 -2.3218 0.9648
-3.1379 -8.0650 -2.3214 0.9648
-3.0877 -8.0836 -2.3212 0.9648
-3.0374 -8.1019 -2.3210 0.9648
-2.9870 -8.1198 -2.3208 0.9648
-2.8352 -8.1720 -2.3203 0.9648
-2.6826 -8.2215 -2.3198 0.9648
-2.5290 -8.2681 -2.3193 0.9648
-2.3748 -8.3120 -2.3189 0.9648
-2.1679 -8.3662 -2.3183 0.9648
-2.0641 -8.3914 -2.3181 0.9648
-2.0120 -8.4036 -2.3179 0.9648
-1.9077 -8.4270 -2.3177 0.9649
-1.7508 -8.4597 -2.3174 0.9649
-1.6984 -8.4699 -2.3173 0.9649
-1.6459 -8.4799 -2.3172 0.9649
-1.4881 -8.5079 -2.3169 0.9649
-1.4354 -8.5166 -2.3168 0.9649
-1.3299 -8.5331 -2.3166 0.9649
-1.2770 -8.5408 -2.3165 0.9649
-1.1183 -8.5622 -2.3163 0.9649
-1.0653 -8.5687 -2.3162 0.9649
-0.9592 -8.5808 -2.3161 0.9649
-0.7997 -8.5964 -2.3159 0.9649
-0.6933 -8.6053 -2.3158 0.9649
-0.6401 -8.6093 -2.3158 0.9649
-0.5335 -8.6163 -2.3157 0.9649
-0.4802 -8.6193 -2.3157 0.9649
-0.3736 -8.6243 -2.3156 0.9649
-0.3202 -8.6264 -2.3156 0.9649
-0.2135 -8.6295 -2.3155 0.9649
-0.1068 -8.6314 -2.3155 0.9649
-0.0534 -8.6319 -2.3155 0.9649
-0.0000 -8.6320 -2.3155 0.9649
0.0534 -8.6318 -2.3155 0.9649
0.1068 -8.6313 -2.3155 0.9649
0.1601 -8.6305 -2.3155 0.9649
0.2669 -8.6279 -2.3155 0.9649
0.3202 -8.6262 -2.3155 0.9649
0.3736 -8.6241 -2.3155 0.9649
0.4269 -8.6217 -2.3156 0.9649
0.4802 -8.6189 -2.3156 0.9649
0.6400 -8.6088 -2.3157 0.9649
0.7465 -8.6005 -2.3157 0.9649
0.8528 -8.5910 -2.3158 0.9649
0.9591 -8.5801 -2.3159 0.9649
1.0652 -8.5680 -2.3160 0.9649
1.1182 -8.5615 -2.3161 0.9649
1.1711 -8.5546 -2.3161 0.9649
1.2240 -8.5475 -2.3162 0.9649
1.2769 -8.5400 -2.3163 0.9649
1.3297 -8.5322 -2.3164 0.9649
1.3825 -8.5241 -2.3164 0.9649
1.4353 -8.5157 -2.3165 0.9649
1.4879 -8.5069 -2.3166 0.9649
1.5406 -8.4978 -2.3167 0.9649
1.6457 -8.4788 -2.3168 0.9649
1.7506 -8.4585 -2.3170 0.9649
1.9074 -8.4257 -2.3173 0.9649
1.9596 -8.4141 -2.3175 0.9649
2.0117 -8.4022 -2.3176 0.9649
2.1157 -8.3776 -2.3178 0.9648
2.2194 -8.3516 -2.3180 0.9648
2.2711 -8.3382 -2.3182 0.9648
2.3227 -8.3245 -2.3183 0.9648
2.4772 -8.2814 -2.3187 0.9648
2.6820 -8.2197 -2.3193 0.9648
2.8346 -8.1702 -2.3198 0.9648
2.8853 -8.1531 -2.3199 0.9648
3.0367 -8.0999 -2.3204 0.9648
3.1371 -8.0630 -2.3208 0.9648
3.1871 -8.0440 -2.3210 0.9648
3.2371 -8.0248 -2.3212 0.9648
3.2869 -8.0053 -2.3214 0.9648
3.3366 -7.9854 -2.3215 0.9648
3.3863 -7.9654 -2.3217 0.9648
3.4851 -7.9242 -2.3221 0.9648
3.5343 -7.9032 -2.3223 0.9648
3.6813 -7.8383 -2.3230 0.9648
3.8272 -7.7709 -2.3236 0.9648
3.8756 -7.7478 -2.3238 0.9648
3.9719 -7.7008 -2.3243 0.9648
4.1153 -7.6281 -2.3250 0.9647
4.1628 -7.6033 -2.3252 0.9647
4.2102 -7.5782 -2.3255 0.9647
4.3045 -7.5271 -2.3260 0.9647
4.3514 -7.5012 -2.3262 0.9647
4.3982 -7.4749 -2.3265 0.9647
4.5838 -7.3672 -2.3275 0.9647
4.6298 -7.3395 -2.3278 0.9647
4.6757 -7.3116 -2.3280 0.9647
4.8122 -7.2262 -2.3289 0.9647
4.9473 -7.1382 -2.3297 0.9647
4.9919 -7.1084 -2.3300 0.9647
5.0364 -7.0783 -2.3303 0.9647
5.0807 -7.0479 -2.3306 0.9647
5.1249 -7.0172 -2.3309 0.9647
5.1688 -6.9863 -2.3312 0.9646
5.2126 -6.9551 -2.3315 0.9646
5.2562 -6.9237 -2.3318 0.9646
5.2996 -6.8919 -2.3321 0.9646
5.3859 -6.8277 -2.3327 0.9646
5.6402 -6.6287 -2.3347 0.9646
5.6819 -6.5946 -2.3350 0.9646
5.7646 -6.5257 -2.3357 0.9646
5.8057 -6.4909 -2.3360 0.9646
5.8466 -6.4558 -2.3364 0.9646
5.9278 -6.3849 -2.3371 0.9646
5.9680 -6.3490 -2.3374 0.9646
6.0081 -6.3130 -2.3378 0.9646
6.0479 -6.2766 -2.3381 0.9645
6.0876 -6.2400 -2.3385 0.9645
6.1662 -6.1662 -2.3392 0.9645
6.2052 -6.1289 -2.3395 0.9645
6.3589 -5.9773 -2.3410 0.9645
6.3967 -5.9388 -2.3414 0.9645
6.4344 -5.9001 -2.3418 0.9645
6.4718 -5.8611 -2.3422 0.9645
6.5459 -5.7825 -2.3429 0.9645
6.5826 -5.7429 -2.3433 0.9645
6.6554 -5.6629 -2.3441 0.9645
6.7272 -5.5821 -2.3449 0.9644
6.8679 -5.4177 -2.3465 0.9644
6.9024 -5.3760 -2.3469 0.9644
6.9368 -5.3341 -2.3473 0.9644
6.9708 -5.2921 -2.3477 0.9644
7.0047 -5.2498 -2.3481 0.9644
7.0383 -5.2073 -2.3485 0.9644
7.1046 -5.1217 -2.3494 0.9644
7.1375 -5.0785 -2.3498 0.9644
7.2023 -4.9917 -2.3506 0.9644
7.2344 -4.9479 -2.3511 0.9644
7.2977 -4.8599 -2.3519 0.9643
7.3290 -4.8156 -2.3524 0.9643
7.4212 -4.6813 -2.3537 0.9643
7.4514 -4.6362 -2.3541 0.9643
7.4813 -4.5909 -2.3546 0.9643
7.5404 -4.4997 -2.3555 0.9643
7.5695 -4.4539 -2.3559 0.9643
7.6269 -4.3616 -2.3568 0.9643
7.7110 -4.2218 -2.3582 0.9642
7.7657 -4.1277 -2.3591 0.9642
7.7926 -4.0804 -2.3596 0.9642
7.8717 -3.9375 -2.3610 0.9642
7.9729 -3.7446 -2.3628 0.9642
8.0219 -3.6471 -2.3638 0.9642
8.0459 -3.5982 -2.3643 0.9642
8.1391 -3.4009 -2.3662 0.9641
8.1617 -3.3512 -2.3667 0.9641
8.1839 -3.3013 -2.3672 0.9641
8.2059 -3.2513 -2.3677 0.9641
8.3313 -2.9483 -2.3706 0.9641
8.3511 -2.8974 -2.3711 0.9641
8.3706 -2.8463 -2.3716 0.9640
8.4088 -2.7437 -2.3727 0.9640
8.4457 -2.6406 -2.3737 0.9640
8.5649 -2.2761 -2.3772 0.9640
8.5807 -2.2235 -2.3778 0.9640
8.5961 -2.1709 -2.3783 0.9639
8.6261 -2.0654 -2.3793 0.9639
8.6406 -2.0124 -2.3798 0.9639
8.7208 -1.6927 -2.3830 0.9639
8.7330 -1.6391 -2.3835 0.9639
8.7449 -1.5854 -2.3840 0.9639
8.7565 -1.5316 -2.3846 0.9639
8.7787 -1.4238 -2.3856 0.9638
8.8094 -1.2616 -2.3872 0.9638
8.8190 -1.2073 -2.3877 0.9638
8.8283 -1.1530 -2.3883 0.9638
8.8372 -1.0987 -2.3888 0.9638
8.8621 -0.9352 -2.3904 0.9638
8.8839 -0.7711 -2.3920 0.9637
8.8905 -0.7163 -2.3926 0.9637
8.9027 -0.6066 -2.3936 0.9637
8.9083 -0.5516 -2.3942 0.9637
8.9135 -0.4967 -2.3947 0.9637
8.9184 -0.4416 -2.3953 0.9637
8.9347 -0.2211 -2.3974 0.9637
8.9474 0.0553 -2.4002 0.9636
8.9489 0.1107 -2.4007 0.9636
8.9501 0.1661 -2.4012 0.9636
8.9509 0.2214 -2.4018 0.9636
8.9514 0.2769 -2.4023 0.9636
8.9516 0.3323 -2.4029 0.9636
8.9509 0.4432 -2.4040 0.9636
8.9500 0.4987 -2.4045 0.9636
8.9472 0.6096 -2.4056 0.9635
8.9453 0.6650 -2.4062 0.9635
8.9430 0.7205 -2.4067 0.9635
8.9404 0.7760 -2.4072 0.9635
8.9375 0.8314 -2.4078 0.9635
8.9342 0.8869 -2.4083 0.9635
8.9306 0.9423 -2.4089 0.9635
8.9266 0.9978 -2.4094 0.9635
8.9223 1.0532 -2.4100 0.9635
8.9072 1.2194 -2.4116 0.9635
8.8955 1.3301 -2.4127 0.9634
8.8891 1.3854 -2.4133 0.9634
8.8824 1.4406 -2.4138 0.9634
8.8753 1.4959 -2.4143 0.9634
8.8679 1.5511 -2.4149 0.9634
8.8601 1.6062 -2.4154 0.9634
8.8520 1.6614 -2.4160 0.9634
8.8435 1.7165 -2.4165 0.9634
8.8347 1.7715 -2.4171 0.9634
8.8256 1.8265 -2.4176 0.9634
8.8161 1.8815 -2.4181 0.9634
8.7961 1.9913 -2.4192 0.9633
8.7747 2.1009 -2.4203 0.9633
8.7520 2.2102 -2.4214 0.9633
8.7278 2.3193 -2.4225 0.9633
8.7153 2.3738 -2.4230 0.9633
8.7023 2.4282 -2.4235 0.9633
8.6755 2.5368 -2.4246 0.9633
8.6615 2.5909 -2.4251 0.9633
8.6472 2.6450 -2.4257 0.9632
8.6176 2.7530 -2.4267 0.9632
8.6023 2.8068 -2.4273 0.9632
8.5867 2.8606 -2.4278 0.9632
8.5707 2.9143 -2.4283 0.9632
8.5377 3.0214 -2.4294 0.9632
8.5207 3.0748 -2.4299 0.9632
7.2309 3.0740 -2.1077 0.9680
6.7015 2.9473 -1.9638 0.9701
6.4630 2.8903 -1.8991 0.9711
5.4119 2.5827 -1.6086 0.9755
5.2437 2.5424 -1.5632 0.9762
4.1759 2.2863 -1.2771 0.9805
4.0401 2.3104 -1.2484 0.9809
4.0259 2.3688 -1.2530 0.9808
4.0116 2.4277 -1.2578 0.9808
3.9900 2.5170 -1.2655 0.9807
3.9828 2.5469 -1.2681 0.9806
3.9682 2.6073 -1.2737 0.9805
3.9534 2.6682 -1.2794 0.9804
3.9385 2.7297 -1.2854 0.9804
3.9311 2.7606 -1.2885 0.9803
3.9235 2.7917 -1.2917 0.9803
3.9159 2.8230 -1.2949 0.9802
3.9083 2.8544 -1.2982 0.9802
3.8775 2.9817 -1.3121 0.9799
3.8697 3.0139 -1.3157 0.9799
3.8618 3.0464 -1.3194 0.9798
3.8460 3.1118 -1.3271 0.9797
3.8380 3.1448 -1.3310 0.9797
3.8055 3.2788 -1.3475 0.9794
3.7973 3.3129 -1.3518 0.9793
3.7722 3.4163 -1.3652 0.9791
3.7553 3.4864 -1.3745 0.9790
3.7380 3.5575 -1.3842 0.9789
3.7293 3.5935 -1.3892 0.9788
3.7206 3.6296 -1.3943 0.9787
3.6757 3.8147 -1.4210 0.9783
3.6573 3.8908 -1.4324 0.9781
3.6480 3.9293 -1.4382 0.9780
3.6195 4.0467 -1.4564 0.9778
3.6099 4.0865 -1.4626 0.9777
3.5805 4.2079 -1.4821 0.9774
3.5705 4.2492 -1.4888 0.9773
3.5502 4.3328 -1.5026 0.9771
3.5296 4.4179 -1.5169 0.9769
3.5191 4.4611 -1.5242 0.9767
3.4979 4.5488 -1.5392 0.9765
3.4762 4.6382 -1.5548 0.9763
3.4652 4.6836 -1.5628 0.9762
3.4429 4.7759 -1.5793 0.9759
3.4315 4.8227 -1.5877 0.9758
3.4200 4.8701 -1.5963 0.9757
3.4084 4.9179 -1.6051 0.9755
3.3848 5.0153 -1.6231 0.9753
3.3729 5.0648 -1.6323 0.9751
3.3484 5.1654 -1.6513 0.9748
3.3360 5.2167 -1.6610 0.9747
4.5688 7.3431 -2.3199 0.9648
4.4335 7.4293 -2.3208 0.9648
4.3423 7.4854 -2.3213 0.9648
4.2964 7.5130 -2.3216 0.9648
4.2508 7.5410 -2.3221 0.9648
4.2045 7.5679 -2.3223 0.9648
4.1581 7.5946 -2.3226 0.9648
3.9234 7.7236 -2.3238 0.9648
3.8759 7.7485 -2.3240 0.9648
3.8283 7.7731 -2.3243 0.9648
3.6845 7.8451 -2.3250 0.9647
3.6363 7.8685 -2.3252 0.9647
3.5879 7.8915 -2.3254 0.9647
3.5394 7.9143 -2.3256 0.9647
3.4420 7.9592 -2.3261 0.9647
3.3439 8.0029 -2.3266 0.9647
3.2947 8.0241 -2.3268 0.9647
3.1958 8.0657 -2.3272 0.9647
3.0963 8.1060 -2.3276 0.9647
2.8454 8.2013 -2.3286 0.9647
2.7442 8.2371 -2.3290 0.9647
2.6934 8.2546 -2.3292 0.9647
2.5915 8.2885 -2.3295 0.9647
2.5403 8.3049 -2.3297 0.9647
2.3863 8.3524 -2.3301 0.9647
2.2831 8.3823 -2.3304 0.9647
2.2314 8.3969 -2.3306 0.9647
2.1796 8.4110 -2.3307 0.9647
2.1276 8.4248 -2.3309 0.9647
2.0235 8.4515 -2.3311 0.9646
1.9713 8.4643 -2.3313 0.9646
1.9190 8.4768 -2.3314 0.9646
1.8667 8.4889 -2.3315 0.9646
1.7617 8.5122 -2.3318 0.9646
1.6565 8.5342 -2.3320 0.9646
1.6037 8.5447 -2.3321 0.9646
1.4980 8.5646 -2.3323 0.9646
1.3391 8.5920 -2.3326 0.9646
1.2859 8.6004 -2.3327 0.9646
1.1796 8.6163 -2.3328 0.9646
1.1263 8.6237 -2.3329 0.9646
1.0196 8.6375 -2.3331 0.9646
0.9128 8.6499 -2.3332 0.9646
0.8593 8.6556 -2.3333 0.9646
0.8057 8.6610 -2.3333 0.9646
0.7522 8.6660 -2.3334 0.9646
0.5913 8.6790 -2.3335 0.9646
0.2690 8.6956 -2.3337 0.9646
0.2152 8.6972 -2.3337 0.9646
0.1614 8.6985 -2.3337 0.9646
0.1076 8.6993 -2.3337 0.9646
0.0000 8.7000 -2.3337 0.9646
-0.0538 8.6998 -2.3337 0.9646
-0.1614 8.6985 -2.3337 0.9646
-0.2690 8.6957 -2.3337 0.9646
-0.3227 8.6939 -2.3337 0.9646
-0.5913 8.6793 -2.3336 0.9646
-0.6450 8.6753 -2.3335 0.9646
-0.6986 8.6710 -2.3335 0.9646
-0.8058 8.6614 -2.3334 0.9646
-0.8593 8.6560 -2.3334 0.9646
-0.9128 8.6504 -2.3333 0.9646
-1.0197 8.6380 -2.3332 0.9646
-1.1796 8.6169 -2.3330 0.9646
-1.2329 8.6091 -2.3329 0.9646
-1.3922 8.5839 -2.3327 0.9646
-1.4452 8.5748 -2.3326 0.9646
-1.6566 8.5350 -2.3322 0.9646
-1.7093 8.5243 -2.3321 0.9646
-1.8145 8.5017 -2.3319 0.9646
-1.8669 8.4900 -2.3318 0.9646
-1.9715 8.4654 -2.3316 0.9646
-2.0759 8.4395 -2.3313 0.9646
-2.1280 8.4260 -2.3312 0.9646
-2.1799 8.4122 -2.3311 0.9647
-2.2317 8.3980 -2.3309 0.9647
-2.2835 8.3836 -2.3308 0.9647
-2.3352 8.3688 -2.3307 0.9647
-2.4381 8.3383 -2.3304 0.9647
-2.5407 8.3064 -2.3301 0.9647
-2.5919 8.2899 -2.3299 0.9647
-2.6429 8.2732 -2.3297 0.9647
-2.6939 8.2561 -2.3296 0.9647
-2.9467 8.1658 -2.3287 0.9647
-3.0969 8.1078 -2.3282 0.9647
-3.1468 8.0879 -2.3280 0.9647
-3.1965 8.0676 -2.3278 0.9647
-3.2954 8.0261 -2.3274 0.9647
-3.3447 8.0048 -2.3272 0.9647
-3.3939 7.9833 -2.3270 0.9647
-3.4429 7.9614 -2.3268 0.9647
-3.5404 7.9167 -2.3263 0.9647
-3.5890 7.8939 -2.3261 0.9647
-3.6374 7.8709 -2.3259 0.9647
-3.7337 7.8238 -2.3254 0.9647
-3.7816 7.7997 -2.3252 0.9647
-3.8294 7.7754 -2.3250 0.9647
-4.2519 7.5430 -2.3227 0.9648
-4.2980 7.5157 -2.3224 0.9648
-4.3896 7.4603 -2.3219 0.9648
-4.4351 7.4321 -2.3216 0.9648
-4.5256 7.3750 -2.3211 0.9648
-4.5706 7.3459 -2.3208 0.9648
-4.6154 7.3166 -2.3205 0.9648
-4.6600 7.2870 -2.3202 0.9648
-4.7485 7.2270 -2.3196 0.9648
-4.8363 7.1659 -2.3191 0.9648
-4.8799 7.1349 -2.3188 0.9648
-4.9233 7.1037 -2.3185 0.9648
-5.0095 7.0404 -2.3178 0.9648
-5.0522 7.0083 -2.3175 0.9649
-5.1793 6.9106 -2.3166 0.9649
-5.2212 6.8774 -2.3163 0.9649
-5.2628 6.8440 -2.3159 0.9649
-5.4274 6.7080 -2.3146 0.9649
-5.4680 6.6733 -2.3143 0.9649
-5.5485 6.6032 -2.3136 0.9649
-5.6281 6.5321 -2.3129 0.9649
-5.7067 6.4600 -2.3122 0.9649
-5.7456 6.4237 -2.3118 0.9649
-5.7844 6.3870 -2.3115 0.9649
-5.8611 6.3130 -2.3108 0.9650
-5.9743 6.2002 -2.3097 0.9650
-6.0486 6.1239 -2.3089 0.9650
-6.0854 6.0854 -2.3085 0.9650
-6.1219 6.0467 -2.3082 0.9650
-6.1582 6.0077 -2.3078 0.9650
-6.1942 5.9685 -2.3074 0.9650
-6.3007 5.8496 -2.3062 0.9650
-6.3356 5.8095 -2.3058 0.9650
-6.3704 5.7693 -2.3055 0.9650
-6.4048 5.7288 -2.3051 0.9650
-6.4390 5.6881 -2.3047 0.9650
-6.4730 5.6472 -2.3043 0.9651
-6.5066 5.6061 -2.3039 0.9651
-6.7926 5.5658 -2.3556 0.9643
