ply
format ascii 1.0
element vertex 1558
property float32 x
property float32 y
property float32 z
property float32 I
end_header
10.3397 8.5796 -2.2449 0.9470
3.9422 3.5703 -0.8887 0.9787
3.8034 3.5752 -0.8722 0.9791
3.6724 3.5827 -0.8572 0.9794
3.6173 3.6173 -0.8547 0.9795
9.2048 9.7924 -2.2455 0.9470
9.0832 9.9058 -2.2456 0.9470
9.0219 9.9619 -2.2456 0.9470
8.9603 10.0177 -2.2457 0.9470
8.6470 10.2907 -2.2459 0.9469
8.4550 10.4498 -2.2460 0.9469
8.3903 10.5021 -2.2460 0.9469
8.3253 10.5539 -2.2460 0.9469
8.1944 10.6564 -2.2461 0.9469
7.9995 10.5372 -2.2105 0.9478
7.8012 10.4090 -2.1734 0.9486
7.6450 10.3332 -2.1477 0.9492
7.4556 10.2085 -2.1122 0.9500
7.3485 10.1936 -2.0996 0.9503
7.1380 10.1644 -2.0753 0.9509
7.0373 10.1539 -2.0642 0.9511
6.8078 10.2227 -2.0522 0.9514
6.7446 10.2649 -2.0522 0.9514
6.4472 10.3620 -2.0391 0.9517
6.3138 10.4332 -2.0376 0.9517
6.2472 10.4687 -2.0370 0.9518
6.1807 10.5042 -2.0364 0.9518
6.0985 10.5129 -2.0307 0.9519
6.0989 10.6649 -2.0528 0.9514
5.9005 10.7771 -2.0529 0.9514
5.8339 10.8137 -2.0530 0.9514
5.6122 11.2196 -2.0961 0.9504
5.6067 11.5640 -2.1473 0.9492
5.5674 12.2454 -2.2476 0.9469
5.4916 12.2799 -2.2476 0.9469
5.1866 12.4129 -2.2478 0.9469
5.1098 12.4450 -2.2478 0.9469
4.9557 12.5077 -2.2479 0.9469
4.7231 12.5982 -2.2481 0.9469
4.6452 12.6274 -2.2481 0.9469
4.3318 12.7395 -2.2483 0.9469
4.2530 12.7663 -2.2483 0.9469
4.0157 12.8438 -2.2485 0.9469
3.8567 12.8930 -2.2486 0.9469
3.6171 12.9631 -2.2487 0.9469
3.5369 12.9855 -2.2487 0.9469
3.3762 13.0288 -2.2488 0.9469
3.2149 13.0701 -2.2489 0.9469
2.8096 13.1646 -2.2492 0.9469
2.6466 13.1989 -2.2493 0.9469
2.4833 13.2312 -2.2493 0.9469
2.4015 13.2465 -2.2494 0.9469
2.3196 13.2614 -2.2494 0.9469
2.2376 13.2758 -2.2495 0.9469
2.1554 13.2897 -2.2495 0.9469
1.9087 13.3282 -2.2497 0.9469
1.8262 13.3400 -2.2497 0.9469
1.7437 13.3513 -2.2498 0.9469
1.6612 13.3621 -2.2498 0.9469
1.5785 13.3724 -2.2499 0.9469
1.1084 11.1655 -1.8748 0.9555
1.0355 11.1313 -1.8679 0.9557
0.9572 11.0276 -1.8495 0.9561
0.8049 10.8263 -1.8139 0.9569
0.5842 10.4860 -1.7548 0.9583
0.4514 10.4215 -1.7429 0.9586
0.3857 10.3896 -1.7372 0.9587
0.3204 10.3579 -1.7315 0.9588
0.2555 10.3264 -1.7259 0.9590
0.0000 10.3679 -1.7323 0.9588
-0.0641 10.3691 -1.7326 0.9588
-0.2560 10.3464 -1.7293 0.9589
-0.3209 10.3740 -1.7342 0.9588
-0.4495 10.3764 -1.7354 0.9588
-0.5138 10.3776 -1.7361 0.9587
-0.5783 10.3789 -1.7369 0.9587
-0.6353 10.2600 -1.7176 0.9592
-0.6998 10.2715 -1.7202 0.9591
-0.8375 10.3954 -1.7426 0.9586
-0.9054 10.4316 -1.7495 0.9584
-0.9739 10.4682 -1.7566 0.9583
-1.0429 10.5050 -1.7639 0.9581
-1.1772 10.5317 -1.7707 0.9579
-1.2845 10.8813 -1.8307 0.9565
-1.4526 11.1223 -1.8742 0.9555
-1.5373 11.2294 -1.8938 0.9551
-1.9064 11.7540 -1.9896 0.9529
-1.9813 11.7554 -1.9919 0.9528
-2.1317 11.7583 -1.9967 0.9527
-2.3586 11.7626 -2.0045 0.9525
-2.4017 11.6044 -1.9800 0.9531
-2.4365 9.9056 -1.7044 0.9595
-2.4414 9.6672 -1.6660 0.9604
-2.4461 9.4396 -1.6293 0.9612
-2.5690 9.2072 -1.5972 0.9620
-2.6310 9.2088 -1.6002 0.9619
-2.9734 10.1687 -1.7702 0.9579
-3.1114 10.1719 -1.7773 0.9578
-3.1808 10.1735 -1.7810 0.9577
-3.2505 10.1751 -1.7848 0.9576
-3.3205 10.1767 -1.7886 0.9575
-3.5324 10.1816 -1.8007 0.9572
-1.7849 4.8520 -0.8638 0.9793
-1.7851 4.5881 -0.8226 0.9802
-1.7852 4.5057 -0.8098 0.9805
-1.7853 4.3482 -0.7854 0.9811
-1.7854 4.2729 -0.7738 0.9814
-1.7855 4.1999 -0.7625 0.9817
-1.7855 4.1289 -0.7516 0.9819
-1.7857 3.9277 -0.7209 0.9827
-1.7858 3.8024 -0.7019 0.9831
-1.7859 3.7422 -0.6928 0.9833
-1.7859 3.6836 -0.6840 0.9835
-1.7860 3.5706 -0.6671 0.9839
-1.7861 3.4630 -0.6511 0.9843
-1.7862 3.3605 -0.6359 0.9847
-1.7863 3.3111 -0.6286 0.9849
-1.7863 3.2627 -0.6215 0.9850
-1.7864 3.2154 -0.6146 0.9852
-1.7864 3.1692 -0.6079 0.9854
-1.7865 3.1239 -0.6013 0.9855
-1.7865 3.0796 -0.5949 0.9857
-1.7865 3.0363 -0.5886 0.9858
-1.7866 2.9938 -0.5825 0.9860
-1.7866 2.9523 -0.5766 0.9861
-1.7867 2.8325 -0.5596 0.9865
-1.7868 2.7564 -0.5489 0.9868
-1.7869 2.6477 -0.5337 0.9871
-1.7869 2.6127 -0.5289 0.9872
-1.7870 2.5447 -0.5195 0.9875
-1.7870 2.5116 -0.5150 0.9876
-1.7871 2.4790 -0.5106 0.9877
-1.7871 2.4470 -0.5063 0.9878
-1.7872 2.3846 -0.4979 0.9880
-1.7873 2.2947 -0.4860 0.9883
-1.7873 2.2657 -0.4822 0.9884
-1.7873 2.2372 -0.4784 0.9885
-1.7874 2.1541 -0.4677 0.9887
-1.7874 2.1272 -0.4642 0.9888
-1.7875 2.1007 -0.4609 0.9889
-1.7875 2.0746 -0.4576 0.9890
-1.7875 2.0489 -0.4543 0.9890
-1.7875 2.0235 -0.4511 0.9891
-1.7876 1.9738 -0.4449 0.9893
-1.7876 1.9495 -0.4419 0.9893
-1.7876 1.9255 -0.4390 0.9894
-1.7878 1.8100 -0.4251 0.9897
-1.7984 1.7115 -0.4148 0.9900
-1.8439 1.7119 -0.4204 0.9898
-1.8671 1.7121 -0.4233 0.9898
-1.8906 1.7123 -0.4262 0.9897
-1.9387 1.7126 -0.4322 0.9896
-2.0392 1.7135 -0.4450 0.9893
-2.0917 1.7139 -0.4518 0.9891
-2.1185 1.7141 -0.4553 0.9890
-2.2017 1.7148 -0.4663 0.9887
-2.2303 1.7150 -0.4701 0.9887
-2.2593 1.7153 -0.4740 0.9886
-2.3190 1.7157 -0.4820 0.9884
-2.3496 1.7160 -0.4861 0.9883
-2.4446 1.7168 -0.4991 0.9880
-2.4775 1.7171 -0.5036 0.9879
-2.5796 1.7179 -0.5178 0.9875
-2.6150 1.7182 -0.5228 0.9874
-2.6510 1.7185 -0.5279 0.9873
-2.6878 1.7188 -0.5331 0.9871
-2.7252 1.7191 -0.5384 0.9870
-2.7635 1.7194 -0.5438 0.9869
-2.8025 1.7198 -0.5494 0.9868
-2.8423 1.7201 -0.5551 0.9866
-2.8830 1.7205 -0.5610 0.9865
-3.1000 1.7223 -0.5925 0.9857
-3.1939 1.7231 -0.6064 0.9854
-3.3946 1.7244 -0.6362 0.9847
-3.4479 1.7247 -0.6441 0.9845
-3.6750 1.7260 -0.6784 0.9837
-3.7980 1.7267 -0.6971 0.9832
-3.8620 1.7271 -0.7069 0.9830
-3.9957 1.7279 -0.7274 0.9825
-4.0654 1.7283 -0.7381 0.9822
-4.2114 1.7292 -0.7607 0.9817
-4.6189 1.7316 -0.8242 0.9802
-4.8017 1.7327 -0.8529 0.9795
-5.2085 1.7352 -0.9173 0.9780
-5.3201 1.7359 -0.9350 0.9776
-5.5566 1.7373 -0.9728 0.9767
-5.8131 1.7389 -1.0138 0.9757
-6.5607 1.7435 -1.1342 0.9728
-7.1015 1.7468 -1.2219 0.9708
-7.3008 1.7480 -1.2543 0.9700
-7.5111 1.7493 -1.2886 0.9692
-8.7368 1.8082 -1.4907 0.9645
-9.6822 1.7553 -1.6441 0.9609
-10.0376 1.7557 -1.7026 0.9595
-14.2586 2.2222 -2.4112 0.9432
-14.2972 1.9572 -2.4111 0.9432
-14.3090 1.8688 -2.4111 0.9432
-14.3202 1.7803 -2.4111 0.9432
-14.3506 1.5143 -2.4111 0.9432
-14.3596 1.4255 -2.4111 0.9432
-14.3760 1.2478 -2.4111 0.9432
-14.3902 1.0698 -2.4110 0.9432
-14.4022 0.8918 -2.4110 0.9432
-14.4073 0.8027 -2.4110 0.9432
-14.4119 0.7136 -2.4110 0.9432
-14.4160 0.6245 -2.4110 0.9432
-13.7952 -0.0000 -2.4104 0.9455
-13.7939 -0.1706 -2.4104 0.9455
-13.7905 -0.3412 -2.4103 0.9455
-13.7881 -0.4265 -2.4103 0.9455
-13.7851 -0.5118 -2.4103 0.9455
-13.7729 -0.7674 -2.4102 0.9455
-13.7621 -0.9376 -2.4102 0.9455
-13.7259 -1.3626 -2.4101 0.9455
-13.7171 -1.4475 -2.4101 0.9455
-13.7077 -1.5322 -2.4100 0.9455
-13.6874 -1.7016 -2.4100 0.9455
-13.6765 -1.7862 -2.4100 0.9455
-13.6276 -2.1239 -2.4099 0.9455
-13.6140 -2.2081 -2.4098 0.9455
-13.6000 -2.2922 -2.4098 0.9455
-13.5854 -2.3763 -2.4098 0.9455
-13.5703 -2.4602 -2.4097 0.9455
-13.5218 -2.7114 -2.4097 0.9455
-13.4869 -2.8784 -2.4096 0.9455
-13.4687 -2.9617 -2.4096 0.9455
-13.4499 -3.0449 -2.4095 0.9455
-13.4307 -3.1280 -2.4095 0.9455
-13.3698 -3.3765 -2.4094 0.9455
-13.3485 -3.4590 -2.4094 0.9455
-13.3267 -3.5415 -2.4094 0.9455
-13.3044 -3.6238 -2.4093 0.9455
-13.2815 -3.7059 -2.4093 0.9455
-13.2099 -3.9515 -2.4092 0.9455
-13.1074 -4.2768 -2.4091 0.9456
-13.0531 -4.4385 -2.4090 0.9456
-13.0252 -4.5190 -2.4089 0.9456
-12.9968 -4.5994 -2.4089 0.9456
-12.9679 -4.6796 -2.4089 0.9456
-12.9386 -4.7597 -2.4088 0.9456
-12.8161 -5.0779 -2.4087 0.9456
-12.7842 -5.1570 -2.4086 0.9456
-12.6519 -5.4713 -2.4085 0.9456
-12.5829 -5.6272 -2.4084 0.9456
-12.5476 -5.7047 -2.4084 0.9456
-12.5119 -5.7822 -2.4083 0.9456
-12.4390 -5.9363 -2.4082 0.9456
-12.4018 -6.0130 -2.4082 0.9456
-12.3261 -6.1657 -2.4081 0.9456
-11.9193 -6.9144 -2.4077 0.9456
-11.8760 -6.9879 -2.4076 0.9456
-11.6073 -7.4228 -2.4074 0.9456
-11.5609 -7.4943 -2.4073 0.9456
-11.5141 -7.5654 -2.4073 0.9456
-11.4192 -7.7070 -2.4072 0.9456
-11.3711 -7.7773 -2.4071 0.9456
-11.1744 -8.0555 -2.4069 0.9456
-10.8137 -8.5303 -2.4066 0.9456
-10.7605 -8.5968 -2.4065 0.9456
-10.5985 -8.7944 -2.4064 0.9456
-10.5436 -8.8596 -2.4063 0.9456
-10.4884 -8.9244 -2.4062 0.9456
-10.2064 -9.2434 -2.4060 0.9456
-10.1488 -9.3061 -2.4059 0.9456
-10.0325 -9.4305 -2.4058 0.9456
-9.9146 -9.5534 -2.4057 0.9456
-9.8551 -9.6143 -2.4057 0.9456
-9.6744 -9.7948 -2.4055 0.9456
-9.6134 -9.8543 -2.4054 0.9456
-9.5521 -9.9133 -2.4054 0.9456
-9.4904 -9.9719 -2.4053 0.9456
-9.4283 -10.0302 -2.4053 0.9456
-9.3659 -10.0880 -2.4052 0.9456
-9.3031 -10.1456 -2.4052 0.9456
-9.2400 -10.2027 -2.4051 0.9456
-9.1765 -10.2594 -2.4050 0.9456
-9.1126 -10.3157 -2.4050 0.9456
-9.0484 -10.3716 -2.4049 0.9456
-8.9190 -10.4822 -2.4048 0.9456
-8.7883 -10.5912 -2.4047 0.9456
-8.4556 -10.8565 -2.4044 0.9457
-8.2522 -11.0107 -2.4042 0.9457
-8.1837 -11.0612 -2.4042 0.9457
-8.1149 -11.1113 -2.4041 0.9457
-7.9068 -11.2592 -2.4039 0.9457
-7.8368 -11.3076 -2.4039 0.9457
-7.7666 -11.3555 -2.4038 0.9457
-7.5540 -11.4968 -2.4036 0.9457
-7.4826 -11.5430 -2.4036 0.9457
-7.4109 -11.5887 -2.4035 0.9457
-7.2666 -11.6789 -2.4034 0.9457
-7.1212 -11.7673 -2.4033 0.9457
-6.9012 -11.8964 -2.4031 0.9457
-6.7531 -11.9803 -2.4030 0.9457
-6.6788 -12.0216 -2.4029 0.9457
-6.5292 -12.1026 -2.4028 0.9457
-6.4541 -12.1424 -2.4027 0.9457
-6.3787 -12.1818 -2.4026 0.9457
-6.1511 -12.2971 -2.4025 0.9457
-6.0748 -12.3346 -2.4024 0.9457
-5.6122 -12.5495 -2.4020 0.9457
-5.5343 -12.5836 -2.4020 0.9457
-5.4563 -12.6173 -2.4019 0.9457
-5.3780 -12.6504 -2.4018 0.9457
-5.2995 -12.6831 -2.4018 0.9457
-5.0629 -12.7782 -2.4016 0.9457
-4.9042 -12.8392 -2.4014 0.9457
-4.8246 -12.8689 -2.4014 0.9457
-4.7448 -12.8982 -2.4013 0.9457
-4.4239 -13.0102 -2.4011 0.9457
-4.3432 -13.0370 -2.4010 0.9457
-4.0190 -13.1391 -2.4008 0.9457
-3.9376 -13.1633 -2.4007 0.9457
-3.6924 -13.2331 -2.4005 0.9457
-3.4460 -13.2982 -2.4003 0.9457
-3.3636 -13.3189 -2.4002 0.9457
-3.2811 -13.3391 -2.4002 0.9457
-3.1157 -13.3779 -2.4001 0.9458
-3.0328 -13.3966 -2.4000 0.9458
-2.9498 -13.4148 -2.3999 0.9458
-2.8667 -13.4324 -2.3999 0.9458
-2.7002 -13.4661 -2.3997 0.9458
-2.6168 -13.4822 -2.3997 0.9458
-2.5333 -13.4978 -2.3996 0.9458
-2.4497 -13.5128 -2.3995 0.9458
-1.9465 -13.5922 -2.3992 0.9458
-1.7781 -13.6146 -2.3990 0.9458
-1.6095 -13.6348 -2.3989 0.9458
-1.5251 -13.6441 -2.3989 0.9458
-1.4407 -13.6530 -2.3988 0.9458
-1.2716 -13.6690 -2.3987 0.9458
-0.8483 -13.7000 -2.3984 0.9458
-0.6788 -13.7088 -2.3982 0.9458
-0.5940 -13.7123 -2.3982 0.9458
-0.5092 -13.7154 -2.3981 0.9458
-0.3395 -13.7199 -2.3980 0.9458
-0.2546 -13.7214 -2.3979 0.9458
0.0000 -13.7227 -2.3977 0.9458
0.1697 -13.7210 -2.3976 0.9458
0.2546 -13.7193 -2.3976 0.9458
0.3394 -13.7171 -2.3975 0.9458
0.4242 -13.7145 -2.3974 0.9458
0.6785 -13.7032 -2.3973 0.9458
0.7632 -13.6984 -2.3972 0.9458
0.8479 -13.6930 -2.3971 0.9458
0.9325 -13.6872 -2.3971 0.9458
1.0171 -13.6808 -2.3970 0.9458
1.1017 -13.6739 -2.3970 0.9458
1.5237 -13.6316 -2.3967 0.9458
1.6921 -13.6111 -2.3965 0.9458
1.7762 -13.6000 -2.3965 0.9458
1.8602 -13.5885 -2.3964 0.9458
2.0281 -13.5637 -2.3963 0.9458
2.1119 -13.5506 -2.3962 0.9458
2.1956 -13.5370 -2.3962 0.9458
2.2792 -13.5228 -2.3961 0.9458
2.5295 -13.4772 -2.3960 0.9458
2.6959 -13.4443 -2.3958 0.9458
2.8618 -13.4093 -2.3957 0.9458
3.0273 -13.3722 -2.3956 0.9458
3.1098 -13.3530 -2.3956 0.9458
3.1923 -13.3332 -2.3955 0.9459
3.3568 -13.2921 -2.3954 0.9459
3.4388 -13.2707 -2.3953 0.9459
3.5208 -13.2489 -2.3953 0.9459
3.7657 -13.1804 -2.3951 0.9459
4.2515 -13.0299 -2.3948 0.9459
4.3319 -13.0031 -2.3948 0.9459
4.4121 -12.9757 -2.3947 0.9459
4.9688 -12.7707 -2.3943 0.9459
5.0475 -12.7395 -2.3943 0.9459
5.1261 -12.7077 -2.3942 0.9459
5.3607 -12.6097 -2.3941 0.9459
5.5160 -12.5419 -2.3940 0.9459
5.6704 -12.4722 -2.3939 0.9459
5.9005 -12.3641 -2.3938 0.9459
6.2793 -12.1746 -2.3935 0.9459
6.3544 -12.1353 -2.3935 0.9459
6.4292 -12.0955 -2.3934 0.9459
6.5037 -12.0553 -2.3934 0.9459
6.5780 -12.0146 -2.3933 0.9459
6.6521 -11.9735 -2.3933 0.9459
6.8727 -11.8474 -2.3932 0.9459
6.9457 -11.8044 -2.3931 0.9459
7.4491 -11.4913 -2.3928 0.9459
7.5199 -11.4448 -2.3928 0.9459
7.8001 -11.2546 -2.3926 0.9459
8.0072 -11.1074 -2.3925 0.9459
8.1437 -11.0071 -2.3924 0.9459
8.2114 -10.9563 -2.3924 0.9459
8.4794 -10.7492 -2.3922 0.9459
8.5456 -10.6964 -2.3922 0.9459
8.6769 -10.5896 -2.3921 0.9459
8.7421 -10.5356 -2.3921 0.9459
8.8070 -10.4812 -2.3920 0.9459
9.2514 -10.0891 -2.3918 0.9459
9.5582 -9.7976 -2.3916 0.9459
9.6784 -9.6784 -2.3916 0.9459
9.7379 -9.6183 -2.3915 0.9459
9.8559 -9.4969 -2.3915 0.9459
9.9143 -9.4356 -2.3914 0.9459
9.9724 -9.3740 -2.3914 0.9459
10.1442 -9.1871 -2.3913 0.9459
10.2007 -9.1240 -2.3913 0.9459
10.2568 -9.0606 -2.3913 0.9459
10.3678 -8.9329 -2.3912 0.9459
10.4773 -8.8038 -2.3912 0.9459
10.5314 -8.7387 -2.3911 0.9459
10.5851 -8.6733 -2.3911 0.9459
10.6386 -8.6076 -2.3911 0.9459
10.6914 -8.5416 -2.3911 0.9459
10.8989 -8.2742 -2.3910 0.9460
11.1490 -7.9329 -2.3908 0.9460
11.1977 -7.8637 -2.3908 0.9460
11.3884 -7.5841 -2.3907 0.9460
11.4812 -7.4425 -2.3907 0.9460
11.5722 -7.2998 -2.3907 0.9460
11.6170 -7.2281 -2.3906 0.9460
11.7053 -7.0838 -2.3906 0.9460
11.7919 -6.9383 -2.3906 0.9460
11.8345 -6.8652 -2.3906 0.9460
11.9183 -6.7182 -2.3905 0.9460
11.9596 -6.6444 -2.3905 0.9460
12.0407 -6.4959 -2.3905 0.9460
12.0806 -6.4212 -2.3905 0.9460
12.1589 -6.2712 -2.3904 0.9460
12.2730 -6.0445 -2.3904 0.9460
12.3467 -5.8922 -2.3904 0.9460
12.3828 -5.8157 -2.3904 0.9460
12.4185 -5.7390 -2.3904 0.9460
12.5898 -5.3522 -2.3903 0.9460
12.6226 -5.2742 -2.3903 0.9460
12.6548 -5.1961 -2.3903 0.9460
12.6868 -5.1177 -2.3903 0.9460
12.7794 -4.8814 -2.3903 0.9460
12.8093 -4.8023 -2.3903 0.9460
12.8677 -4.6435 -2.3903 0.9460
12.9515 -4.4039 -2.3902 0.9460
12.9785 -4.3237 -2.3902 0.9460
13.0050 -4.2434 -2.3902 0.9460
13.0309 -4.1629 -2.3902 0.9460
13.0814 -4.0014 -2.3902 0.9460
13.1299 -3.8393 -2.3902 0.9460
13.1763 -3.6766 -2.3902 0.9460
13.1988 -3.5950 -2.3902 0.9460
13.2633 -3.3495 -2.3902 0.9460
13.2837 -3.2675 -2.3902 0.9460
13.3037 -3.1853 -2.3902 0.9460
13.3421 -3.0205 -2.3902 0.9460
13.3606 -2.9379 -2.3902 0.9460
13.3959 -2.7724 -2.3902 0.9460
13.4451 -2.5235 -2.3903 0.9460
13.4605 -2.4403 -2.3903 0.9460
13.4754 -2.3570 -2.3903 0.9460
13.4897 -2.2736 -2.3903 0.9460
13.5035 -2.1902 -2.3903 0.9460
13.5420 -1.9393 -2.3903 0.9460
13.5538 -1.8555 -2.3903 0.9460
13.5758 -1.6878 -2.3903 0.9460
13.5860 -1.6037 -2.3903 0.9460
13.5957 -1.5197 -2.3903 0.9460
13.6049 -1.4356 -2.3904 0.9460
13.6218 -1.2672 -2.3904 0.9460
13.6365 -1.0987 -2.3904 0.9460
13.6548 -0.8455 -2.3904 0.9460
13.6598 -0.7611 -2.3904 0.9460
13.6683 -0.5921 -2.3905 0.9460
13.6718 -0.5075 -2.3905 0.9460
13.6748 -0.4230 -2.3905 0.9460
13.6791 -0.2538 -2.3905 0.9460
13.6814 -0.0846 -2.3906 0.9460
13.6697 0.5921 -2.3907 0.9460
13.6615 0.7612 -2.3907 0.9460
13.6567 0.8456 -2.3908 0.9460
13.6390 1.0989 -2.3908 0.9460
13.6246 1.2675 -2.3909 0.9460
13.6166 1.3517 -2.3909 0.9460
13.6081 1.4359 -2.3909 0.9460
13.5991 1.5201 -2.3909 0.9460
13.5896 1.6042 -2.3910 0.9460
13.5690 1.7722 -2.3910 0.9459
13.5579 1.8560 -2.3910 0.9459
13.5463 1.9399 -2.3911 0.9459
13.5216 2.1073 -2.3911 0.9459
13.5084 2.1909 -2.3911 0.9459
13.4948 2.2744 -2.3912 0.9459
13.4659 2.4412 -2.3912 0.9459
13.4188 2.6907 -2.3913 0.9459
13.4020 2.7737 -2.3913 0.9459
13.3848 2.8565 -2.3914 0.9459
13.3670 2.9393 -2.3914 0.9459
11.7093 2.6508 -2.0977 0.9524
11.5069 2.6799 -2.0644 0.9532
11.1390 2.6670 -2.0013 0.9546
10.5566 2.6660 -1.9024 0.9568
10.2799 2.6638 -1.8555 0.9578
9.5118 2.6541 -1.7255 0.9607
9.2786 2.6510 -1.6861 0.9616
8.6063 2.6908 -1.5755 0.9640
8.3808 2.7346 -1.5403 0.9648
8.2740 2.7564 -1.5238 0.9652
8.1783 2.8374 -1.5125 0.9655
8.1485 2.9405 -1.5136 0.9654
8.1408 2.9947 -1.5156 0.9654
8.1260 3.1039 -1.5199 0.9653
8.1249 3.2192 -1.5270 0.9651
8.1160 3.3912 -1.5369 0.9649
8.1135 3.5087 -1.5445 0.9647
8.1140 3.5686 -1.5488 0.9646
8.1151 3.6291 -1.5533 0.9645
8.1243 3.8157 -1.5683 0.9642
8.1391 3.9462 -1.5805 0.9639
8.1519 4.0148 -1.5877 0.9638
11.3988 5.8791 -2.2410 0.9493
11.2883 6.0899 -2.2411 0.9493
11.2507 6.1597 -2.2412 0.9492
11.2126 6.2293 -2.2412 0.9492
11.1740 6.2987 -2.2412 0.9492
11.1351 6.3678 -2.2413 0.9492
11.0957 6.4366 -2.2413 0.9492
11.0559 6.5052 -2.2414 0.9492
11.0156 6.5736 -2.2414 0.9492
10.9750 6.6417 -2.2414 0.9492
10.8924 6.7772 -2.2415 0.9492
10.8505 6.8446 -2.2416 0.9492
10.8082 6.9117 -2.2416 0.9492
10.7368 7.0547 -2.2447 0.9492
10.6931 7.1210 -2.2448 0.9492
10.6490 7.1871 -2.2448 0.9492
10.6044 7.2529 -2.2448 0.9492
10.5141 7.3836 -2.2449 0.9492
10.4684 7.4486 -2.2449 0.9492
10.4223 7.5133 -2.2449 0.9492
10.3757 7.5776 -2.2449 0.9492
10.2814 7.7056 -2.2450 0.9492
10.2337 7.7691 -2.2450 0.9492
10.1856 7.8323 -2.2450 0.9492
10.1371 7.8953 -2.2451 0.9492
10.0389 8.0202 -2.2451 0.9492
3.9263 3.1768 -0.8825 0.9797
3.8853 3.1836 -0.8777 0.9798
3.7458 3.1873 -0.8594 0.9802
3.6997 3.1876 -0.8533 0.9804
3.6631 3.1958 -0.8494 0.9805
3.5898 3.2511 -0.8462 0.9805
3.5122 3.3015 -0.8422 0.9806
3.4859 3.3176 -0.8408 0.9806
3.4061 3.4062 -0.8417 0.9806
3.3766 3.4612 -0.8449 0.9806
3.3285 3.5410 -0.8491 0.9805
3.3121 3.5675 -0.8506 0.9804
3.2955 3.5939 -0.8520 0.9804
3.3408 3.8774 -0.8943 0.9794
3.3669 3.9570 -0.9078 0.9791
3.4227 4.1249 -0.9365 0.9785
8.1476 9.9435 -2.2462 0.9491
7.9620 10.0934 -2.2463 0.9491
7.7738 10.2398 -2.2464 0.9491
7.7104 10.2879 -2.2464 0.9491
7.6450 10.3331 -2.2459 0.9491
7.2839 10.2369 -2.1952 0.9503
7.1787 10.2223 -2.1826 0.9505
6.9548 10.1686 -2.1525 0.9512
6.8727 10.1832 -2.1466 0.9513
6.6292 10.2265 -2.1294 0.9517
6.5808 10.2907 -2.1343 0.9516
6.5140 10.3264 -2.1333 0.9516
6.3138 10.4332 -2.1308 0.9517
6.1807 10.5043 -2.1295 0.9517
6.0986 10.5129 -2.1236 0.9518
6.0443 10.5694 -2.1274 0.9518
5.9897 10.6260 -2.1313 0.9517
5.9350 10.6828 -2.1353 0.9516
5.8801 10.7399 -2.1394 0.9515
5.8250 10.7971 -2.1436 0.9514
5.7265 11.1028 -2.1828 0.9505
5.6842 11.1900 -2.1930 0.9503
5.6454 11.2860 -2.2049 0.9500
5.6068 11.5641 -2.2455 0.9492
5.5403 11.6093 -2.2476 0.9491
5.4685 11.6436 -2.2477 0.9491
5.3243 11.7107 -2.2477 0.9491
5.2518 11.7436 -2.2478 0.9491
5.1792 11.7761 -2.2478 0.9491
5.1064 11.8081 -2.2479 0.9491
5.0333 11.8397 -2.2479 0.9491
4.8867 11.9015 -2.2480 0.9491
4.6653 11.9908 -2.2481 0.9491
4.5912 12.0196 -2.2482 0.9491
4.4423 12.0759 -2.2482 0.9491
4.2178 12.1570 -2.2484 0.9491
4.1426 12.1830 -2.2484 0.9491
3.7643 12.3065 -2.2486 0.9491
3.6882 12.3298 -2.2487 0.9491
3.5356 12.3749 -2.2488 0.9491
3.3824 12.4182 -2.2489 0.9491
3.2287 12.4596 -2.2489 0.9491
3.0744 12.4990 -2.2490 0.9491
2.8422 12.5547 -2.2492 0.9491
2.7646 12.5722 -2.2492 0.9491
2.5310 12.6221 -2.2493 0.9491
2.4529 12.6378 -2.2494 0.9491
2.2965 12.6677 -2.2495 0.9491
2.2182 12.6819 -2.2495 0.9491
1.9827 12.7216 -2.2497 0.9491
1.9040 12.7339 -2.2497 0.9491
1.8252 12.7457 -2.2497 0.9491
1.7464 12.7570 -2.2498 0.9491
1.6675 12.7678 -2.2498 0.9491
1.5886 12.7782 -2.2499 0.9491
1.1084 11.1656 -1.9605 0.9555
0.8763 10.8767 -1.9066 0.9567
0.8049 10.8261 -1.8968 0.9569
0.7165 10.5160 -1.8417 0.9581
0.5842 10.4860 -1.8350 0.9583
0.4514 10.4215 -1.8226 0.9585
0.1902 10.2516 -1.7915 0.9592
0.1267 10.2428 -1.7898 0.9593
0.0000 10.3678 -1.8115 0.9588
-0.0641 10.3691 -1.8118 0.9588
-0.1924 10.3715 -1.8125 0.9588
-0.3851 10.3752 -1.8141 0.9587
-0.4495 10.3764 -1.8147 0.9587
-0.5138 10.3776 -1.8155 0.9587
-0.6353 10.2600 -1.7961 0.9591
-0.8375 10.3954 -1.8223 0.9585
-0.9054 10.4316 -1.8295 0.9584
-0.9739 10.4682 -1.8370 0.9582
-1.1124 10.5421 -1.8522 0.9579
-1.2845 10.8814 -1.9145 0.9565
-1.3571 10.9164 -1.9221 0.9563
-1.4526 11.1224 -1.9599 0.9555
-1.5373 11.2294 -1.9804 0.9550
-2.0564 11.7569 -2.0854 0.9527
-2.2828 11.7612 -2.0934 0.9525
-2.4082 11.2839 -2.0160 0.9542
-2.4145 10.9801 -1.9644 0.9554
-2.4313 10.1548 -1.8245 0.9585
-2.4508 9.2223 -1.6673 0.9620
-2.5083 9.2089 -1.6677 0.9620
-2.5700 9.2105 -1.6708 0.9619
-2.9734 10.1687 -1.8511 0.9579
-3.1073 10.1587 -1.8562 0.9578
-3.1702 10.1395 -1.8562 0.9578
-3.2329 10.1199 -1.8563 0.9578
-3.2955 10.0999 -1.8563 0.9578
-3.3579 10.0795 -1.8563 0.9578
-3.4203 10.0588 -1.8564 0.9578
-3.4825 10.0376 -1.8564 0.9578
-3.5446 10.0161 -1.8564 0.9578
-3.6095 10.0024 -1.8580 0.9577
-1.7851 4.8525 -0.9034 0.9792
-1.7851 4.7616 -0.8885 0.9796
-1.7854 4.4261 -0.8339 0.9808
-1.7856 4.2733 -0.8092 0.9814
-1.7856 4.2003 -0.7975 0.9816
-1.7858 4.0603 -0.7750 0.9821
-1.7859 3.9280 -0.7539 0.9826
-1.7860 3.7425 -0.7246 0.9833
-1.7861 3.6266 -0.7064 0.9837
-1.7862 3.5709 -0.6976 0.9839
-1.7862 3.5164 -0.6891 0.9841
-1.7863 3.4633 -0.6809 0.9843
-1.7864 3.3608 -0.6650 0.9847
-1.7865 3.2156 -0.6427 0.9852
-1.7865 3.1694 -0.6357 0.9853
-1.7866 3.1242 -0.6288 0.9855
-1.7866 3.0798 -0.6221 0.9856
-1.7867 3.0365 -0.6156 0.9858
-1.7867 2.9525 -0.6030 0.9861
-1.7868 2.8718 -0.5910 0.9864
-1.7871 2.6129 -0.5531 0.9872
-1.7871 2.5786 -0.5482 0.9873
-1.7871 2.5448 -0.5433 0.9875
-1.7871 2.5117 -0.5386 0.9876
-1.7872 2.4471 -0.5295 0.9878
-1.7872 2.4157 -0.5250 0.9879
-1.7873 2.3847 -0.5207 0.9880
-1.7873 2.3244 -0.5123 0.9882
-1.7874 2.2949 -0.5082 0.9883
-1.7874 2.2659 -0.5043 0.9883
-1.7874 2.2373 -0.5004 0.9884
-1.7875 2.1815 -0.4928 0.9886
-1.7875 2.1273 -0.4855 0.9888
-1.7876 2.0490 -0.4751 0.9890
-1.7876 2.0237 -0.4718 0.9891
-1.7876 1.9986 -0.4685 0.9892
-1.7877 1.9496 -0.4622 0.9893
-1.7877 1.9019 -0.4561 0.9895
-1.7878 1.8785 -0.4531 0.9895
-1.7878 1.8554 -0.4502 0.9896
-1.7878 1.8101 -0.4445 0.9897
-1.7879 1.7659 -0.4391 0.9898
-1.7879 1.7228 -0.4338 0.9900
-1.7988 1.7120 -0.4339 0.9900
-1.8444 1.7124 -0.4397 0.9898
-1.8676 1.7126 -0.4427 0.9898
-1.8912 1.7127 -0.4458 0.9897
-1.9393 1.7131 -0.4521 0.9895
-1.9639 1.7133 -0.4554 0.9895
-2.0141 1.7138 -0.4621 0.9893
-2.0658 1.7142 -0.4690 0.9892
-2.0923 1.7144 -0.4726 0.9891
-2.1464 1.7148 -0.4800 0.9889
-2.1742 1.7151 -0.4839 0.9888
-2.2023 1.7153 -0.4878 0.9887
-2.2896 1.7160 -0.5000 0.9884
-2.3197 1.7163 -0.5042 0.9884
-2.3503 1.7165 -0.5085 0.9883
-2.4454 1.7173 -0.5221 0.9879
-2.5117 1.7179 -0.5317 0.9877
-2.5805 1.7185 -0.5417 0.9875
-2.7262 1.7197 -0.5632 0.9870
-2.7645 1.7201 -0.5689 0.9869
-2.8434 1.7207 -0.5807 0.9866
-2.8841 1.7211 -0.5868 0.9865
-2.9256 1.7214 -0.5931 0.9863
-2.9681 1.7218 -0.5996 0.9862
-3.1013 1.7230 -0.6199 0.9857
-3.1952 1.7238 -0.6344 0.9854
-3.4493 1.7254 -0.6739 0.9845
-3.5040 1.7257 -0.6825 0.9843
-3.6766 1.7268 -0.7097 0.9836
-3.7373 1.7271 -0.7194 0.9834
-3.7997 1.7275 -0.7293 0.9832
-3.8638 1.7279 -0.7395 0.9830
-3.9297 1.7283 -0.7501 0.9827
-3.9975 1.7287 -0.7610 0.9825
-4.0674 1.7291 -0.7722 0.9822
-4.2135 1.7301 -0.7959 0.9817
-4.2899 1.7305 -0.8083 0.9814
-4.3688 1.7310 -0.8211 0.9811
-4.4503 1.7315 -0.8344 0.9808
-4.7112 1.7331 -0.8771 0.9798
-4.9007 1.7343 -0.9083 0.9791
-5.0006 1.7349 -0.9248 0.9787
-5.2116 1.7362 -0.9598 0.9779
-5.3233 1.7369 -0.9784 0.9775
-5.4393 1.7377 -0.9977 0.9771
-5.5601 1.7384 -1.0179 0.9766
-5.9536 1.7409 -1.0838 0.9751
-6.0964 1.7418 -1.1078 0.9746
-6.5655 1.7447 -1.1870 0.9728
-7.3067 1.7494 -1.3128 0.9700
-7.5173 1.7508 -1.3486 0.9691
-7.9741 1.7535 -1.4266 0.9674
-8.4704 1.8078 -1.5133 0.9654
-8.7367 1.8082 -1.5589 0.9644
-9.3205 1.8091 -1.6589 0.9622
-9.5303 1.7887 -1.6943 0.9614
-9.6821 1.7553 -1.7193 0.9608
-13.6190 2.2089 -2.4107 0.9455
-13.6805 1.7867 -2.4107 0.9455
-13.7015 1.6174 -2.4106 0.9455
-13.7289 1.3629 -2.4106 0.9455
-13.7371 1.2779 -2.4106 0.9455
-13.7446 1.1929 -2.4106 0.9455
-13.7517 1.1079 -2.4106 0.9455
-13.7582 1.0228 -2.4106 0.9455
-13.7746 0.7674 -2.4105 0.9455
-13.7790 0.6822 -2.4105 0.9455
-13.7829 0.5970 -2.4105 0.9455
-13.7862 0.5117 -2.4105 0.9455
-13.7913 0.3412 -2.4105 0.9455
-13.2108 -0.2452 -2.4099 0.9477
-13.2090 -0.3268 -2.4099 0.9477
-13.2066 -0.4085 -2.4099 0.9477
-13.1965 -0.6534 -2.4098 0.9477
-13.1921 -0.7350 -2.4098 0.9477
-13.1872 -0.8166 -2.4098 0.9477
-13.1758 -0.9796 -2.4098 0.9477
-13.1694 -1.0610 -2.4097 0.9477
-13.1625 -1.1425 -2.4097 0.9477
-13.1550 -1.2238 -2.4097 0.9477
-13.0889 -1.7919 -2.4095 0.9477
-13.0774 -1.8728 -2.4095 0.9477
-13.0655 -1.9536 -2.4095 0.9477
-13.0530 -2.0343 -2.4095 0.9477
-13.0266 -2.1956 -2.4094 0.9477
-12.9981 -2.3565 -2.4094 0.9477
-12.9832 -2.4368 -2.4093 0.9477
-12.9517 -2.5971 -2.4093 0.9477
-12.9353 -2.6771 -2.4092 0.9477
-12.9183 -2.7570 -2.4092 0.9477
-12.8829 -2.9165 -2.4092 0.9477
-12.8645 -2.9961 -2.4091 0.9477
-12.8062 -3.2341 -2.4090 0.9477
-12.7649 -3.3922 -2.4090 0.9477
-12.6993 -3.6283 -2.4089 0.9477
-12.6050 -3.9411 -2.4088 0.9477
-12.5802 -4.0189 -2.4087 0.9477
-12.5549 -4.0965 -2.4087 0.9477
-12.5292 -4.1741 -2.4087 0.9477
-12.5030 -4.2514 -2.4086 0.9477
-12.4491 -4.4055 -2.4086 0.9477
-12.4214 -4.4824 -2.4085 0.9477
-12.3932 -4.5591 -2.4085 0.9477
-12.3646 -4.6356 -2.4084 0.9477
-12.3355 -4.7119 -2.4084 0.9477
-12.3060 -4.7880 -2.4084 0.9477
-12.2455 -4.9397 -2.4083 0.9477
-12.1511 -5.1658 -2.4082 0.9477
-12.0859 -5.3155 -2.4081 0.9477
-12.0526 -5.3900 -2.4081 0.9477
-12.0189 -5.4644 -2.4080 0.9477
-11.9500 -5.6124 -2.4080 0.9477
-11.9148 -5.6861 -2.4079 0.9477
-11.8793 -5.7596 -2.4079 0.9477
-11.7698 -5.9787 -2.4078 0.9477
-11.6945 -6.1236 -2.4077 0.9477
-11.5387 -6.4105 -2.4075 0.9477
-11.4171 -6.6231 -2.4074 0.9477
-11.3758 -6.6935 -2.4073 0.9477
-11.3339 -6.7636 -2.4073 0.9477
-11.2917 -6.8334 -2.4072 0.9477
-11.2490 -6.9030 -2.4072 0.9478
-11.2059 -6.9723 -2.4072 0.9478
-11.1623 -7.0413 -2.4071 0.9478
-11.1184 -7.1101 -2.4071 0.9478
-11.0740 -7.1786 -2.4070 0.9478
-10.9839 -7.3147 -2.4069 0.9478
-10.9383 -7.3824 -2.4069 0.9478
-10.8457 -7.5168 -2.4068 0.9478
-10.6071 -7.8478 -2.4065 0.9478
-10.5088 -7.9780 -2.4065 0.9478
-10.4089 -8.1070 -2.4064 0.9478
-10.3584 -8.1711 -2.4063 0.9478
-10.3074 -8.2348 -2.4063 0.9478
-10.2561 -8.2982 -2.4062 0.9478
-10.1523 -8.4241 -2.4061 0.9478
-9.8315 -8.7938 -2.4058 0.9478
-9.7768 -8.8542 -2.4057 0.9478
-9.6660 -8.9741 -2.4056 0.9478
-9.6102 -9.0335 -2.4056 0.9478
-9.5539 -9.0926 -2.4055 0.9478
-9.4973 -9.1513 -2.4055 0.9478
-9.3253 -9.3253 -2.4053 0.9478
-9.2672 -9.3826 -2.4053 0.9478
-9.2088 -9.4395 -2.4052 0.9478
-9.0909 -9.5522 -2.4051 0.9478
-9.0315 -9.6080 -2.4051 0.9478
-8.9717 -9.6635 -2.4050 0.9478
-8.9116 -9.7186 -2.4050 0.9478
-8.6677 -9.9351 -2.4047 0.9478
-8.6059 -9.9883 -2.4047 0.9478
-8.5437 -10.0411 -2.4046 0.9478
-8.3554 -10.1972 -2.4045 0.9478
-8.2920 -10.2484 -2.4044 0.9478
-8.2283 -10.2992 -2.4043 0.9478
-8.0352 -10.4494 -2.4042 0.9478
-7.9050 -10.5475 -2.4041 0.9478
-7.8394 -10.5959 -2.4040 0.9478
-7.5072 -10.8320 -2.4037 0.9478
-7.3723 -10.9234 -2.4036 0.9478
-7.1679 -11.0575 -2.4034 0.9478
-7.0992 -11.1014 -2.4034 0.9478
-6.7518 -11.3142 -2.4031 0.9478
-6.6815 -11.3554 -2.4030 0.9478
-6.6110 -11.3963 -2.4030 0.9478
-6.5402 -11.4366 -2.4029 0.9478
-6.4692 -11.4766 -2.4028 0.9478
-6.3980 -11.5161 -2.4028 0.9478
-6.1105 -11.6697 -2.4025 0.9478
-6.0381 -11.7069 -2.4025 0.9479
-5.8926 -11.7801 -2.4024 0.9479
-5.6726 -11.8865 -2.4022 0.9479
-5.3763 -12.0220 -2.4020 0.9479
-5.0768 -12.1501 -2.4017 0.9479
-5.0014 -12.1809 -2.4016 0.9479
-4.8502 -12.2413 -2.4015 0.9479
-4.7742 -12.2707 -2.4015 0.9479
-4.6219 -12.3282 -2.4013 0.9479
-4.5454 -12.3562 -2.4013 0.9479
-4.2380 -12.4636 -2.4010 0.9479
-3.8501 -12.5871 -2.4007 0.9479
-3.5373 -12.6771 -2.4005 0.9479
-3.4587 -12.6985 -2.4004 0.9479
-3.3012 -12.7396 -2.4003 0.9479
-3.2223 -12.7595 -2.4003 0.9479
-3.1433 -12.7788 -2.4002 0.9479
-3.0641 -12.7977 -2.4001 0.9479
-2.9848 -12.8161 -2.4001 0.9479
-2.9054 -12.8340 -2.4000 0.9479
-2.7463 -12.8683 -2.3999 0.9479
-2.5868 -12.9006 -2.3998 0.9479
-2.3469 -12.9454 -2.3996 0.9479
-2.2667 -12.9593 -2.3995 0.9479
-2.1865 -12.9728 -2.3995 0.9479
-2.1062 -12.9857 -2.3994 0.9479
-1.9453 -13.0101 -2.3993 0.9479
-1.8647 -13.0216 -2.3992 0.9479
-1.7841 -13.0326 -2.3992 0.9479
-1.7035 -13.0430 -2.3991 0.9479
-1.6227 -13.0529 -2.3990 0.9479
-1.4611 -13.0714 -2.3989 0.9479
-1.3802 -13.0798 -2.3989 0.9479
-1.2993 -13.0878 -2.3988 0.9479
-1.2183 -13.0953 -2.3987 0.9479
-1.0562 -13.1087 -2.3986 0.9479
-0.9750 -13.1146 -2.3986 0.9479
-0.8939 -13.1201 -2.3985 0.9479
-0.8127 -13.1250 -2.3984 0.9479
-0.7315 -13.1295 -2.3984 0.9479
-0.6503 -13.1334 -2.3983 0.9479
-0.4878 -13.1398 -2.3982 0.9479
-0.2439 -13.1456 -2.3980 0.9479
-0.1626 -13.1466 -2.3980 0.9479
0.4876 -13.1360 -2.3975 0.9480
0.6500 -13.1283 -2.3974 0.9480
0.7312 -13.1237 -2.3973 0.9480
0.8123 -13.1186 -2.3973 0.9480
0.8934 -13.1130 -2.3972 0.9480
0.9745 -13.1069 -2.3972 0.9480
1.0555 -13.1004 -2.3971 0.9480
1.2982 -13.0776 -2.3969 0.9480
1.3791 -13.0690 -2.3969 0.9480
1.8627 -13.0070 -2.3965 0.9480
1.9430 -12.9949 -2.3965 0.9480
2.1836 -12.9558 -2.3963 0.9480
2.2636 -12.9417 -2.3963 0.9480
2.3436 -12.9272 -2.3962 0.9480
2.5828 -12.8806 -2.3960 0.9480
2.6624 -12.8641 -2.3960 0.9480
2.7418 -12.8471 -2.3959 0.9480
2.8211 -12.8296 -2.3959 0.9480
3.3732 -12.6935 -2.3955 0.9480
3.4515 -12.6721 -2.3955 0.9480
3.5298 -12.6503 -2.3954 0.9480
3.7636 -12.5818 -2.3952 0.9480
3.8412 -12.5580 -2.3952 0.9480
4.0733 -12.4838 -2.3950 0.9480
4.1503 -12.4581 -2.3950 0.9480
4.2272 -12.4320 -2.3949 0.9480
4.3039 -12.4053 -2.3949 0.9480
4.3805 -12.3782 -2.3948 0.9480
4.6091 -12.2940 -2.3947 0.9480
4.7606 -12.2356 -2.3946 0.9480
4.8360 -12.2056 -2.3945 0.9480
4.9113 -12.1753 -2.3945 0.9480
5.0613 -12.1131 -2.3944 0.9480
5.2849 -12.0164 -2.3943 0.9480
5.4329 -11.9497 -2.3942 0.9480
5.5066 -11.9156 -2.3941 0.9480
5.5801 -11.8811 -2.3941 0.9480
5.7263 -11.8107 -2.3940 0.9480
5.7992 -11.7749 -2.3939 0.9480
5.8718 -11.7386 -2.3939 0.9480
6.0163 -11.6646 -2.3938 0.9480
6.0882 -11.6270 -2.3938 0.9480
6.1599 -11.5889 -2.3937 0.9480
6.2313 -11.5504 -2.3937 0.9480
6.3734 -11.4720 -2.3936 0.9480
6.5146 -11.3919 -2.3935 0.9480
6.5848 -11.3511 -2.3935 0.9480
6.6548 -11.3100 -2.3934 0.9480
6.7939 -11.2264 -2.3933 0.9480
6.9320 -11.1411 -2.3932 0.9480
7.0690 -11.0542 -2.3932 0.9480
7.1371 -11.0101 -2.3931 0.9480
7.2050 -10.9656 -2.3931 0.9480
7.2725 -10.9206 -2.3930 0.9481
7.3398 -10.8753 -2.3930 0.9481
7.5399 -10.7367 -2.3929 0.9481
8.1244 -10.2992 -2.3926 0.9481
8.3137 -10.1463 -2.3924 0.9481
8.3761 -10.0945 -2.3924 0.9481
8.4383 -10.0424 -2.3924 0.9481
8.5001 -9.9898 -2.3923 0.9481
8.5616 -9.9369 -2.3923 0.9481
8.6228 -9.8837 -2.3923 0.9481
8.6836 -9.8300 -2.3922 0.9481
8.7441 -9.7760 -2.3922 0.9481
8.8641 -9.6668 -2.3921 0.9481
8.9236 -9.6117 -2.3921 0.9481
8.9828 -9.5562 -2.3921 0.9481
9.0416 -9.5004 -2.3921 0.9481
9.2159 -9.3306 -2.3920 0.9481
9.2733 -9.2733 -2.3919 0.9481
9.3304 -9.2157 -2.3919 0.9481
9.4434 -9.0994 -2.3918 0.9481
9.6102 -8.9222 -2.3918 0.9481
9.6651 -8.8626 -2.3917 0.9481
9.7739 -8.7422 -2.3917 0.9481
9.9339 -8.5591 -2.3916 0.9481
10.0388 -8.4353 -2.3915 0.9481
10.0907 -8.3730 -2.3915 0.9481
10.1422 -8.3104 -2.3915 0.9481
10.2440 -8.1841 -2.3914 0.9481
10.2943 -8.1205 -2.3914 0.9481
10.3442 -8.0566 -2.3914 0.9481
10.4428 -7.9279 -2.3914 0.9481
10.4916 -7.8631 -2.3913 0.9481
10.5878 -7.7327 -2.3913 0.9481
10.7292 -7.5347 -2.3912 0.9481
10.7755 -7.4681 -2.3912 0.9481
10.8214 -7.4013 -2.3912 0.9481
10.8668 -7.3342 -2.3912 0.9481
10.9119 -7.2667 -2.3911 0.9481
11.0880 -6.9944 -2.3911 0.9481
11.1309 -6.9256 -2.3911 0.9481
11.1735 -6.8566 -2.3910 0.9481
11.2156 -6.7873 -2.3910 0.9481
11.2985 -6.6481 -2.3910 0.9481
11.3797 -6.5077 -2.3910 0.9481
11.4592 -6.3664 -2.3909 0.9481
11.4983 -6.2954 -2.3909 0.9481
11.6129 -6.0809 -2.3909 0.9481
11.7595 -5.7917 -2.3908 0.9481
11.7951 -5.7188 -2.3908 0.9481
11.8302 -5.6457 -2.3908 0.9481
11.8990 -5.4989 -2.3908 0.9481
11.9660 -5.3513 -2.3908 0.9481
11.9989 -5.2772 -2.3908 0.9481
12.0312 -5.2028 -2.3907 0.9481
12.0631 -5.1283 -2.3907 0.9481
12.0944 -5.0536 -2.3907 0.9481
12.1560 -4.9036 -2.3907 0.9481
12.1860 -4.8283 -2.3907 0.9481
12.3016 -4.5254 -2.3907 0.9481
12.3294 -4.4492 -2.3907 0.9481
12.3566 -4.3729 -2.3907 0.9481
12.4097 -4.2197 -2.3907 0.9481
12.4356 -4.1429 -2.3907 0.9481
12.5577 -3.7564 -2.3907 0.9481
12.5806 -3.6787 -2.3906 0.9481
12.6251 -3.5228 -2.3906 0.9481
12.6467 -3.4446 -2.3906 0.9481
12.6883 -3.2880 -2.3906 0.9481
12.7280 -3.1308 -2.3907 0.9481
12.7472 -3.0520 -2.3907 0.9481
12.7840 -2.8941 -2.3907 0.9481
12.8355 -2.6565 -2.3907 0.9481
12.8517 -2.5771 -2.3907 0.9481
12.8826 -2.4179 -2.3907 0.9481
12.8974 -2.3382 -2.3907 0.9481
12.9254 -2.1785 -2.3907 0.9481
12.9514 -2.0185 -2.3907 0.9481
12.9637 -1.9384 -2.3907 0.9481
12.9867 -1.7779 -2.3907 0.9481
12.9975 -1.6976 -2.3907 0.9481
13.0357 -1.3755 -2.3908 0.9481
13.0592 -1.1335 -2.3908 0.9481
13.0835 -0.8102 -2.3909 0.9481
13.0926 -0.6483 -2.3909 0.9481
13.0965 -0.5673 -2.3909 0.9481
13.0998 -0.4863 -2.3909 0.9481
13.1026 -0.4053 -2.3909 0.9481
13.1050 -0.3243 -2.3909 0.9481
13.1090 -0.0811 -2.3910 0.9481
13.1091 0.0811 -2.3910 0.9481
13.1085 0.1621 -2.3910 0.9481
13.1073 0.2432 -2.3910 0.9481
13.1057 0.3242 -2.3911 0.9481
13.1035 0.4053 -2.3911 0.9481
13.1008 0.4863 -2.3911 0.9481
13.0940 0.6483 -2.3911 0.9481
13.0899 0.7293 -2.3912 0.9481
13.0852 0.8102 -2.3912 0.9481
13.0801 0.8912 -2.3912 0.9481
13.0744 0.9720 -2.3912 0.9481
13.0683 1.0529 -2.3912 0.9481
13.0616 1.1337 -2.3913 0.9481
13.0545 1.2144 -2.3913 0.9481
13.0387 1.3758 -2.3913 0.9481
13.0301 1.4564 -2.3913 0.9481
13.0209 1.5370 -2.3914 0.9481
13.0113 1.6175 -2.3914 0.9481
12.9678 1.9390 -2.3915 0.9481
12.9164 2.2592 -2.3916 0.9481
12.8878 2.4188 -2.3916 0.9481
12.8572 2.5781 -2.3917 0.9481
12.8411 2.6576 -2.3917 0.9481
12.8076 2.8163 -2.3918 0.9481
11.6824 2.6447 -2.1847 0.9525
10.7178 2.6363 -2.0131 0.9561
10.5403 2.6619 -1.9828 0.9568
10.3223 2.6748 -1.9449 0.9576
9.7400 2.6529 -1.8412 0.9598
9.5031 2.6516 -1.7995 0.9607
9.0681 2.6516 -1.7232 0.9623
8.8691 2.6530 -1.6884 0.9631
8.1949 2.8432 -1.5821 0.9653
8.1769 2.8937 -1.5820 0.9653
8.1567 2.9434 -1.5816 0.9654
8.1472 2.9971 -1.5833 0.9653
8.1318 3.1062 -1.5877 0.9652
8.1260 3.1617 -1.5903 0.9652
8.1182 3.2748 -1.5966 0.9650
8.1099 3.4477 -1.6073 0.9648
8.1100 3.5668 -1.6159 0.9646
8.1225 3.7537 -1.6320 0.9643
8.1272 3.8170 -1.6377 0.9642
8.1286 3.8792 -1.6427 0.9640
8.1314 4.0048 -1.6532 0.9638
10.9214 5.6329 -2.2413 0.9513
10.8865 5.7005 -2.2413 0.9513
10.8512 5.7678 -2.2414 0.9513
10.8156 5.8349 -2.2414 0.9513
10.7795 5.9018 -2.2414 0.9513
10.7060 6.0349 -2.2415 0.9513
10.6687 6.1011 -2.2416 0.9513
10.4361 6.4934 -2.2418 0.9513
10.2314 6.8135 -2.2420 0.9512
10.1467 6.9398 -2.2421 0.9512
10.1171 7.0118 -2.2451 0.9512
9.9856 7.1985 -2.2452 0.9512
9.9410 7.2602 -2.2452 0.9512
3.8375 2.9133 -0.8788 0.9806
3.7921 2.9160 -0.8725 0.9807
3.7027 2.9208 -0.8601 0.9810
3.6626 2.9262 -0.8550 0.9811
3.6304 2.9374 -0.8517 0.9812
3.5680 2.9607 -0.8456 0.9813
3.5061 2.9833 -0.8396 0.9815
3.4753 2.9943 -0.8367 0.9815
3.4445 3.0051 -0.8337 0.9816
3.3642 3.1234 -0.8373 0.9815
3.3235 3.2025 -0.8418 0.9814
3.2956 3.2551 -0.8449 0.9813
3.2808 3.2808 -0.8462 0.9813
3.2656 3.3062 -0.8476 0.9813
3.2502 3.3316 -0.8489 0.9813
3.2347 3.3570 -0.8503 0.9812
3.1759 3.4635 -0.8571 0.9811
3.1495 3.5212 -0.8616 0.9810
3.1356 3.5496 -0.8638 0.9809
3.1211 3.5775 -0.8659 0.9809
3.1065 3.6055 -0.8680 0.9808
3.0898 3.6771 -0.8760 0.9807
3.1021 3.7385 -0.8860 0.9804
3.1269 3.8647 -0.9067 0.9800
3.1395 3.9297 -0.9174 0.9798
3.1521 3.9959 -0.9283 0.9795
3.1649 4.0635 -0.9394 0.9793
7.5083 9.7642 -2.2465 0.9512
7.4479 9.8106 -2.2466 0.9512
7.0171 10.1248 -2.2468 0.9511
6.9545 10.1682 -2.2468 0.9511
6.8916 10.2111 -2.2469 0.9511
6.7409 10.2592 -2.2389 0.9513
6.5808 10.2907 -2.2279 0.9515
6.4472 10.3620 -2.2259 0.9516
6.3805 10.3976 -2.2250 0.9516
6.2472 10.4688 -2.2235 0.9516
6.1807 10.5043 -2.2229 0.9517
6.0711 10.6162 -2.2305 0.9515
6.0163 10.6731 -2.2346 0.9514
5.9062 10.7875 -2.2431 0.9512
5.6488 10.9521 -2.2476 0.9511
5.5810 10.9869 -2.2476 0.9511
5.5131 11.0214 -2.2477 0.9511
5.4449 11.0555 -2.2477 0.9511
5.3079 11.1224 -2.2478 0.9511
5.1701 11.1876 -2.2479 0.9511
5.1009 11.2196 -2.2479 0.9511
4.8222 11.3431 -2.2480 0.9511
4.7521 11.3729 -2.2481 0.9511
4.5405 11.4597 -2.2482 0.9511
4.4696 11.4878 -2.2482 0.9511
4.3986 11.5154 -2.2483 0.9511
3.8966 11.6964 -2.2486 0.9511
3.8243 11.7205 -2.2486 0.9511
3.7518 11.7442 -2.2487 0.9511
3.6792 11.7674 -2.2487 0.9511
3.4604 11.8342 -2.2488 0.9511
3.2404 11.8971 -2.2490 0.9511
3.1669 11.9171 -2.2490 0.9511
3.0194 11.9558 -2.2491 0.9511
2.4995 12.0769 -2.2494 0.9511
2.2751 12.1219 -2.2495 0.9511
2.2001 12.1360 -2.2495 0.9511
1.8241 12.1993 -2.2498 0.9511
1.5975 12.2318 -2.2499 0.9511
1.5219 12.2417 -2.2499 0.9511
1.4462 12.2511 -2.2500 0.9511
0.9571 11.0274 -2.0188 0.9560
0.8763 10.8767 -1.9902 0.9566
0.8049 10.8261 -1.9800 0.9568
0.5842 10.4859 -1.9155 0.9582
0.3204 10.3578 -1.8900 0.9587
0.2555 10.3263 -1.8840 0.9589
0.1902 10.2516 -1.8701 0.9592
0.0641 10.3666 -1.8908 0.9587
0.0000 10.3678 -1.8910 0.9587
-0.2560 10.3463 -1.8876 0.9588
-0.3209 10.3739 -1.8930 0.9587
-0.3851 10.3752 -1.8936 0.9587
-0.4495 10.3764 -1.8943 0.9586
-0.5783 10.3788 -1.8959 0.9586
-0.7702 10.3595 -1.8947 0.9586
-0.8375 10.3954 -1.9022 0.9585
-0.9054 10.4317 -1.9098 0.9583
-1.3571 10.9164 -2.0064 0.9563
-1.6836 11.2602 -2.0766 0.9548
-1.8317 11.7527 -2.1694 0.9528
-1.9064 11.7541 -2.1718 0.9527
-2.0564 11.7570 -2.1769 0.9526
-2.2072 11.7598 -2.1823 0.9525
-2.2828 11.7613 -2.1852 0.9525
-2.4016 11.6039 -2.1613 0.9530
-2.4081 11.2836 -2.1043 0.9542
-2.4143 10.9796 -2.0504 0.9553
-2.4202 10.6908 -1.9992 0.9564
-2.4259 10.4160 -1.9506 0.9574
-2.4312 10.1543 -1.9044 0.9584
-2.4412 9.6664 -1.8184 0.9603
-2.4508 9.2225 -1.7405 0.9619
-2.5092 9.2123 -1.7414 0.9619
-2.5709 9.2139 -1.7447 0.9619
-2.6329 9.2155 -1.7481 0.9618
-2.9201 9.9865 -1.8977 0.9586
-2.9877 9.9880 -1.9015 0.9585
-3.1923 9.9928 -1.9133 0.9582
-3.3301 9.9960 -1.9217 0.9581
-3.3995 9.9975 -1.9260 0.9580
-1.7852 4.8530 -0.9431 0.9792
-1.7853 4.7621 -0.9276 0.9795
-1.7854 4.6742 -0.9126 0.9799
-1.7855 4.5890 -0.8981 0.9802
-1.7855 4.5065 -0.8841 0.9805
-1.7856 4.4265 -0.8706 0.9808
-1.7857 4.2737 -0.8448 0.9813
-1.7858 4.2006 -0.8325 0.9816
-1.7860 3.9936 -0.7979 0.9824
-1.7860 3.9284 -0.7871 0.9826
-1.7861 3.8649 -0.7765 0.9828
-1.7862 3.7428 -0.7564 0.9833
-1.7863 3.6269 -0.7374 0.9837
-1.7863 3.5711 -0.7283 0.9839
-1.7864 3.5167 -0.7194 0.9841
-1.7864 3.4636 -0.7108 0.9843
-1.7865 3.4117 -0.7024 0.9845
-1.7865 3.3610 -0.6942 0.9846
-1.7865 3.3116 -0.6863 0.9848
-1.7866 3.2632 -0.6785 0.9850
-1.7867 3.1696 -0.6636 0.9853
-1.7868 3.0367 -0.6426 0.9858
-1.7869 2.8720 -0.6169 0.9863
-1.7870 2.7568 -0.5992 0.9867
-1.7871 2.7198 -0.5936 0.9869
-1.7871 2.6480 -0.5827 0.9871
-1.7872 2.5787 -0.5722 0.9873
-1.7872 2.5450 -0.5672 0.9874
-1.7873 2.5119 -0.5623 0.9875
-1.7873 2.4473 -0.5527 0.9878
-1.7873 2.4158 -0.5481 0.9879
-1.7874 2.3245 -0.5348 0.9881
-1.7875 2.2950 -0.5306 0.9882
-1.7875 2.2374 -0.5223 0.9884
-1.7875 2.2093 -0.5183 0.9885
-1.7876 2.1543 -0.5106 0.9887
-1.7876 2.1010 -0.5031 0.9888
-1.7877 2.0491 -0.4960 0.9890
-1.7877 2.0238 -0.4925 0.9891
-1.7877 1.9987 -0.4891 0.9892
-1.7878 1.9740 -0.4857 0.9892
-1.7878 1.9257 -0.4793 0.9894
-1.7878 1.9020 -0.4761 0.9894
-1.7879 1.8327 -0.4670 0.9896
-1.7879 1.8102 -0.4641 0.9897
-1.7879 1.7880 -0.4612 0.9898
-1.7880 1.7660 -0.4584 0.9898
-1.7880 1.7229 -0.4529 0.9900
-1.7993 1.7125 -0.4530 0.9900
-1.8449 1.7129 -0.4591 0.9898
-1.8681 1.7130 -0.4623 0.9897
-1.8917 1.7132 -0.4655 0.9897
-1.9156 1.7134 -0.4688 0.9896
-1.9398 1.7136 -0.4721 0.9895
-2.0147 1.7142 -0.4825 0.9893
-2.0404 1.7145 -0.4861 0.9892
-2.0664 1.7147 -0.4897 0.9891
-2.0929 1.7149 -0.4935 0.9891
-2.1198 1.7151 -0.4973 0.9890
-2.1748 1.7156 -0.5052 0.9888
-2.2030 1.7158 -0.5093 0.9887
-2.2317 1.7161 -0.5135 0.9886
-2.2608 1.7163 -0.5177 0.9885
-2.2904 1.7166 -0.5220 0.9884
-2.3205 1.7168 -0.5265 0.9883
-2.4791 1.7182 -0.5501 0.9878
-2.5126 1.7185 -0.5552 0.9877
-2.5467 1.7188 -0.5604 0.9876
-2.6529 1.7197 -0.5766 0.9872
-2.7272 1.7204 -0.5881 0.9870
-2.7655 1.7207 -0.5941 0.9868
-2.8444 1.7214 -0.6064 0.9866
-2.8851 1.7217 -0.6128 0.9864
-3.0127 1.7229 -0.6330 0.9860
-3.0571 1.7233 -0.6401 0.9858
-3.1025 1.7237 -0.6473 0.9857
-3.2946 1.7252 -0.6783 0.9850
-3.4507 1.7261 -0.7037 0.9844
-3.8014 1.7283 -0.7616 0.9832
-4.0693 1.7300 -0.8065 0.9822
-4.2156 1.7309 -0.8312 0.9816
-4.3710 1.7319 -0.8575 0.9811
-4.6238 1.7335 -0.9006 0.9801
-4.7138 1.7341 -0.9161 0.9798
-4.8069 1.7346 -0.9321 0.9794
-5.2147 1.7373 -1.0025 0.9779
-5.3265 1.7380 -1.0219 0.9775
-5.4427 1.7387 -1.0421 0.9770
-5.9576 1.7421 -1.1321 0.9751
-6.4064 1.7449 -1.2110 0.9734
-6.5703 1.7460 -1.2399 0.9727
-6.7422 1.7471 -1.2703 0.9721
-7.1135 1.7497 -1.3361 0.9707
-7.7443 1.7532 -1.4482 0.9682
-7.9740 1.7535 -1.4891 0.9673
-8.7366 1.8082 -1.6272 0.9644
-13.0175 2.2769 -2.4103 0.9477
-13.0313 2.1963 -2.4103 0.9477
-13.0446 2.1157 -2.4103 0.9477
-13.0697 1.9542 -2.4103 0.9477
-13.0927 1.7924 -2.4102 0.9477
-13.1138 1.6303 -2.4102 0.9477
-13.1236 1.5491 -2.4102 0.9477
-13.1329 1.4679 -2.4102 0.9477
-13.1577 1.2240 -2.4102 0.9477
-13.1649 1.1427 -2.4102 0.9477
-13.1837 0.8982 -2.4101 0.9477
-13.1936 0.7351 -2.4101 0.9477
-13.1979 0.6535 -2.4101 0.9477
-13.2048 0.4902 -2.4101 0.9477
-13.2114 0.2451 -2.4100 0.9477
-13.2126 0.1634 -2.4100 0.9477
-13.2132 0.0817 -2.4100 0.9477
-12.6770 -0.0784 -2.4096 0.9497
-12.6749 -0.2352 -2.4095 0.9497
-12.6611 -0.6270 -2.4095 0.9497
-12.6522 -0.7836 -2.4094 0.9497
-12.6413 -0.9400 -2.4094 0.9497
-12.6214 -1.1742 -2.4093 0.9497
-12.6138 -1.2522 -2.4093 0.9497
-12.6057 -1.3302 -2.4093 0.9497
-12.5971 -1.4081 -2.4093 0.9497
-12.5685 -1.6415 -2.4092 0.9497
-12.5580 -1.7192 -2.4092 0.9497
-12.5470 -1.7968 -2.4091 0.9497
-12.5111 -2.0292 -2.4091 0.9497
-12.4982 -2.1065 -2.4090 0.9497
-12.4848 -2.1837 -2.4090 0.9497
-12.4566 -2.3379 -2.4090 0.9497
-12.4417 -2.4149 -2.4089 0.9497
-12.4264 -2.4917 -2.4089 0.9497
-12.3776 -2.7218 -2.4088 0.9497
-12.3604 -2.7982 -2.4088 0.9497
-12.3427 -2.8746 -2.4088 0.9497
-12.3060 -3.0270 -2.4087 0.9497
-12.2472 -3.2546 -2.4086 0.9497
-12.2267 -3.3303 -2.4086 0.9497
-12.2058 -3.4058 -2.4086 0.9497
-12.1843 -3.4811 -2.4085 0.9497
-12.0938 -3.7812 -2.4084 0.9497
-12.0701 -3.8559 -2.4084 0.9497
-11.9960 -4.0790 -2.4083 0.9497
-11.9443 -4.2270 -2.4082 0.9497
-11.8354 -4.5208 -2.4081 0.9497
-11.7782 -4.6667 -2.4080 0.9497
-11.7490 -4.7394 -2.4080 0.9497
-11.7193 -4.8119 -2.4079 0.9497
-11.6891 -4.8842 -2.4079 0.9497
-11.4988 -5.3139 -2.4077 0.9497
-11.4319 -5.4556 -2.4076 0.9497
-11.3977 -5.5261 -2.4076 0.9497
-11.2927 -5.7363 -2.4075 0.9497
-11.2205 -5.8754 -2.4074 0.9497
-11.1090 -6.0822 -2.4073 0.9497
-10.9937 -6.2870 -2.4071 0.9497
-10.7931 -6.6232 -2.4069 0.9497
-10.7518 -6.6897 -2.4069 0.9497
-10.4951 -7.0832 -2.4066 0.9498
-10.4063 -7.2122 -2.4065 0.9498
-10.2701 -7.4036 -2.4064 0.9498
-10.2239 -7.4668 -2.4063 0.9498
-10.1774 -7.5298 -2.4063 0.9498
-10.0353 -7.7168 -2.4062 0.9498
-9.9387 -7.8401 -2.4061 0.9498
-9.8406 -7.9621 -2.4060 0.9498
-9.7910 -8.0226 -2.4059 0.9498
-9.5888 -8.2617 -2.4057 0.9498
-9.5373 -8.3206 -2.4057 0.9498
-9.2210 -8.6677 -2.4054 0.9498
-9.1670 -8.7243 -2.4053 0.9498
-9.1126 -8.7806 -2.4053 0.9498
-9.0583 -8.8367 -2.4052 0.9498
-8.9476 -8.9476 -2.4051 0.9498
-8.6658 -9.2190 -2.4049 0.9498
-8.3167 -9.5329 -2.4046 0.9498
-8.1978 -9.6346 -2.4045 0.9498
-8.0172 -9.7844 -2.4043 0.9498
-7.9563 -9.8336 -2.4042 0.9498
-7.8952 -9.8823 -2.4042 0.9498
-7.7720 -9.9788 -2.4041 0.9498
-7.7100 -10.0264 -2.4040 0.9498
-7.6477 -10.0737 -2.4040 0.9498
-7.3955 -10.2588 -2.4038 0.9498
-7.3317 -10.3042 -2.4037 0.9498
-7.2677 -10.3491 -2.4036 0.9498
-7.2034 -10.3936 -2.4036 0.9498
-6.9435 -10.5676 -2.4034 0.9498
-6.5457 -10.8164 -2.4030 0.9498
-6.4786 -10.8564 -2.4030 0.9498
-6.4112 -10.8960 -2.4029 0.9498
-6.3435 -10.9352 -2.4029 0.9498
-6.2756 -10.9740 -2.4028 0.9498
-6.0705 -11.0877 -2.4026 0.9498
-5.9327 -11.1614 -2.4025 0.9498
-5.8634 -11.1976 -2.4025 0.9498
-5.7939 -11.2334 -2.4024 0.9498
-5.6542 -11.3037 -2.4023 0.9498
-5.5137 -11.3722 -2.4022 0.9498
-5.3724 -11.4389 -2.4021 0.9498
-5.2302 -11.5040 -2.4019 0.9498
-5.1589 -11.5358 -2.4019 0.9498
-4.8715 -11.6588 -2.4017 0.9499
-4.7992 -11.6884 -2.4016 0.9499
-4.4350 -11.8297 -2.4013 0.9499
-4.2881 -11.8831 -2.4012 0.9499
-3.9182 -12.0086 -2.4009 0.9499
-3.8438 -12.0322 -2.4008 0.9499
-3.7692 -12.0555 -2.4008 0.9499
-3.6945 -12.0783 -2.4007 0.9499
-3.6197 -12.1006 -2.4007 0.9499
-3.4696 -12.1438 -2.4006 0.9499
-3.2434 -12.2053 -2.4004 0.9499
-3.1678 -12.2247 -2.4003 0.9499
-3.0921 -12.2438 -2.4003 0.9499
-2.9403 -12.2805 -2.4001 0.9499
-2.8642 -12.2982 -2.4001 0.9499
-2.5589 -12.3641 -2.3999 0.9499
-2.4057 -12.3941 -2.3997 0.9499
-2.2521 -12.4224 -2.3996 0.9499
-2.1751 -12.4358 -2.3996 0.9499
-2.0981 -12.4487 -2.3995 0.9499
-2.0211 -12.4611 -2.3994 0.9499
-1.8667 -12.4845 -2.3993 0.9499
-1.4797 -12.5348 -2.3990 0.9499
-1.3245 -12.5516 -2.3989 0.9499
-1.2468 -12.5592 -2.3989 0.9499
-1.1691 -12.5663 -2.3988 0.9499
-1.0913 -12.5730 -2.3988 0.9499
-1.0135 -12.5793 -2.3987 0.9499
-0.9357 -12.5850 -2.3986 0.9499
-0.8578 -12.5902 -2.3986 0.9499
-0.5461 -12.6063 -2.3984 0.9499
-0.4681 -12.6092 -2.3983 0.9499
-0.3121 -12.6134 -2.3982 0.9499
-0.2341 -12.6148 -2.3981 0.9499
-0.0780 -12.6162 -2.3980 0.9499
0.0000 -12.6161 -2.3980 0.9499
0.0780 -12.6156 -2.3979 0.9499
0.1560 -12.6146 -2.3978 0.9499
0.7017 -12.5940 -2.3975 0.9499
1.0129 -12.5716 -2.3972 0.9499
1.0906 -12.5648 -2.3972 0.9499
1.2458 -12.5497 -2.3971 0.9499
1.3234 -12.5415 -2.3970 0.9499
1.4009 -12.5329 -2.3970 0.9499
1.6331 -12.5038 -2.3968 0.9500
1.7103 -12.4932 -2.3967 0.9500
1.7875 -12.4821 -2.3967 0.9500
2.0186 -12.4460 -2.3965 0.9500
2.0955 -12.4330 -2.3965 0.9500
2.4022 -12.3763 -2.3963 0.9500
2.5550 -12.3451 -2.3962 0.9500
2.7073 -12.3120 -2.3961 0.9500
2.7834 -12.2948 -2.3960 0.9500
3.0863 -12.2211 -2.3958 0.9500
3.1618 -12.2016 -2.3958 0.9500
3.3123 -12.1610 -2.3957 0.9500
3.6118 -12.0744 -2.3955 0.9500
3.9090 -11.9804 -2.3953 0.9500
4.2771 -11.8526 -2.3950 0.9500
4.3503 -11.8256 -2.3950 0.9500
4.4960 -11.7705 -2.3949 0.9500
4.5686 -11.7422 -2.3948 0.9500
4.6410 -11.7135 -2.3948 0.9500
4.7133 -11.6844 -2.3947 0.9500
4.7854 -11.6548 -2.3947 0.9500
4.8573 -11.6247 -2.3946 0.9500
4.9290 -11.5942 -2.3946 0.9500
5.0718 -11.5320 -2.3945 0.9500
5.2846 -11.4353 -2.3944 0.9500
5.3551 -11.4021 -2.3943 0.9500
5.4254 -11.3686 -2.3943 0.9500
5.4955 -11.3346 -2.3942 0.9500
5.5654 -11.3002 -2.3942 0.9500
5.6351 -11.2654 -2.3942 0.9500
5.7045 -11.2301 -2.3941 0.9500
5.7738 -11.1945 -2.3941 0.9500
5.8428 -11.1583 -2.3940 0.9500
5.9801 -11.0848 -2.3939 0.9500
6.0485 -11.0474 -2.3939 0.9500
6.1166 -11.0096 -2.3939 0.9500
6.3866 -10.8542 -2.3937 0.9500
6.5865 -10.7333 -2.3936 0.9500
6.6526 -10.6922 -2.3935 0.9500
6.9794 -10.4805 -2.3933 0.9500
7.2361 -10.3041 -2.3932 0.9500
7.2996 -10.2590 -2.3932 0.9500
7.4883 -10.1213 -2.3930 0.9500
7.5506 -10.0747 -2.3930 0.9500
7.6744 -9.9802 -2.3929 0.9500
7.7359 -9.9324 -2.3929 0.9500
7.9185 -9.7868 -2.3928 0.9500
7.9787 -9.7375 -2.3928 0.9500
8.0983 -9.6378 -2.3927 0.9500
8.1577 -9.5874 -2.3927 0.9500
8.2167 -9.5366 -2.3926 0.9500
8.6774 -9.1177 -2.3924 0.9500
8.7335 -9.0637 -2.3924 0.9500
8.7892 -9.0094 -2.3923 0.9500
9.1169 -8.6766 -2.3922 0.9500
9.1701 -8.6199 -2.3921 0.9500
9.3801 -8.3901 -2.3920 0.9500
9.4830 -8.2732 -2.3920 0.9501
9.6345 -8.0956 -2.3919 0.9501
9.6843 -8.0358 -2.3919 0.9501
9.7337 -7.9757 -2.3919 0.9501
9.7828 -7.9153 -2.3918 0.9501
9.8314 -7.8546 -2.3918 0.9501
9.9276 -7.7322 -2.3918 0.9501
9.9752 -7.6706 -2.3917 0.9501
10.0223 -7.6087 -2.3917 0.9501
10.0691 -7.5465 -2.3917 0.9501
10.1615 -7.4212 -2.3917 0.9501
10.2972 -7.2313 -2.3916 0.9501
10.3416 -7.1674 -2.3916 0.9501
10.3856 -7.1032 -2.3916 0.9501
10.4725 -6.9742 -2.3915 0.9501
10.5578 -6.8440 -2.3915 0.9501
10.5999 -6.7785 -2.3915 0.9501
10.6827 -6.6468 -2.3914 0.9501
10.7236 -6.5805 -2.3914 0.9501
10.7640 -6.5141 -2.3914 0.9501
10.8040 -6.4473 -2.3914 0.9501
10.8436 -6.3803 -2.3914 0.9501
10.9978 -6.1101 -2.3913 0.9501
11.0353 -6.0419 -2.3913 0.9501
11.0724 -5.9735 -2.3913 0.9501
11.2166 -5.6977 -2.3912 0.9501
11.2515 -5.6282 -2.3912 0.9501
11.2861 -5.5585 -2.3912 0.9501
11.3871 -5.3480 -2.3912 0.9501
11.4199 -5.2775 -2.3912 0.9501
11.4842 -5.1358 -2.3912 0.9501
11.5774 -4.9218 -2.3911 0.9501
11.6373 -4.7782 -2.3911 0.9501
11.7239 -4.5615 -2.3911 0.9501
11.7518 -4.4889 -2.3911 0.9501
11.7793 -4.4162 -2.3911 0.9501
11.8591 -4.1968 -2.3911 0.9501
11.8849 -4.1234 -2.3911 0.9501
11.9349 -3.9760 -2.3911 0.9501
11.9593 -3.9022 -2.3911 0.9501
12.0741 -3.5306 -2.3910 0.9501
