ply
format ascii 1.0
element vertex 1549
property float32 x
property float32 y
property float32 z
property float32 I
end_header
-26.1802 -0.9719 -2.3989 0.9001
-26.1730 -1.1338 -2.3988 0.9001
-26.1647 -1.2955 -2.3987 0.9001
-26.1555 -1.4573 -2.3987 0.9001
-26.1341 -1.7806 -2.3985 0.9001
-26.0791 -2.4262 -2.3983 0.9001
-26.0630 -2.5873 -2.3982 0.9001
-26.0083 -3.0702 -2.3980 0.9002
-25.9882 -3.2309 -2.3979 0.9002
-25.9448 -3.5518 -2.3978 0.9002
-25.9217 -3.7121 -2.3977 0.9002
-25.6688 -5.1471 -2.3972 0.9002
-25.6358 -5.3056 -2.3971 0.9002
-25.6018 -5.4639 -2.3970 0.9002
-25.5669 -5.6220 -2.3970 0.9002
-25.5309 -5.7798 -2.3969 0.9002
-25.4940 -5.9375 -2.3969 0.9002
-25.4174 -6.2520 -2.3967 0.9002
-25.3775 -6.4089 -2.3967 0.9002
-25.3368 -6.5656 -2.3966 0.9002
-25.2950 -6.7219 -2.3965 0.9002
-25.2086 -7.0339 -2.3964 0.9002
-25.1184 -7.3448 -2.3963 0.9002
-25.0719 -7.4998 -2.3962 0.9002
-25.0244 -7.6545 -2.3962 0.9002
-24.9759 -7.8089 -2.3961 0.9002
-24.8763 -8.1170 -2.3960 0.9002
-24.6653 -8.7288 -2.3957 0.9002
-24.5543 -9.0327 -2.3956 0.9002
-24.4973 -9.1840 -2.3956 0.9002
-24.4394 -9.3352 -2.3955 0.9002
-24.2602 -9.7863 -2.3953 0.9003
-24.1987 -9.9359 -2.3953 0.9003
-23.9432 -10.5304 -2.3950 0.9003
-23.8770 -10.6779 -2.3950 0.9003
-23.7420 -10.9719 -2.3949 0.9003
-23.6731 -11.1183 -2.3948 0.9003
-23.6034 -11.2642 -2.3948 0.9003
-23.3154 -11.8435 -2.3945 0.9003
-23.2411 -11.9871 -2.3945 0.9003
-23.0900 -12.2732 -2.3944 0.9003
-23.0131 -12.4154 -2.3943 0.9003
-22.9354 -12.5572 -2.3943 0.9003
-22.8568 -12.6985 -2.3942 0.9003
-22.6158 -13.1195 -2.3940 0.9003
-22.3670 -13.5359 -2.3939 0.9003
-22.2824 -13.6736 -2.3938 0.9003
-22.1969 -13.8109 -2.3938 0.9003
-21.9354 -14.2194 -2.3936 0.9003
-21.8466 -14.3544 -2.3936 0.9003
-21.5752 -14.7563 -2.3934 0.9003
-21.4831 -14.8891 -2.3934 0.9003
-21.2019 -15.2842 -2.3932 0.9003
-20.9133 -15.6738 -2.3931 0.9003
-20.8156 -15.8026 -2.3930 0.9003
-20.7171 -15.9307 -2.3930 0.9003
-20.3151 -16.4370 -2.3928 0.9004
-19.7953 -17.0555 -2.3926 0.9004
-19.5582 -17.2773 -2.3895 0.9005
-19.1920 -17.3812 -2.3709 0.9012
-19.0111 -17.4324 -2.3618 0.9016
-18.6485 -17.5295 -2.3435 0.9023
-18.2886 -17.6222 -2.3255 0.9030
-18.1106 -17.6681 -2.3167 0.9034
-17.0530 -17.9182 -2.2650 0.9054
-16.8788 -17.9563 -2.2565 0.9058
-16.7086 -17.9969 -2.2486 0.9061
-16.5402 -18.0380 -2.2409 0.9064
-16.4206 -18.1314 -2.2399 0.9064
-16.3079 -18.2323 -2.2398 0.9064
-16.0806 -18.4321 -2.2398 0.9064
-15.7352 -18.7263 -2.2397 0.9064
-15.6188 -18.8230 -2.2396 0.9064
-15.2663 -19.1086 -2.2395 0.9064
-14.9085 -19.3877 -2.2394 0.9064
-14.7881 -19.4793 -2.2394 0.9064
-14.4236 -19.7494 -2.2393 0.9064
-14.3010 -19.8380 -2.2393 0.9064
-14.0541 -20.0128 -2.2392 0.9064
-11.1106 -16.4623 -1.8186 0.9233
-10.9009 -16.3691 -1.8008 0.9240
-10.7682 -16.3886 -1.7956 0.9243
-10.5248 -16.4582 -1.7888 0.9245
-10.4319 -16.5372 -1.7904 0.9245
-10.3158 -16.5796 -1.7880 0.9246
-10.1758 -16.5824 -1.7815 0.9248
-9.4908 -16.5962 -1.7506 0.9261
-9.0952 -16.6121 -1.7342 0.9267
-8.8386 -16.6285 -1.7243 0.9271
-8.5003 -16.4807 -1.6980 0.9282
-8.3701 -16.4775 -1.6923 0.9285
-7.9354 -16.6281 -1.6871 0.9287
-7.8729 -17.3164 -1.7418 0.9264
-7.8735 -17.6059 -1.7660 0.9255
-7.8800 -17.9171 -1.7923 0.9244
-9.7031 -22.4378 -2.2384 0.9065
-9.2850 -22.6134 -2.2384 0.9065
-9.1449 -22.6702 -2.2383 0.9065
-8.8637 -22.7813 -2.2383 0.9065
-8.5811 -22.8888 -2.2383 0.9065
-8.4393 -22.9413 -2.2383 0.9065
-8.1548 -23.0436 -2.2382 0.9065
-7.8691 -23.1425 -2.2382 0.9065
-7.5640 -23.1821 -2.2328 0.9067
-7.4066 -23.1847 -2.2286 0.9069
-7.2497 -23.1873 -2.2245 0.9070
-6.9376 -23.1926 -2.2166 0.9073
-6.7824 -23.1952 -2.2128 0.9075
-6.6277 -23.1978 -2.2091 0.9076
-5.8616 -23.2105 -2.1920 0.9083
-5.5584 -23.2155 -2.1858 0.9086
-5.4074 -23.2180 -2.1829 0.9087
-5.3467 -23.6175 -2.2173 0.9073
-4.8054 -23.9646 -2.2380 0.9065
-4.2111 -24.0759 -2.2380 0.9065
-3.9112 -24.1150 -2.2370 0.9065
-3.6064 -24.1198 -2.2331 0.9067
-3.4544 -24.1221 -2.2313 0.9068
-3.3026 -24.1245 -2.2296 0.9068
-3.1511 -24.1269 -2.2280 0.9069
-2.8486 -24.1316 -2.2250 0.9070
-2.3963 -24.1387 -2.2211 0.9072
-1.9629 -24.3623 -2.2380 0.9065
-1.5106 -24.3946 -2.2380 0.9065
-1.3597 -24.4035 -2.2380 0.9065
-1.0577 -24.4185 -2.2380 0.9065
-0.7557 -24.4298 -2.2380 0.9065
-0.0000 -24.4418 -2.2380 0.9065
0.3023 -24.4401 -2.2381 0.9065
0.5231 -16.9120 -1.5493 0.9343
0.7297 -16.8457 -1.5439 0.9345
0.9389 -16.8508 -1.5454 0.9345
1.2528 -16.8509 -1.5472 0.9344
1.3576 -16.8500 -1.5479 0.9344
1.4625 -16.8499 -1.5487 0.9343
1.6726 -16.8489 -1.5504 0.9343
1.7778 -16.8476 -1.5512 0.9342
1.9878 -16.8397 -1.5527 0.9342
2.1991 -16.8376 -1.5548 0.9341
2.3050 -16.8375 -1.5561 0.9340
2.4112 -16.8373 -1.5574 0.9340
2.9449 -16.8365 -1.5651 0.9336
3.0523 -16.8363 -1.5668 0.9336
3.1599 -16.8361 -1.5685 0.9335
3.2677 -16.8358 -1.5704 0.9334
3.4842 -16.8351 -1.5742 0.9333
3.9208 -16.8350 -1.5828 0.9329
4.1409 -16.8348 -1.5874 0.9327
4.2515 -16.8346 -1.5899 0.9326
4.3624 -16.8346 -1.5924 0.9325
4.4747 -16.8386 -1.5954 0.9324
4.5941 -16.8670 -1.6007 0.9322
6.8619 -23.4670 -2.2388 0.9065
7.0069 -23.4244 -2.2388 0.9065
7.1517 -23.3809 -2.2388 0.9065
7.4406 -23.2912 -2.2389 0.9065
7.8716 -23.1499 -2.2389 0.9065
6.2856 -17.7615 -1.7252 0.9271
6.3124 -17.4927 -1.7028 0.9280
6.3158 -17.1686 -1.6751 0.9292
6.7186 -16.3629 -1.6197 0.9314
6.8690 -16.1576 -1.6076 0.9319
7.2393 -16.4603 -1.6465 0.9303
7.2374 -16.1836 -1.6233 0.9313
7.4291 -16.3404 -1.6436 0.9304
7.5537 -16.3453 -1.6488 0.9302
7.6784 -16.3490 -1.6539 0.9300
7.8021 -16.3488 -1.6587 0.9298
7.9291 -16.3539 -1.6642 0.9296
8.3074 -16.3542 -1.6796 0.9290
8.4351 -16.3542 -1.6849 0.9288
8.5636 -16.3544 -1.6904 0.9285
8.6892 -16.3474 -1.6952 0.9283
8.8599 -16.1825 -1.6893 0.9286
8.9754 -16.1553 -1.6922 0.9285
9.0964 -16.1373 -1.6962 0.9283
9.2253 -16.1319 -1.7016 0.9281
9.7555 -16.3477 -1.7432 0.9264
12.6661 -20.9297 -2.2401 0.9064
13.0528 -20.6923 -2.2402 0.9064
13.5616 -20.3645 -2.2403 0.9064
13.6876 -20.2806 -2.2404 0.9064
13.8129 -20.1959 -2.2404 0.9064
14.1860 -19.9373 -2.2405 0.9064
14.4320 -19.7611 -2.2406 0.9064
14.6759 -19.5818 -2.2407 0.9064
14.7970 -19.4910 -2.2407 0.9064
15.0375 -19.3073 -2.2408 0.9064
15.1569 -19.2143 -2.2409 0.9064
15.2758 -19.1206 -2.2409 0.9064
15.3940 -19.0261 -2.2410 0.9064
15.8612 -18.6410 -2.2411 0.9064
16.2111 -18.5816 -2.2579 0.9057
17.6562 -18.5521 -2.3451 0.9022
18.0900 -18.5432 -2.3721 0.9012
18.3107 -18.5386 -2.3859 0.9006
18.5997 -18.3710 -2.3938 0.9003
19.0500 -17.9069 -2.3940 0.9003
19.1608 -17.7892 -2.3940 0.9003
19.2709 -17.6708 -2.3941 0.9003
19.3803 -17.5516 -2.3942 0.9003
19.5968 -17.3114 -2.3943 0.9003
19.8103 -17.0685 -2.3944 0.9003
19.9159 -16.9460 -2.3944 0.9003
20.1249 -16.6992 -2.3945 0.9003
20.2283 -16.5747 -2.3946 0.9003
20.3309 -16.4497 -2.3946 0.9003
20.7335 -15.9433 -2.3949 0.9003
20.8322 -15.8152 -2.3949 0.9003
20.9301 -15.6864 -2.3950 0.9003
21.0272 -15.5571 -2.3950 0.9003
21.2190 -15.2966 -2.3952 0.9003
21.3137 -15.1654 -2.3952 0.9003
21.5930 -14.7685 -2.3954 0.9003
21.6844 -14.6350 -2.3955 0.9003
22.2157 -13.8226 -2.3958 0.9002
22.3013 -13.6853 -2.3959 0.9002
22.3861 -13.5475 -2.3959 0.9002
22.4701 -13.4091 -2.3960 0.9002
22.6353 -13.1308 -2.3961 0.9002
22.7166 -12.9909 -2.3962 0.9002
23.0334 -12.4263 -2.3964 0.9002
23.1104 -12.2840 -2.3965 0.9002
23.4096 -11.7098 -2.3967 0.9002
23.4822 -11.5651 -2.3968 0.9002
23.6247 -11.2744 -2.3969 0.9002
23.6946 -11.1283 -2.3970 0.9002
23.7636 -10.9819 -2.3970 0.9002
23.8317 -10.8350 -2.3971 0.9002
23.8988 -10.6877 -2.3972 0.9002
24.0305 -10.3918 -2.3973 0.9002
24.0949 -10.2433 -2.3974 0.9002
24.2211 -9.9451 -2.3975 0.9002
24.2828 -9.7954 -2.3976 0.9002
24.3435 -9.6453 -2.3976 0.9002
24.4034 -9.4948 -2.3977 0.9002
24.5773 -9.0412 -2.3979 0.9002
24.6334 -8.8893 -2.3979 0.9002
24.7430 -8.5844 -2.3981 0.9001
24.7961 -8.4314 -2.3981 0.9001
24.8484 -8.2781 -2.3982 0.9001
24.8998 -8.1245 -2.3983 0.9001
24.9998 -7.8164 -2.3984 0.9001
25.0483 -7.6619 -2.3985 0.9001
25.0959 -7.5070 -2.3985 0.9001
25.1425 -7.3519 -2.3986 0.9001
25.1882 -7.1964 -2.3987 0.9001
25.3195 -6.7285 -2.3989 0.9001
25.3613 -6.5719 -2.3989 0.9001
25.4022 -6.4151 -2.3990 0.9001
25.4420 -6.2581 -2.3991 0.9001
25.4810 -6.1008 -2.3991 0.9001
25.5189 -5.9433 -2.3992 0.9001
25.5559 -5.7855 -2.3993 0.9001
25.5919 -5.6275 -2.3993 0.9001
25.6610 -5.3108 -2.3995 0.9001
25.6940 -5.1522 -2.3995 0.9001
25.7261 -4.9933 -2.3996 0.9001
25.7873 -4.6750 -2.3997 0.9001
25.8446 -4.3560 -2.3999 0.9001
25.8718 -4.1962 -2.3999 0.9001
25.8980 -4.0362 -2.4000 0.9001
25.9231 -3.8761 -2.4001 0.9001
25.9473 -3.7158 -2.4001 0.9001
25.9705 -3.5554 -2.4002 0.9001
25.9928 -3.3948 -2.4003 0.9001
26.0140 -3.2340 -2.4003 0.9001
26.0534 -2.9122 -2.4005 0.9001
26.0717 -2.7512 -2.4005 0.9001
26.0889 -2.5899 -2.4006 0.9000
26.1052 -2.4286 -2.4007 0.9000
26.1347 -2.1056 -2.4008 0.9000
26.1714 -1.6206 -2.4010 0.9000
26.1817 -1.4588 -2.4011 0.9000
26.1992 -1.1349 -2.4012 0.9000
26.2179 -0.6487 -2.4014 0.9000
26.2276 -0.1622 -2.4016 0.9000
26.2289 0.0000 -2.4017 0.9000
26.2290 0.1622 -2.4017 0.9000
26.2237 0.6488 -2.4019 0.9000
26.2199 0.8110 -2.4020 0.9000
26.2093 1.1353 -2.4021 0.9000
26.1947 1.4594 -2.4023 0.9000
26.1859 1.6215 -2.4023 0.9000
26.1761 1.7834 -2.4024 0.9000
26.1535 2.1072 -2.4025 0.9000
26.1407 2.2689 -2.4026 0.9000
26.1120 2.5922 -2.4027 0.9000
26.0962 2.7537 -2.4028 0.9000
26.0794 2.9151 -2.4029 0.9000
26.0615 3.0764 -2.4029 0.9000
17.7547 2.6547 -1.6438 0.9304
17.4910 2.8369 -1.6225 0.9313
17.4743 2.9452 -1.6226 0.9313
17.4568 3.1648 -1.6245 0.9312
17.4540 3.2759 -1.6261 0.9312
13.7931 2.7658 -1.2881 0.9451
13.9766 2.8926 -1.3069 0.9443
13.7856 2.9421 -1.2907 0.9450
13.4100 2.9488 -1.2572 0.9463
13.0615 2.9570 -1.2263 0.9476
12.4361 2.9775 -1.1709 0.9499
11.8781 2.9998 -1.1218 0.9520
11.8416 3.1469 -1.1219 0.9520
11.8340 3.2233 -1.1231 0.9519
11.8135 3.5338 -1.1291 0.9517
11.8051 3.7713 -1.1348 0.9514
11.8109 3.9347 -1.1399 0.9512
20.4852 7.1072 -1.9854 0.9166
20.2498 7.1662 -1.9669 0.9173
19.6040 7.2117 -1.9127 0.9195
18.9400 7.1007 -1.8521 0.9220
18.7636 7.4344 -1.8481 0.9221
22.8561 9.2199 -2.2567 0.9057
22.6816 9.6425 -2.2567 0.9057
22.6216 9.7826 -2.2568 0.9057
22.4992 10.0618 -2.2568 0.9057
22.3733 10.3394 -2.2568 0.9057
21.3885 10.0453 -2.1637 0.9094
20.8009 10.0852 -2.1167 0.9113
20.5174 10.2631 -2.1006 0.9120
20.1982 10.4177 -2.0810 0.9128
20.0963 10.5230 -2.0771 0.9129
19.9947 10.6279 -2.0734 0.9131
19.9154 10.7442 -2.0720 0.9131
18.5076 10.1330 -1.9320 0.9187
18.3898 10.2168 -1.9263 0.9190
18.1781 10.2468 -1.9107 0.9196
15.6242 9.1933 -1.6599 0.9298
15.6290 9.4583 -1.6727 0.9292
15.6315 9.5923 -1.6793 0.9290
15.6340 9.7274 -1.6860 0.9287
13.8998 9.2565 -1.5291 0.9351
13.9066 9.6382 -1.5493 0.9343
13.9113 9.8983 -1.5633 0.9337
12.6010 9.0839 -1.4224 0.9395
12.4285 9.3148 -1.4222 0.9395
12.3710 9.3917 -1.4222 0.9395
12.3506 9.4972 -1.4266 0.9393
6.9013 5.3752 -0.8010 0.9655
6.8374 5.3936 -0.7974 0.9656
6.6980 5.4194 -0.7889 0.9660
6.6531 5.4515 -0.7876 0.9660
6.6320 5.5031 -0.7891 0.9660
6.6106 5.5547 -0.7906 0.9659
12.4103 10.9630 -1.5162 0.9357
12.4123 11.1022 -1.5248 0.9353
12.4144 11.2430 -1.5336 0.9349
12.4165 11.3855 -1.5425 0.9346
12.4204 11.6751 -1.5608 0.9338
10.9967 10.4657 -1.3900 0.9408
10.3711 10.3712 -1.3430 0.9428
10.2200 10.3472 -1.3317 0.9433
9.9990 10.3771 -1.3195 0.9438
9.7734 10.2693 -1.2981 0.9446
9.7222 10.3428 -1.2998 0.9446
9.6419 10.3853 -1.2976 0.9447
9.4025 10.5121 -1.2914 0.9449
9.2328 10.5829 -1.2860 0.9451
9.1601 10.9014 -1.3038 0.9444
9.0550 11.0510 -1.3082 0.9442
1.3649 1.7303 -0.2018 0.9912
1.2805 1.7308 -0.1971 0.9914
1.2478 1.7310 -0.1954 0.9915
1.2317 1.7311 -0.1945 0.9915
1.1841 1.7313 -0.1921 0.9916
1.1685 1.7314 -0.1913 0.9916
1.1531 1.7315 -0.1905 0.9917
1.1377 1.7316 -0.1897 0.9917
1.0776 1.7319 -0.1868 0.9918
1.0482 1.7321 -0.1854 0.9919
1.0336 1.7321 -0.1847 0.9919
1.0192 1.7322 -0.1840 0.9920
0.9625 1.7325 -0.1815 0.9921
0.9210 1.7327 -0.1797 0.9921
0.9073 1.7328 -0.1791 0.9922
0.8535 1.7330 -0.1769 0.9923
0.8271 1.7332 -0.1758 0.9923
0.8140 1.7332 -0.1753 0.9923
0.8010 1.7333 -0.1748 0.9924
0.7880 1.7333 -0.1743 0.9924
0.7496 1.7335 -0.1729 0.9924
0.7118 1.7337 -0.1716 0.9925
0.6869 1.7338 -0.1708 0.9925
0.6746 1.7338 -0.1704 0.9926
0.6623 1.7339 -0.1700 0.9926
0.6501 1.7339 -0.1696 0.9926
0.6137 1.7341 -0.1684 0.9926
0.6016 1.7341 -0.1681 0.9927
0.5777 1.7342 -0.1674 0.9927
0.5659 1.7343 -0.1670 0.9927
0.5540 1.7343 -0.1667 0.9927
0.5305 1.7344 -0.1661 0.9927
0.5188 1.7345 -0.1658 0.9928
0.5072 1.7345 -0.1655 0.9928
0.4725 1.7346 -0.1646 0.9928
0.4610 1.7347 -0.1643 0.9928
0.4381 1.7347 -0.1638 0.9928
0.4267 1.7348 -0.1636 0.9928
0.4154 1.7348 -0.1633 0.9929
0.4040 1.7349 -0.1631 0.9929
0.3927 1.7349 -0.1629 0.9929
0.3815 1.7349 -0.1627 0.9929
0.3703 1.7350 -0.1624 0.9929
0.3591 1.7350 -0.1622 0.9929
0.3368 1.7351 -0.1618 0.9929
0.3256 1.7351 -0.1616 0.9929
0.3035 1.7352 -0.1613 0.9929
0.2925 1.7352 -0.1611 0.9930
0.2376 1.7354 -0.1604 0.9930
0.2267 1.7354 -0.1603 0.9930
0.2157 1.7354 -0.1601 0.9930
0.1940 1.7355 -0.1599 0.9930
0.1831 1.7355 -0.1598 0.9930
0.1615 1.7355 -0.1596 0.9930
0.1398 1.7356 -0.1594 0.9930
0.1290 1.7356 -0.1594 0.9930
0.1075 1.7357 -0.1592 0.9930
0.0967 1.7357 -0.1592 0.9930
0.0537 1.7358 -0.1590 0.9930
0.0322 1.7358 -0.1590 0.9931
0.0215 1.7359 -0.1590 0.9931
0.0107 1.7358 -0.1589 0.9931
-0.0107 1.7358 -0.1589 0.9931
-0.0752 1.7355 -0.1591 0.9930
-0.0859 1.7355 -0.1591 0.9930
-0.1182 1.7354 -0.1593 0.9930
-0.1290 1.7353 -0.1593 0.9930
-0.1398 1.7353 -0.1594 0.9930
-0.1723 1.7354 -0.1597 0.9930
-0.1831 1.7354 -0.1598 0.9930
-0.2049 1.7354 -0.1600 0.9930
-0.2157 1.7354 -0.1601 0.9930
-0.2267 1.7354 -0.1603 0.9930
-0.2485 1.7354 -0.1605 0.9930
-0.2925 1.7355 -0.1611 0.9930
-0.3257 1.7355 -0.1617 0.9929
-0.3369 1.7355 -0.1619 0.9929
-0.3480 1.7355 -0.1621 0.9929
-0.3592 1.7355 -0.1623 0.9929
-0.3929 1.7355 -0.1629 0.9929
-0.4042 1.7355 -0.1632 0.9929
-0.4269 1.7355 -0.1637 0.9928
-0.4383 1.7355 -0.1639 0.9928
-0.4497 1.7355 -0.1642 0.9928
-0.4727 1.7355 -0.1647 0.9928
-0.5075 1.7355 -0.1656 0.9928
-0.5309 1.7355 -0.1662 0.9927
-0.5544 1.7355 -0.1668 0.9927
-0.5901 1.7355 -0.1679 0.9927
-0.6021 1.7355 -0.1682 0.9926
-0.6142 1.7355 -0.1686 0.9926
-0.6506 1.7355 -0.1697 0.9926
-0.6752 1.7355 -0.1705 0.9925
-0.6876 1.7355 -0.1709 0.9925
-0.7126 1.7355 -0.1718 0.9925
-0.7378 1.7355 -0.1727 0.9925
-0.7633 1.7355 -0.1736 0.9924
-0.8414 1.7354 -0.1766 0.9923
-0.8815 1.7354 -0.1782 0.9922
-0.9224 1.7353 -0.1799 0.9921
-0.9641 1.7353 -0.1818 0.9921
-0.9781 1.7353 -0.1824 0.9920
-0.9923 1.7352 -0.1830 0.9920
-1.0066 1.7352 -0.1837 0.9920
-1.0210 1.7352 -0.1843 0.9919
-1.0355 1.7352 -0.1850 0.9919
-1.0796 1.7351 -0.1871 0.9918
-1.0945 1.7351 -0.1878 0.9918
-1.1554 1.7350 -0.1909 0.9917
-1.1709 1.7350 -0.1917 0.9916
-1.1866 1.7349 -0.1925 0.9916
-1.2024 1.7349 -0.1933 0.9916
-1.2344 1.7349 -0.1950 0.9915
-1.3001 1.7347 -0.1985 0.9913
-1.3169 1.7347 -0.1994 0.9913
-1.3339 1.7347 -0.2004 0.9912
-1.3510 1.7346 -0.2013 0.9912
-1.4943 1.7343 -0.2096 0.9908
-1.5130 1.7343 -0.2107 0.9908
-1.5320 1.7343 -0.2119 0.9907
-1.5901 1.7341 -0.2154 0.9906
-1.6502 1.7340 -0.2192 0.9904
-1.6915 1.7338 -0.2218 0.9903
-1.7337 1.7337 -0.2245 0.9902
-1.7553 1.7337 -0.2259 0.9901
-1.7991 1.7336 -0.2288 0.9900
-1.8215 1.7335 -0.2302 0.9900
-1.8441 1.7335 -0.2317 0.9899
-1.8903 1.7333 -0.2348 0.9898
-1.9377 1.7332 -0.2380 0.9896
-1.9865 1.7330 -0.2414 0.9895
-2.0622 1.7328 -0.2466 0.9892
-2.1146 1.7327 -0.2503 0.9891
-2.1962 1.7324 -0.2561 0.9888
-2.2242 1.7323 -0.2581 0.9887
-2.2527 1.7322 -0.2602 0.9887
-2.2816 1.7322 -0.2623 0.9886
-2.3111 1.7321 -0.2644 0.9885
-2.4657 1.7316 -0.2759 0.9880
-2.5314 1.7313 -0.2808 0.9878
-2.5651 1.7312 -0.2834 0.9876
-2.6701 1.7309 -0.2914 0.9873
-2.7065 1.7308 -0.2942 0.9872
-2.8198 1.7304 -0.3029 0.9868
-2.8591 1.7302 -0.3060 0.9867
-2.8991 1.7301 -0.3091 0.9865
-2.9401 1.7299 -0.3124 0.9864
-2.9819 1.7298 -0.3157 0.9862
-3.0246 1.7296 -0.3190 0.9861
-3.1600 1.7301 -0.3299 0.9856
-3.2072 1.7302 -0.3337 0.9855
-3.2555 1.7304 -0.3376 0.9853
-3.3556 1.7307 -0.3457 0.9849
-3.4074 1.7309 -0.3500 0.9848
-3.4606 1.7311 -0.3543 0.9846
-3.6284 1.7316 -0.3681 0.9840
-3.6873 1.7318 -0.3730 0.9838
-3.8738 1.7324 -0.3886 0.9831
-3.9394 1.7326 -0.3941 0.9829
-4.0765 1.7331 -0.4056 0.9824
-4.1481 1.7333 -0.4117 0.9821
-4.6274 1.7348 -0.4525 0.9803
-4.7167 1.7351 -0.4602 0.9800
-4.9048 1.7357 -0.4764 0.9793
-5.0039 1.7361 -0.4850 0.9790
-5.1066 1.7364 -0.4939 0.9786
-5.2132 1.7368 -0.5031 0.9782
-5.3238 1.7371 -0.5128 0.9778
-5.4388 1.7375 -0.5228 0.9773
-5.5584 1.7379 -0.5333 0.9769
-5.6810 1.7377 -0.5440 0.9764
-5.9451 1.7384 -0.5672 0.9754
-6.0860 1.7388 -0.5796 0.9749
-6.7175 1.7408 -0.6354 0.9725
-6.8949 1.7413 -0.6512 0.9718
-7.2736 1.7415 -0.6848 0.9704
-7.4757 1.7411 -0.7028 0.9696
-8.1514 1.7397 -0.7632 0.9671
-25.7140 5.1562 -2.4014 0.9000
-25.8031 4.6779 -2.4012 0.9000
-25.9971 3.3953 -2.4007 0.9000
-26.0702 2.7510 -2.4004 0.9001
-26.0860 2.5896 -2.4003 0.9001
-26.1146 2.2666 -2.4002 0.9001
-26.1500 1.7816 -2.4000 0.9001
-26.1763 1.2961 -2.3998 0.9001
-26.1831 1.1342 -2.3997 0.9001
-26.1889 0.9722 -2.3997 0.9001
-26.2002 0.4861 -2.3995 0.9001
-26.2020 0.3241 -2.3994 0.9001
-26.2028 0.1620 -2.3993 0.9001
-24.2217 -0.0000 -2.3993 0.9072
-24.2206 -0.1498 -2.3993 0.9072
-24.2186 -0.2996 -2.3992 0.9072
-24.2157 -0.4493 -2.3992 0.9072
-24.2118 -0.5991 -2.3991 0.9072
-24.2013 -0.8984 -2.3990 0.9072
-24.1947 -1.0480 -2.3989 0.9072
-24.1871 -1.1976 -2.3989 0.9072
-24.1589 -1.6460 -2.3987 0.9073
-24.1355 -1.9446 -2.3986 0.9073
-24.1224 -2.0938 -2.3985 0.9073
-24.0776 -2.5407 -2.3983 0.9073
-24.0608 -2.6895 -2.3983 0.9073
-24.0245 -2.9867 -2.3981 0.9073
-23.9631 -3.4316 -2.3980 0.9073
-23.9177 -3.7276 -2.3978 0.9073
-23.8426 -4.1703 -2.3977 0.9073
-23.7881 -4.4647 -2.3975 0.9073
-23.7594 -4.6116 -2.3975 0.9073
-23.7299 -4.7584 -2.3974 0.9073
-23.6994 -4.9049 -2.3974 0.9073
-23.6681 -5.0512 -2.3973 0.9073
-23.5686 -5.4891 -2.3971 0.9073
-23.3848 -6.2143 -2.3968 0.9073
-23.2637 -6.6465 -2.3967 0.9073
-23.2217 -6.7902 -2.3966 0.9073
-23.1787 -6.9334 -2.3966 0.9073
-23.1348 -7.0765 -2.3965 0.9073
-23.0445 -7.3618 -2.3964 0.9073
-22.9979 -7.5039 -2.3963 0.9073
-22.9023 -7.7874 -2.3962 0.9073
-22.8532 -7.9289 -2.3962 0.9073
-22.6480 -8.4908 -2.3959 0.9074
-22.5946 -8.6305 -2.3959 0.9074
-22.4850 -8.9089 -2.3958 0.9074
-22.3721 -9.1859 -2.3957 0.9074
-22.2558 -9.4615 -2.3956 0.9074
-22.1964 -9.5987 -2.3955 0.9074
-22.0130 -10.0081 -2.3953 0.9074
-21.8866 -10.2792 -2.3952 0.9074
-21.8221 -10.4141 -2.3952 0.9074
-21.7568 -10.5487 -2.3951 0.9074
-21.6907 -10.6828 -2.3951 0.9074
-21.6237 -10.8164 -2.3950 0.9074
-21.5560 -10.9497 -2.3950 0.9074
-21.4874 -11.0826 -2.3949 0.9074
-21.4180 -11.2151 -2.3949 0.9074
-21.3478 -11.3471 -2.3948 0.9074
-21.2049 -11.6097 -2.3947 0.9074
-21.1322 -11.7404 -2.3947 0.9074
-21.0588 -11.8706 -2.3946 0.9074
-20.8337 -12.2585 -2.3945 0.9074
-20.6014 -12.6421 -2.3943 0.9074
-20.5224 -12.7690 -2.3943 0.9074
-20.3621 -13.0213 -2.3942 0.9074
-19.7768 -13.8884 -2.3939 0.9074
-19.6901 -14.0102 -2.3938 0.9074
-19.6027 -14.1314 -2.3938 0.9074
-19.5146 -14.2521 -2.3937 0.9074
-19.3361 -14.4918 -2.3936 0.9074
-19.1547 -14.7293 -2.3935 0.9074
-19.0629 -14.8472 -2.3935 0.9074
-18.8771 -15.0813 -2.3934 0.9074
-18.7831 -15.1975 -2.3934 0.9074
-18.4970 -15.5425 -2.3932 0.9075
-17.8049 -16.3264 -2.3929 0.9075
-17.6010 -16.5448 -2.3929 0.9075
-17.4981 -16.6531 -2.3928 0.9075
-17.3944 -16.7607 -2.3928 0.9075
-17.2902 -16.8677 -2.3927 0.9075
-17.1852 -16.9740 -2.3927 0.9075
-17.0797 -17.0797 -2.3927 0.9075
-16.9734 -17.1847 -2.3926 0.9075
-16.6509 -17.4958 -2.3925 0.9075
-16.5422 -17.5982 -2.3925 0.9075
-16.4328 -17.6998 -2.3924 0.9075
-16.3227 -17.8009 -2.3924 0.9075
-16.2121 -17.9012 -2.3924 0.9075
-16.1008 -18.0009 -2.3923 0.9075
-15.6530 -18.1674 -2.3755 0.9081
-15.1508 -18.2589 -2.3503 0.9090
-14.9847 -18.2878 -2.3420 0.9093
-14.6523 -18.3401 -2.3253 0.9100
-14.4878 -18.3660 -2.3172 0.9103
-14.3244 -18.3917 -2.3092 0.9106
-13.8370 -18.4624 -2.2855 0.9114
-13.6754 -18.4839 -2.2776 0.9117
-13.5149 -18.5052 -2.2699 0.9120
-13.3554 -18.5263 -2.2623 0.9123
-13.1971 -18.5474 -2.2549 0.9126
-11.0444 -16.3643 -1.9557 0.9237
-10.7586 -16.3740 -1.9408 0.9243
-10.1861 -16.5992 -1.9292 0.9247
-10.0449 -16.5984 -1.9218 0.9250
-9.4974 -16.6078 -1.8951 0.9260
-9.3638 -16.6117 -1.8889 0.9262
-9.2309 -16.6153 -1.8828 0.9264
-9.1016 -16.6239 -1.8774 0.9266
-8.9742 -16.6346 -1.8723 0.9268
-8.7853 -16.5283 -1.8542 0.9275
-8.6375 -16.4955 -1.8445 0.9279
-8.2348 -16.4625 -1.8234 0.9287
-8.1160 -16.4791 -1.8196 0.9288
-7.9896 -16.4787 -1.8141 0.9290
-7.8182 -16.6466 -1.8218 0.9287
-7.7587 -17.0653 -1.8570 0.9274
-7.7949 -17.4302 -1.8914 0.9261
-8.8436 -20.8024 -2.2391 0.9131
-8.7147 -20.8565 -2.2391 0.9131
-8.5855 -20.9099 -2.2391 0.9131
-8.0655 -21.1153 -2.2390 0.9131
-7.9347 -21.1647 -2.2390 0.9132
-7.8036 -21.2131 -2.2390 0.9132
-7.6722 -21.2609 -2.2390 0.9132
-7.0111 -21.4874 -2.2389 0.9132
-6.6111 -21.6134 -2.2389 0.9132
-6.4773 -21.6537 -2.2389 0.9132
-6.0744 -21.7699 -2.2389 0.9132
-5.8046 -21.8432 -2.2388 0.9132
-5.5340 -21.9132 -2.2388 0.9132
-5.2625 -21.9798 -2.2388 0.9132
-4.8538 -22.0735 -2.2388 0.9132
-4.7172 -22.1030 -2.2388 0.9132
-4.5804 -22.1317 -2.2388 0.9132
-4.0316 -22.2380 -2.2388 0.9132
-3.8940 -22.2625 -2.2388 0.9132
-3.7562 -22.2861 -2.2387 0.9132
-3.6183 -22.3089 -2.2387 0.9132
-3.3421 -22.3519 -2.2387 0.9132
-3.2038 -22.3721 -2.2387 0.9132
-3.0654 -22.3914 -2.2387 0.9132
-2.9268 -22.4100 -2.2387 0.9132
-2.7882 -22.4277 -2.2387 0.9132
-2.3716 -22.4755 -2.2387 0.9132
-2.0935 -22.5031 -2.2387 0.9132
-1.5362 -22.5481 -2.2387 0.9132
-1.3968 -22.5572 -2.2387 0.9132
-1.2572 -22.5654 -2.2387 0.9132
-1.1177 -22.5728 -2.2388 0.9132
-0.9781 -22.5794 -2.2388 0.9132
-0.6987 -22.5898 -2.2388 0.9132
-0.1398 -22.6004 -2.2388 0.9132
-0.0000 -22.6009 -2.2388 0.9132
0.1398 -22.6005 -2.2388 0.9132
0.4193 -22.5971 -2.2388 0.9132
0.6256 -16.8517 -1.6704 0.9345
0.8345 -16.8544 -1.6716 0.9344
1.3621 -16.9056 -1.6801 0.9341
1.6782 -16.9052 -1.6828 0.9340
1.8824 -16.8405 -1.6786 0.9342
1.9877 -16.8390 -1.6796 0.9341
2.3051 -16.8382 -1.6835 0.9340
2.4113 -16.8381 -1.6850 0.9339
2.5176 -16.8378 -1.6865 0.9339
2.7308 -16.8369 -1.6896 0.9337
2.9449 -16.8365 -1.6931 0.9336
3.0523 -16.8364 -1.6950 0.9335
3.4854 -16.8406 -1.7035 0.9332
3.5933 -16.8370 -1.7054 0.9331
4.0310 -16.8363 -1.7149 0.9328
4.1413 -16.8362 -1.7175 0.9327
4.2532 -16.8413 -1.7206 0.9326
6.2105 -21.7376 -2.2394 0.9131
6.6129 -21.6193 -2.2395 0.9131
7.0130 -21.4935 -2.2396 0.9131
7.1459 -21.4499 -2.2396 0.9131
7.6746 -21.2676 -2.2397 0.9131
6.5254 -17.7386 -1.8723 0.9268
6.2886 -16.7740 -1.7745 0.9305
6.2853 -16.4549 -1.7449 0.9316
6.5448 -16.5184 -1.7600 0.9311
6.6336 -16.1560 -1.7300 0.9322
6.7436 -16.1391 -1.7327 0.9321
6.8578 -16.1313 -1.7363 0.9320
7.0977 -16.1383 -1.7464 0.9316
7.2301 -16.1674 -1.7544 0.9313
7.8021 -16.3488 -1.7944 0.9298
7.9265 -16.3487 -1.7998 0.9296
8.5601 -16.3477 -1.8279 0.9285
8.6892 -16.3475 -1.8339 0.9283
8.8550 -16.1735 -1.8265 0.9286
8.9642 -16.1353 -1.8284 0.9285
9.3788 -16.1675 -1.8515 0.9276
9.4939 -16.1352 -1.8545 0.9275
9.7481 -16.3353 -1.8844 0.9264
11.9501 -19.2063 -2.2407 0.9131
12.3049 -18.9822 -2.2408 0.9131
12.4223 -18.9060 -2.2409 0.9131
12.6556 -18.7515 -2.2410 0.9131
12.7715 -18.6733 -2.2410 0.9131
13.2403 -18.6081 -2.2623 0.9123
13.7597 -18.5979 -2.2917 0.9112
13.9359 -18.5944 -2.3018 0.9108
14.1136 -18.5909 -2.3121 0.9104
14.2930 -18.5873 -2.3226 0.9101
14.4739 -18.5837 -2.3333 0.9097
14.6565 -18.5800 -2.3442 0.9093
15.0269 -18.5724 -2.3665 0.9084
15.4045 -18.5647 -2.3896 0.9076
15.5447 -18.4997 -2.3936 0.9074
15.7729 -18.3067 -2.3937 0.9074
15.8861 -18.2091 -2.3937 0.9074
16.2222 -17.9123 -2.3939 0.9074
16.4431 -17.7110 -2.3940 0.9074
16.5526 -17.6093 -2.3940 0.9074
16.8775 -17.3002 -2.3941 0.9074
17.0908 -17.0908 -2.3942 0.9074
17.3016 -16.8788 -2.3943 0.9074
17.5097 -16.6642 -2.3944 0.9074
17.6128 -16.5560 -2.3945 0.9074
17.9180 -16.2274 -2.3946 0.9074
18.0184 -16.1166 -2.3947 0.9074
18.4131 -15.6673 -2.3949 0.9074
18.7966 -15.2084 -2.3951 0.9074
19.0768 -14.8580 -2.3952 0.9074
19.2599 -14.6216 -2.3953 0.9074
19.4402 -14.3829 -2.3955 0.9074
19.5292 -14.2627 -2.3955 0.9074
19.8778 -13.7766 -2.3957 0.9074
19.9631 -13.6537 -2.3958 0.9074
20.0475 -13.5303 -2.3958 0.9074
20.1313 -13.4063 -2.3959 0.9074
20.3779 -13.0314 -2.3961 0.9074
20.5384 -12.7790 -2.3962 0.9073
20.6176 -12.6521 -2.3962 0.9073
20.6959 -12.5246 -2.3963 0.9073
20.7735 -12.3966 -2.3963 0.9073
20.8502 -12.2682 -2.3964 0.9073
20.9262 -12.1393 -2.3964 0.9073
21.0758 -11.8802 -2.3966 0.9073
21.2940 -11.4879 -2.3967 0.9073
21.4355 -11.2242 -2.3968 0.9073
21.5737 -10.9588 -2.3970 0.9073
21.7749 -10.5574 -2.3971 0.9073
21.9049 -10.2878 -2.3972 0.9073
21.9686 -10.1524 -2.3973 0.9073
22.0936 -9.8804 -2.3974 0.9073
22.2747 -9.4695 -2.3976 0.9073
22.3334 -9.3318 -2.3977 0.9073
22.3912 -9.1937 -2.3977 0.9073
22.5044 -8.9165 -2.3978 0.9073
22.5596 -8.7774 -2.3979 0.9073
22.6140 -8.6380 -2.3980 0.9073
22.7203 -8.3580 -2.3981 0.9073
22.9223 -7.7943 -2.3983 0.9073
22.9707 -7.6526 -2.3984 0.9073
23.0182 -7.5105 -2.3984 0.9073
23.0647 -7.3682 -2.3985 0.9073
23.1553 -7.0828 -2.3986 0.9073
23.1992 -6.9396 -2.3987 0.9073
23.3258 -6.5085 -2.3989 0.9072
23.4443 -6.0752 -2.3990 0.9072
23.5188 -5.7850 -2.3992 0.9072
23.6895 -5.0558 -2.3995 0.9072
23.7514 -4.7626 -2.3996 0.9072
23.8375 -4.3215 -2.3998 0.9072
23.8644 -4.1742 -2.3998 0.9072
23.9154 -3.8789 -2.4000 0.9072
23.9396 -3.7310 -2.4000 0.9072
23.9628 -3.5829 -2.4001 0.9072
23.9851 -3.4348 -2.4002 0.9072
24.0652 -2.8408 -2.4004 0.9072
24.0829 -2.6920 -2.4005 0.9072
24.1156 -2.3940 -2.4006 0.9072
24.1306 -2.2449 -2.4006 0.9072
24.1916 -1.4980 -2.4010 0.9072
24.2095 -1.1988 -2.4011 0.9072
24.2237 -0.8993 -2.4012 0.9072
24.2342 -0.5996 -2.4013 0.9072
24.2410 -0.2998 -2.4015 0.9072
24.2442 -0.0000 -2.4016 0.9071
24.2435 0.2999 -2.4017 0.9071
24.2419 0.4498 -2.4018 0.9071
24.2392 0.5997 -2.4018 0.9071
24.2312 0.8995 -2.4019 0.9071
24.2257 1.0494 -2.4020 0.9071
24.2122 1.3490 -2.4021 0.9071
24.2040 1.4987 -2.4022 0.9071
24.1619 2.0971 -2.4024 0.9071
24.1491 2.2466 -2.4025 0.9071
24.0886 2.8435 -2.4027 0.9071
24.0711 2.9925 -2.4028 0.9071
17.6821 2.6439 -1.7710 0.9307
17.4831 2.8356 -1.7545 0.9313
17.4743 2.9452 -1.7554 0.9312
17.4687 3.0555 -1.7567 0.9312
17.4629 3.1659 -1.7580 0.9311
13.7535 2.8465 -1.3913 0.9451
13.4907 2.8792 -1.3665 0.9461
12.7309 2.8821 -1.2930 0.9489
12.5409 2.9207 -1.2755 0.9496
12.0676 2.9683 -1.2310 0.9513
11.7454 2.9662 -1.2000 0.9525
11.7344 3.0408 -1.2008 0.9524
11.6874 3.2611 -1.2020 0.9524
11.6808 3.3373 -1.2034 0.9523
11.6761 3.4142 -1.2050 0.9523
11.6669 3.6478 -1.2109 0.9521
11.6684 3.8873 -1.2183 0.9518
11.7006 4.0595 -1.2268 0.9514
19.7685 7.1337 -2.0818 0.9190
19.4305 7.1478 -2.0508 0.9201
18.9495 7.1042 -2.0047 0.9219
18.7692 7.3027 -1.9950 0.9222
18.7716 7.4376 -2.0001 0.9220
20.9065 9.0409 -2.2563 0.9125
20.7355 9.4273 -2.2563 0.9125
20.6769 9.5554 -2.2564 0.9125
20.4964 9.9376 -2.2564 0.9125
20.3722 10.1904 -2.2564 0.9125
20.3088 10.3162 -2.2564 0.9125
20.2448 10.4417 -2.2564 0.9125
20.1441 10.5480 -2.2524 0.9127
17.9250 10.2507 -2.0455 0.9204
15.6635 9.0865 -1.7938 0.9298
15.6263 9.3251 -1.8026 0.9295
15.6290 9.4583 -1.8096 0.9292
15.6316 9.5924 -1.8167 0.9289
14.2356 9.1035 -1.6738 0.9343
14.0466 9.1055 -1.6582 0.9349
13.8975 9.1314 -1.6472 0.9353
13.8996 9.2564 -1.6542 0.9351
7.1810 4.9114 -0.8618 0.9656
7.0103 4.8586 -0.8449 0.9663
6.8844 4.8347 -0.8333 0.9668
6.7290 4.8509 -0.8217 0.9672
6.6126 4.8924 -0.8148 0.9675
6.5710 4.9248 -0.8134 0.9675
6.4466 5.0209 -0.8094 0.9677
6.4079 5.0548 -0.8085 0.9677
6.3414 5.1961 -0.8121 0.9676
6.3251 5.2484 -0.8142 0.9675
6.3086 5.3009 -0.8162 0.9674
6.2919 5.3536 -0.8183 0.9673
6.2749 5.4064 -0.8205 0.9673
6.2557 5.4577 -0.8224 0.9672
6.1969 5.6122 -0.8282 0.9670
6.1768 5.6639 -0.8302 0.9669
6.1565 5.7158 -0.8322 0.9668
6.2836 5.9802 -0.8593 0.9657
10.5650 10.3069 -1.4621 0.9424
10.3447 10.3447 -1.4492 0.9429
10.0960 10.3489 -1.4322 0.9435
9.7733 10.2692 -1.4043 0.9446
9.7221 10.3428 -1.4061 0.9445
9.6418 10.3853 -1.4038 0.9446
9.2328 10.5829 -1.3912 0.9451
9.2645 10.7528 -1.4060 0.9445
9.2124 10.8270 -1.4082 0.9445
9.0814 10.9445 -1.4088 0.9444
9.0022 11.1262 -1.4177 0.9441
8.9406 11.1910 -1.4189 0.9441
1.3468 1.7292 -0.2171 0.9912
1.3297 1.7293 -0.2161 0.9913
1.2962 1.7295 -0.2141 0.9914
1.2796 1.7296 -0.2131 0.9914
1.2632 1.7297 -0.2122 0.9914
1.2470 1.7298 -0.2112 0.9915
1.2309 1.7299 -0.2103 0.9915
1.1990 1.7301 -0.2085 0.9916
1.1833 1.7302 -0.2076 0.9916
1.1523 1.7304 -0.2059 0.9917
1.1218 1.7305 -0.2043 0.9917
1.0917 1.7307 -0.2027 0.9918
1.0769 1.7308 -0.2019 0.9918
1.0186 1.7311 -0.1990 0.9920
0.9900 1.7313 -0.1976 0.9920
0.9619 1.7314 -0.1962 0.9921
0.9204 1.7316 -0.1943 0.9921
0.8932 1.7318 -0.1930 0.9922
0.8663 1.7319 -0.1918 0.9922
0.8398 1.7320 -0.1907 0.9923
0.8266 1.7321 -0.1901 0.9923
0.8135 1.7322 -0.1896 0.9923
0.8005 1.7322 -0.1890 0.9924
0.7876 1.7323 -0.1885 0.9924
0.7619 1.7324 -0.1875 0.9924
0.7239 1.7326 -0.1860 0.9925
0.7114 1.7327 -0.1855 0.9925
0.6742 1.7328 -0.1842 0.9926
0.6497 1.7329 -0.1833 0.9926
0.6375 1.7330 -0.1829 0.9926
0.6133 1.7331 -0.1821 0.9926
0.6013 1.7331 -0.1817 0.9927
0.5537 1.7333 -0.1802 0.9927
0.5419 1.7334 -0.1799 0.9927
0.5185 1.7335 -0.1792 0.9928
0.5069 1.7335 -0.1789 0.9928
0.4837 1.7336 -0.1783 0.9928
0.4722 1.7337 -0.1780 0.9928
0.4607 1.7337 -0.1777 0.9928
0.4378 1.7338 -0.1771 0.9928
0.4265 1.7338 -0.1769 0.9928
0.3813 1.7340 -0.1759 0.9929
0.3701 1.7340 -0.1756 0.9929
0.3477 1.7341 -0.1752 0.9929
0.3255 1.7341 -0.1748 0.9929
0.3144 1.7342 -0.1746 0.9929
0.2703 1.7343 -0.1739 0.9930
0.2484 1.7344 -0.1736 0.9930
0.2374 1.7344 -0.1734 0.9930
0.2156 1.7345 -0.1731 0.9930
0.1614 1.7346 -0.1726 0.9930
0.1506 1.7346 -0.1725 0.9930
0.1398 1.7347 -0.1724 0.9930
0.1290 1.7347 -0.1723 0.9930
0.1182 1.7347 -0.1722 0.9930
0.1074 1.7347 -0.1722 0.9930
0.0859 1.7348 -0.1721 0.9930
0.0751 1.7348 -0.1720 0.9930
0.0644 1.7348 -0.1720 0.9930
0.0537 1.7349 -0.1719 0.9930
0.0429 1.7349 -0.1719 0.9930
0.0322 1.7349 -0.1719 0.9930
0.0215 1.7349 -0.1719 0.9931
0.0000 1.7349 -0.1719 0.9931
-0.0322 1.7348 -0.1719 0.9930
-0.0644 1.7347 -0.1720 0.9930
-0.0751 1.7346 -0.1720 0.9930
-0.0966 1.7346 -0.1721 0.9930
-0.1182 1.7345 -0.1722 0.9930
-0.1290 1.7344 -0.1723 0.9930
-0.1505 1.7344 -0.1725 0.9930
-0.1614 1.7345 -0.1726 0.9930
-0.1830 1.7345 -0.1728 0.9930
-0.2265 1.7345 -0.1733 0.9930
-0.2703 1.7346 -0.1739 0.9930
-0.2923 1.7346 -0.1742 0.9930
-0.3256 1.7346 -0.1748 0.9929
-0.3367 1.7346 -0.1750 0.9929
-0.3590 1.7346 -0.1755 0.9929
-0.3702 1.7346 -0.1757 0.9929
-0.3814 1.7346 -0.1759 0.9929
-0.3927 1.7346 -0.1762 0.9929
-0.4040 1.7346 -0.1764 0.9929
-0.4610 1.7346 -0.1778 0.9928
-0.4725 1.7346 -0.1781 0.9928
-0.4840 1.7346 -0.1784 0.9928
-0.4956 1.7346 -0.1787 0.9928
-0.5072 1.7346 -0.1790 0.9928
-0.5189 1.7346 -0.1794 0.9927
-0.5660 1.7346 -0.1807 0.9927
-0.5779 1.7346 -0.1811 0.9927
-0.6259 1.7346 -0.1827 0.9926
-0.6503 1.7346 -0.1835 0.9926
-0.7122 1.7346 -0.1857 0.9925
-0.7501 1.7345 -0.1872 0.9924
-0.7628 1.7345 -0.1877 0.9924
-0.7757 1.7345 -0.1882 0.9924
-0.7886 1.7345 -0.1887 0.9924
-0.8015 1.7345 -0.1893 0.9923
-0.8542 1.7344 -0.1915 0.9923
-0.8945 1.7344 -0.1933 0.9922
-0.9081 1.7343 -0.1939 0.9922
-0.9218 1.7343 -0.1946 0.9921
-0.9356 1.7343 -0.1952 0.9921
-0.9495 1.7343 -0.1959 0.9921
-0.9776 1.7343 -0.1972 0.9920
-0.9917 1.7342 -0.1979 0.9920
-1.0060 1.7342 -0.1986 0.9920
-1.0204 1.7342 -0.1993 0.9919
-1.0349 1.7341 -0.2000 0.9919
-1.0494 1.7341 -0.2008 0.9919
-1.0789 1.7341 -0.2023 0.9918
-1.0939 1.7340 -0.2031 0.9918
-1.1240 1.7340 -0.2047 0.9917
-1.1702 1.7339 -0.2072 0.9916
-1.1859 1.7339 -0.2081 0.9916
-1.2498 1.7337 -0.2117 0.9914
-1.2662 1.7337 -0.2127 0.9914
-1.2827 1.7337 -0.2136 0.9914
-1.2993 1.7336 -0.2146 0.9913
-1.3161 1.7336 -0.2156 0.9913
-1.3674 1.7335 -0.2187 0.9912
-1.3849 1.7334 -0.2198 0.9911
-1.4933 1.7332 -0.2266 0.9908
-1.5120 1.7331 -0.2278 0.9908
-1.5310 1.7331 -0.2291 0.9907
-1.6088 1.7329 -0.2342 0.9905
-1.7113 1.7326 -0.2412 0.9903
-1.7325 1.7325 -0.2427 0.9902
-1.7540 1.7324 -0.2442 0.9901
-1.7758 1.7324 -0.2457 0.9901
-1.7978 1.7323 -0.2473 0.9900
-1.8427 1.7322 -0.2505 0.9899
-1.8656 1.7321 -0.2522 0.9898
-1.8889 1.7320 -0.2539 0.9898
-1.9362 1.7319 -0.2573 0.9896
-2.0350 1.7316 -0.2647 0.9893
-2.0606 1.7315 -0.2666 0.9892
-2.1668 1.7311 -0.2747 0.9889
-2.1944 1.7310 -0.2769 0.9888
-2.2224 1.7309 -0.2790 0.9887
-2.2797 1.7307 -0.2835 0.9886
-2.3091 1.7306 -0.2858 0.9885
-2.4002 1.7303 -0.2931 0.9882
-2.4635 1.7300 -0.2982 0.9880
-2.4960 1.7299 -0.3008 0.9879
-2.5971 1.7295 -0.3091 0.9875
-2.6320 1.7294 -0.3120 0.9874
-2.6676 1.7293 -0.3149 0.9873
-2.7412 1.7292 -0.3210 0.9871
-2.7793 1.7293 -0.3243 0.9869
-2.8182 1.7294 -0.3275 0.9868
-2.9822 1.7300 -0.3415 0.9862
-3.0254 1.7301 -0.3452 0.9861
-3.1608 1.7305 -0.3570 0.9856
-3.3058 1.7310 -0.3696 0.9851
-3.3565 1.7312 -0.3741 0.9849
-3.4084 1.7314 -0.3787 0.9848
-3.4616 1.7316 -0.3834 0.9846
-3.6295 1.7321 -0.3984 0.9840
-3.8111 1.7327 -0.4147 0.9833
-3.9407 1.7332 -0.4264 0.9828
-4.0083 1.7334 -0.4326 0.9826
-4.0779 1.7336 -0.4389 0.9823
-4.1495 1.7338 -0.4455 0.9821
-4.2233 1.7341 -0.4522 0.9818
-4.3779 1.7346 -0.4665 0.9812
-4.5426 1.7352 -0.4817 0.9806
-4.8109 1.7361 -0.5066 0.9797
-4.9066 1.7364 -0.5156 0.9793
-5.1086 1.7371 -0.5345 0.9785
-5.2153 1.7375 -0.5445 0.9781
-5.3260 1.7379 -0.5550 0.9777
-5.4411 1.7382 -0.5658 0.9773
-5.6833 1.7385 -0.5887 0.9764
-6.2357 1.7399 -0.6413 0.9743
-6.3898 1.7404 -0.6560 0.9737
-6.5512 1.7410 -0.6715 0.9731
-6.7203 1.7415 -0.6877 0.9725
-7.0815 1.7419 -0.7224 0.9711
-7.2735 1.7415 -0.7409 0.9704
-7.9135 1.7402 -0.8026 0.9680
-8.1513 1.7396 -0.8256 0.9671
-23.7392 4.9131 -2.4014 0.9072
-23.8244 4.4715 -2.4012 0.9072
-23.8510 4.3240 -2.4011 0.9072
-23.9253 3.8804 -2.4010 0.9072
-23.9482 3.7323 -2.4009 0.9072
-23.9702 3.5841 -2.4008 0.9072
-23.9913 3.4356 -2.4008 0.9072
-24.0307 3.1385 -2.4006 0.9072
-24.0490 2.9898 -2.4006 0.9072
-24.1131 2.3938 -2.4003 0.9072
-24.1397 2.0952 -2.4002 0.9072
-24.1516 1.9459 -2.4002 0.9072
-24.1625 1.7964 -2.4001 0.9072
-24.1970 1.1981 -2.3998 0.9072
-24.2087 0.8987 -2.3997 0.9072
-24.2132 0.7489 -2.3997 0.9072
-24.2211 0.2996 -2.3995 0.9072
-22.5170 0.0000 -2.3994 0.9134
-22.5035 -0.6961 -2.3991 0.9134
-22.4921 -0.9743 -2.3990 0.9134
-22.4851 -1.1134 -2.3990 0.9134
-22.4590 -1.5302 -2.3988 0.9134
-22.4373 -1.8077 -2.3987 0.9134
-22.4122 -2.0851 -2.3986 0.9134
-22.3163 -2.9146 -2.3982 0.9134
-22.2973 -3.0525 -2.3982 0.9134
-22.2353 -3.4654 -2.3980 0.9135
-22.2129 -3.6028 -2.3980 0.9135
-22.1897 -3.7400 -2.3979 0.9135
-22.1657 -3.8770 -2.3979 0.9135
-22.0610 -4.4237 -2.3976 0.9135
-22.0327 -4.5599 -2.3976 0.9135
-22.0036 -4.6961 -2.3975 0.9135
-21.9736 -4.8319 -2.3975 0.9135
-21.9428 -4.9675 -2.3974 0.9135
-21.8787 -5.2383 -2.3973 0.9135
-21.8454 -5.3734 -2.3973 0.9135
-21.7039 -5.9116 -2.3970 0.9135
-21.5084 -6.5790 -2.3968 0.9135
-21.4244 -6.8442 -2.3967 0.9135
-21.3812 -6.9764 -2.3966 0.9135
-21.2467 -7.3714 -2.3965 0.9135
-21.2003 -7.5026 -2.3964 0.9135
-21.1530 -7.6332 -2.3964 0.9135
-21.1049 -7.7638 -2.3963 0.9135
-21.0561 -7.8940 -2.3963 0.9135
-20.7998 -8.5403 -2.3960 0.9135
-20.6365 -8.9241 -2.3959 0.9135
-20.2280 -9.8074 -2.3955 0.9135
-20.1044 -10.0564 -2.3954 0.9135
-20.0414 -10.1804 -2.3954 0.9135
-19.9777 -10.3040 -2.3953 0.9135
-19.9132 -10.4271 -2.3953 0.9135
-19.6476 -10.9156 -2.3951 0.9136
-19.5794 -11.0367 -2.3950 0.9136
-19.2989 -11.5167 -2.3949 0.9136
-19.1543 -11.7541 -2.3948 0.9136
-19.0809 -11.8722 -2.3947 0.9136
-19.0067 -11.9896 -2.3947 0.9136
-18.7030 -12.4552 -2.3945 0.9136
-18.4677 -12.7993 -2.3944 0.9136
-18.3878 -12.9130 -2.3943 0.9136
-18.3073 -13.0263 -2.3943 0.9136
-18.2261 -13.1390 -2.3942 0.9136
-18.1441 -13.2512 -2.3942 0.9136
-17.9782 -13.4741 -2.3941 0.9136
-17.8943 -13.5849 -2.3941 0.9136
-17.8096 -13.6950 -2.3940 0.9136
-17.6383 -13.9137 -2.3939 0.9136
-17.4642 -14.1304 -2.3939 0.9136
-17.2875 -14.3448 -2.3938 0.9136
-17.1982 -14.4512 -2.3937 0.9136
-17.1082 -14.5570 -2.3937 0.9136
-17.0176 -14.6623 -2.3937 0.9136
-16.8344 -14.8712 -2.3936 0.9136
-16.7419 -14.9748 -2.3936 0.9136
-16.6487 -15.0778 -2.3935 0.9136
-16.4604 -15.2820 -2.3934 0.9136
-16.3653 -15.3833 -2.3934 0.9136
-16.2696 -15.4840 -2.3934 0.9136
-16.1733 -15.5841 -2.3933 0.9136
-16.0764 -15.6836 -2.3933 0.9136
-15.7819 -15.9784 -2.3932 0.9136
-15.6826 -16.0754 -2.3931 0.9136
-15.5827 -16.1719 -2.3931 0.9136
-15.4821 -16.2677 -2.3931 0.9136
-15.2793 -16.4575 -2.3930 0.9136
-15.0742 -16.6447 -2.3929 0.9136
-14.9707 -16.7374 -2.3929 0.9136
-14.8667 -16.8294 -2.3929 0.9136
-14.6571 -17.0116 -2.3928 0.9136
-14.5514 -17.1016 -2.3928 0.9136
-14.1232 -17.4554 -2.3927 0.9136
-14.0148 -17.5422 -2.3926 0.9136
-13.9059 -17.6283 -2.3926 0.9136
-13.6864 -17.7985 -2.3925 0.9136
-13.5759 -17.8826 -2.3925 0.9136
-13.3534 -18.0487 -2.3924 0.9136
-13.0158 -18.2927 -2.3924 0.9136
-11.3321 -16.3508 -2.1199 0.9231
-10.9027 -16.3718 -2.0960 0.9239
-10.7587 -16.3741 -2.0878 0.9242
-10.6172 -16.3786 -2.0799 0.9245
-10.5585 -16.5108 -2.0884 0.9242
-10.4048 -16.4943 -2.0781 0.9245
-9.9251 -16.6317 -2.0639 0.9250
-9.7878 -16.6347 -2.0567 0.9253
-9.6516 -16.6377 -2.0496 0.9255
-9.5163 -16.6408 -2.0427 0.9258
-9.1160 -16.6502 -2.0228 0.9265
-8.9851 -16.6547 -2.0165 0.9267
-8.7772 -16.5129 -1.9928 0.9275
-8.4930 -16.4666 -1.9743 0.9282
-8.3667 -16.4708 -1.9686 0.9284
-7.9845 -16.4681 -1.9502 0.9290
-7.8795 -16.5110 -1.9495 0.9290
-7.7995 -16.6067 -1.9551 0.9289
-7.7590 -16.7896 -1.9709 0.9283
-7.7679 -17.3699 -2.0276 0.9263
-7.7987 -17.7321 -2.0642 0.9250
-8.3427 -19.2920 -2.2398 0.9189
-8.1034 -19.3935 -2.2397 0.9189
-7.9832 -19.4431 -2.2397 0.9189
-7.4997 -19.6341 -2.2397 0.9189
-7.3781 -19.6800 -2.2397 0.9189
-7.1340 -19.7695 -2.2396 0.9189
-6.8889 -19.8560 -2.2396 0.9189
-6.6428 -19.9395 -2.2396 0.9189
-6.1474 -20.0974 -2.2395 0.9189
-5.8983 -20.1717 -2.2395 0.9189
-5.7734 -20.2076 -2.2395 0.9189
-5.5230 -20.2774 -2.2395 0.9189
-5.3975 -20.3110 -2.2395 0.9189
-5.1458 -20.3762 -2.2395 0.9189
-4.8934 -20.4381 -2.2395 0.9189
-4.5134 -20.5252 -2.2394 0.9189
-3.8766 -20.6547 -2.2394 0.9189
-3.4927 -20.7229 -2.2394 0.9189
-3.1077 -20.7841 -2.2394 0.9189
-2.9791 -20.8029 -2.2394 0.9189
-2.3345 -20.8851 -2.2394 0.9189
-2.2053 -20.8991 -2.2394 0.9189
-1.9467 -20.9247 -2.2394 0.9189
-1.6877 -20.9473 -2.2394 0.9189
-1.2988 -20.9750 -2.2394 0.9189
-0.9095 -20.9956 -2.2394 0.9189
-0.7796 -21.0009 -2.2394 0.9189
-0.6497 -21.0053 -2.2394 0.9189
-0.5198 -21.0090 -2.2394 0.9189
-0.3899 -21.0119 -2.2394 0.9189
-0.2599 -21.0139 -2.2394 0.9189
-0.1300 -21.0151 -2.2394 0.9189
-0.0000 -21.0156 -2.2394 0.9189
0.3899 -21.0122 -2.2395 0.9189
0.4229 -17.0922 -1.8219 0.9335
0.9396 -16.8640 -1.7998 0.9343
1.1521 -16.9092 -1.8060 0.9341
1.7772 -16.8424 -1.8047 0.9341
1.8824 -16.8402 -1.8057 0.9341
1.9879 -16.8400 -1.8069 0.9341
2.0935 -16.8398 -1.8083 0.9340
2.1993 -16.8397 -1.8097 0.9340
2.3053 -16.8395 -1.8112 0.9339
2.5178 -16.8391 -1.8143 0.9338
2.7309 -16.8376 -1.8177 0.9337
2.8378 -16.8369 -1.8195 0.9336
3.0523 -16.8364 -1.8234 0.9335
3.1599 -16.8362 -1.8254 0.9334
3.4990 -16.9064 -1.8397 0.9329
5.7748 -20.2124 -2.2400 0.9189
6.0244 -20.1398 -2.2401 0.9189
6.1489 -20.1024 -2.2401 0.9189
6.3972 -20.0252 -2.2401 0.9189
6.6445 -19.9449 -2.2402 0.9189
6.7678 -19.9036 -2.2402 0.9189
6.8908 -19.8616 -2.2402 0.9189
6.4856 -16.6691 -1.9060 0.9306
6.6274 -16.1408 -1.8593 0.9322
6.8674 -16.1538 -1.8705 0.9318
7.1158 -16.1794 -1.8835 0.9314
7.2184 -16.1412 -1.8842 0.9313
7.4827 -16.1917 -1.9007 0.9308
7.6027 -16.1877 -1.9058 0.9306
7.7225 -16.1819 -1.9107 0.9304
7.9690 -16.1806 -1.9220 0.9300
8.4408 -16.3653 -1.9622 0.9286
8.8430 -16.1515 -1.9622 0.9286
8.9607 -16.1289 -1.9662 0.9285
9.1028 -16.1486 -1.9754 0.9281
9.2644 -16.2002 -1.9887 0.9277
9.3647 -16.1431 -1.9887 0.9277
9.4907 -16.1297 -1.9943 0.9275
11.1109 -18.6189 -2.3105 0.9165
11.2658 -18.6159 -2.3187 0.9162
11.4218 -18.6129 -2.3271 0.9159
11.8969 -18.6037 -2.3531 0.9150
12.0576 -18.6006 -2.3621 0.9147
12.2195 -18.5974 -2.3713 0.9144
12.3827 -18.5942 -2.3806 0.9141
12.6800 -18.5393 -2.3934 0.9136
12.7945 -18.4608 -2.3935 0.9136
12.9086 -18.3817 -2.3935 0.9136
13.0223 -18.3017 -2.3936 0.9136
13.1354 -18.2212 -2.3936 0.9136
13.2481 -18.1399 -2.3936 0.9136
13.5830 -17.8919 -2.3937 0.9136
13.6936 -17.8078 -2.3938 0.9136
13.9132 -17.6377 -2.3939 0.9136
14.0223 -17.5516 -2.3939 0.9136
14.1308 -17.4648 -2.3939 0.9136
14.2388 -17.3774 -2.3940 0.9136
14.3462 -17.2893 -2.3940 0.9136
14.4531 -17.2006 -2.3941 0.9136
14.6653 -17.0211 -2.3942 0.9136
14.7705 -16.9303 -2.3942 0.9136
14.8752 -16.8390 -2.3942 0.9136
15.5920 -16.1815 -2.3945 0.9136
15.6920 -16.0851 -2.3946 0.9136
15.7915 -15.9880 -2.3946 0.9136
15.9886 -15.7921 -2.3947 0.9136
16.3756 -15.3929 -2.3949 0.9136
16.5653 -15.1898 -2.3950 0.9136
16.7526 -14.9844 -2.3951 0.9136
16.8452 -14.8808 -2.3951 0.9136
16.9373 -14.7766 -2.3952 0.9135
17.1194 -14.5665 -2.3953 0.9135
17.5632 -14.0317 -2.3955 0.9135
17.6501 -13.9231 -2.3956 0.9135
17.8217 -13.7043 -2.3957 0.9135
17.9065 -13.5941 -2.3957 0.9135
17.9906 -13.4834 -2.3958 0.9135
18.0740 -13.3722 -2.3958 0.9135
18.3201 -13.0353 -2.3960 0.9135
18.4807 -12.8083 -2.3961 0.9135
18.6385 -12.5793 -2.3962 0.9135
18.9455 -12.1155 -2.3964 0.9135
19.0205 -11.9983 -2.3964 0.9135
19.0948 -11.8807 -2.3965 0.9135
19.1683 -11.7627 -2.3965 0.9135
19.2411 -11.6442 -2.3966 0.9135
19.3131 -11.5252 -2.3966 0.9135
19.6624 -10.9238 -2.3969 0.9135
19.7969 -10.6802 -2.3970 0.9135
19.9283 -10.4350 -2.3971 0.9135
20.1198 -10.0642 -2.3973 0.9135
20.2437 -9.8150 -2.3974 0.9135
20.3045 -9.6899 -2.3974 0.9135
20.3645 -9.5644 -2.3975 0.9135
20.4236 -9.4384 -2.3975 0.9135
20.5398 -9.1855 -2.3976 0.9135
20.7081 -8.8035 -2.3978 0.9135
20.9214 -8.2894 -2.3980 0.9135
21.0730 -7.9004 -2.3982 0.9134
21.1701 -7.6395 -2.3983 0.9134
21.2175 -7.5086 -2.3984 0.9134
21.2640 -7.3774 -2.3984 0.9134
21.3546 -7.1142 -2.3985 0.9134
21.3987 -6.9822 -2.3986 0.9134
21.4844 -6.7172 -2.3987 0.9134
21.5669 -6.4513 -2.3988 0.9134
21.6068 -6.3180 -2.3989 0.9134
21.7219 -5.9165 -2.3990 0.9134
21.7586 -5.7822 -2.3991 0.9134
21.8295 -5.5129 -2.3992 0.9134
21.8636 -5.3779 -2.3993 0.9134
21.8970 -5.2427 -2.3993 0.9134
21.9296 -5.1073 -2.3994 0.9134
21.9612 -4.9717 -2.3994 0.9134
21.9921 -4.8359 -2.3995 0.9134
22.0221 -4.6999 -2.3995 0.9134
22.0513 -4.5638 -2.3996 0.9134
22.0796 -4.4274 -2.3997 0.9134
22.1071 -4.2909 -2.3997 0.9134
22.1595 -4.0173 -2.3998 0.9134
22.1845 -3.8803 -2.3999 0.9134
22.2758 -3.3307 -2.4001 0.9134
22.2965 -3.1930 -2.4002 0.9134
22.3163 -3.0551 -2.4002 0.9134
22.3353 -2.9171 -2.4003 0.9134
22.3872 -2.5024 -2.4005 0.9134
22.4028 -2.3640 -2.4005 0.9134
22.4175 -2.2254 -2.4006 0.9134
22.4444 -1.9481 -2.4007 0.9134
22.4566 -1.8093 -2.4007 0.9134
22.4966 -1.2534 -2.4010 0.9133
22.5045 -1.1143 -2.4010 0.9133
22.5273 -0.5573 -2.4013 0.9133
22.5354 -0.1394 -2.4014 0.9133
22.5364 -0.0000 -2.4015 0.9133
22.5341 0.4181 -2.4017 0.9133
22.5283 0.6968 -2.4018 0.9133
22.5240 0.8362 -2.4018 0.9133
22.5063 1.2539 -2.4020 0.9133
22.4986 1.3931 -2.4021 0.9133
22.4901 1.5323 -2.4021 0.9133
22.4807 1.6713 -2.4022 0.9133
22.4705 1.8104 -2.4022 0.9133
22.4474 2.0883 -2.4023 0.9133
22.4209 2.3659 -2.4025 0.9133
21.3683 2.7908 -2.2964 0.9170
22.3397 3.0583 -2.4027 0.9133
17.6272 2.6356 -1.8992 0.9308
17.4650 2.7220 -1.8836 0.9314
17.3728 2.9281 -1.8774 0.9316
17.3606 3.0366 -1.8781 0.9316
12.8592 2.8277 -1.4030 0.9484
12.3079 2.8665 -1.3466 0.9504
11.7696 2.8950 -1.2916 0.9524
11.6313 2.9374 -1.2783 0.9529
11.6248 3.0124 -1.2797 0.9528
11.6026 3.0833 -1.2793 0.9529
11.5822 3.1547 -1.2792 0.9529
11.5681 3.2278 -1.2798 0.9528
11.5598 3.3027 -1.2811 0.9528
11.5401 3.5299 -1.2860 0.9526
11.5368 3.6855 -1.2906 0.9524
11.5386 3.8440 -1.2960 0.9523
11.5619 4.0113 -1.3041 0.9520
18.9591 7.1078 -2.1576 0.9218
18.7772 7.3058 -2.1470 0.9221
18.7797 7.4408 -2.1525 0.9220
19.3969 7.8245 -2.2288 0.9193
19.5833 8.0408 -2.2559 0.9184
19.5333 8.1618 -2.2559 0.9184
19.4826 8.2825 -2.2559 0.9184
19.4311 8.4029 -2.2559 0.9184
19.3789 8.5229 -2.2559 0.9184
19.3259 8.6427 -2.2559 0.9184
19.1625 8.9998 -2.2560 0.9184
19.1066 9.1182 -2.2560 0.9184
19.0499 9.2363 -2.2560 0.9184
18.9925 9.3539 -2.2560 0.9184
18.9344 9.4712 -2.2560 0.9184
18.8756 9.5882 -2.2560 0.9184
18.8160 9.7048 -2.2560 0.9184
18.7557 9.8210 -2.2560 0.9184
18.6947 9.9368 -2.2561 0.9184
18.6330 10.0523 -2.2561 0.9184
18.5705 10.1674 -2.2561 0.9184
18.2728 10.1518 -2.2275 0.9194
15.6738 9.0924 -1.9309 0.9297
15.6238 9.1930 -1.9317 0.9297
15.6317 9.5924 -1.9544 0.9289
6.9522 4.5680 -0.8864 0.9671
6.7781 4.5746 -0.8714 0.9676
6.6242 4.5910 -0.8588 0.9681
6.5678 4.6123 -0.8552 0.9682
6.5192 4.6386 -0.8526 0.9683
6.4797 4.6712 -0.8512 0.9684
6.4402 4.7035 -0.8498 0.9684
6.4008 4.7357 -0.8485 0.9685
6.3031 4.8469 -0.8473 0.9685
6.1768 4.9977 -0.8467 0.9685
6.1454 5.0355 -0.8466 0.9685
6.0907 5.2477 -0.8567 0.9682
6.0627 5.4228 -0.8668 0.9678
6.0531 5.4820 -0.8702 0.9677
6.0393 5.6769 -0.8832 0.9672
6.0502 5.9759 -0.9062 0.9664
6.0553 6.0553 -0.9125 0.9661
6.0757 6.1513 -0.9213 0.9658
6.1371 6.2909 -0.9365 0.9653
9.9989 10.3770 -1.5356 0.9437
9.7733 10.2692 -1.5107 0.9446
9.5618 10.4277 -1.5076 0.9447
9.4820 10.4699 -1.5052 0.9448
9.4025 10.5121 -1.5029 0.9448
9.2934 10.5203 -1.4958 0.9451
9.2124 10.8270 -1.5149 0.9444
9.1601 10.9014 -1.5173 0.9443
1.3803 1.7278 -0.2357 0.9911
1.3630 1.7279 -0.2345 0.9912
1.3458 1.7280 -0.2334 0.9912
1.3288 1.7281 -0.2323 0.9913
1.3120 1.7282 -0.2312 0.9913
1.2788 1.7284 -0.2291 0.9914
1.2624 1.7285 -0.2281 0.9914
1.2141 1.7288 -0.2251 0.9915
1.1826 1.7290 -0.2232 0.9916
1.1670 1.7291 -0.2223 0.9916
1.1211 1.7294 -0.2196 0.9917
1.1060 1.7295 -0.2188 0.9918
1.0910 1.7296 -0.2179 0.9918
1.0762 1.7297 -0.2171 0.9918
1.0615 1.7298 -0.2163 0.9919
1.0323 1.7299 -0.2147 0.9919
1.0179 1.7300 -0.2139 0.9920
1.0036 1.7301 -0.2131 0.9920
0.9198 1.7306 -0.2088 0.9921
0.9062 1.7306 -0.2082 0.9922
0.8792 1.7308 -0.2069 0.9922
0.8658 1.7309 -0.2062 0.9922
0.8525 1.7309 -0.2056 0.9923
0.8393 1.7310 -0.2050 0.9923
0.8130 1.7311 -0.2038 0.9923
0.7871 1.7313 -0.2027 0.9924
0.7742 1.7313 -0.2021 0.9924
0.7615 1.7314 -0.2016 0.9924
0.7487 1.7314 -0.2010 0.9924
0.7361 1.7315 -0.2005 0.9925
0.7110 1.7316 -0.1995 0.9925
0.6861 1.7317 -0.1985 0.9925
0.6615 1.7319 -0.1976 0.9926
0.6493 1.7319 -0.1971 0.9926
0.6371 1.7320 -0.1967 0.9926
0.6250 1.7320 -0.1962 0.9926
0.6130 1.7321 -0.1958 0.9926
0.5890 1.7322 -0.1950 0.9927
0.5771 1.7322 -0.1946 0.9927
0.5182 1.7325 -0.1927 0.9928
0.4950 1.7326 -0.1920 0.9928
0.4834 1.7326 -0.1917 0.9928
0.4490 1.7327 -0.1907 0.9928
0.4376 1.7328 -0.1904 0.9928
0.4262 1.7328 -0.1902 0.9928
0.4036 1.7329 -0.1896 0.9929
0.3811 1.7330 -0.1891 0.9929
0.3475 1.7331 -0.1884 0.9929
0.3364 1.7331 -0.1881 0.9929
0.3253 1.7332 -0.1879 0.9929
0.2921 1.7333 -0.1873 0.9930
0.2811 1.7333 -0.1871 0.9930
0.2701 1.7334 -0.1869 0.9930
0.2592 1.7334 -0.1868 0.9930
0.2482 1.7334 -0.1866 0.9930
0.2373 1.7335 -0.1864 0.9930
0.2264 1.7335 -0.1863 0.9930
0.2046 1.7335 -0.1860 0.9930
0.1829 1.7336 -0.1858 0.9930
0.1721 1.7336 -0.1856 0.9930
0.1289 1.7337 -0.1853 0.9930
0.1181 1.7338 -0.1852 0.9930
0.1074 1.7338 -0.1851 0.9930
0.0536 1.7339 -0.1849 0.9930
0.0214 1.7340 -0.1848 0.9930
-0.0107 1.7340 -0.1848 0.9930
-0.0429 1.7338 -0.1848 0.9930
-0.0644 1.7338 -0.1849 0.9930
-0.0751 1.7337 -0.1849 0.9930
-0.0966 1.7337 -0.1850 0.9930
-0.1181 1.7336 -0.1852 0.9930
-0.1505 1.7336 -0.1854 0.9930
-0.1613 1.7336 -0.1855 0.9930
-0.1938 1.7336 -0.1859 0.9930
-0.2264 1.7336 -0.1863 0.9930
-0.2373 1.7336 -0.1865 0.9930
-0.2483 1.7336 -0.1866 0.9930
-0.2702 1.7337 -0.1870 0.9930
-0.2812 1.7337 -0.1872 0.9930
-0.3032 1.7337 -0.1875 0.9929
-0.3254 1.7337 -0.1880 0.9929
-0.3365 1.7337 -0.1882 0.9929
-0.3700 1.7337 -0.1889 0.9929
-0.3925 1.7337 -0.1894 0.9929
-0.4038 1.7337 -0.1897 0.9929
-0.4264 1.7337 -0.1903 0.9928
-0.4378 1.7337 -0.1905 0.9928
-0.4607 1.7337 -0.1912 0.9928
-0.4722 1.7337 -0.1915 0.9928
-0.4953 1.7337 -0.1921 0.9928
-0.5069 1.7337 -0.1925 0.9928
-0.5186 1.7337 -0.1928 0.9927
