ply
format ascii 1.0
element vertex 1597
property float32 x
property float32 y
property float32 z
property float32 I
end_header
-8.5240 -4.5308 -2.3603 0.9610
-8.4639 -4.6340 -2.3594 0.9610
-8.4334 -4.6853 -2.3589 0.9611
-8.4026 -4.7365 -2.3584 0.9611
-8.3401 -4.8381 -2.3575 0.9611
-8.3084 -4.8887 -2.3570 0.9611
-8.1786 -5.0887 -2.3552 0.9611
-8.1454 -5.1382 -2.3548 0.9611
-8.1120 -5.1875 -2.3543 0.9611
-8.0782 -5.2366 -2.3539 0.9611
-7.8695 -5.5265 -2.3512 0.9612
-7.7614 -5.6683 -2.3499 0.9612
-7.7247 -5.7152 -2.3495 0.9612
-7.6878 -5.7619 -2.3491 0.9612
-7.6507 -5.8082 -2.3486 0.9612
-7.6133 -5.8544 -2.3482 0.9612
-7.4608 -6.0366 -2.3466 0.9613
-7.3830 -6.1263 -2.3457 0.9613
-7.3437 -6.1707 -2.3453 0.9613
-7.2643 -6.2590 -2.3445 0.9613
-7.2242 -6.3027 -2.3441 0.9613
-7.1433 -6.3894 -2.3433 0.9613
-7.1025 -6.4324 -2.3429 0.9613
-7.0614 -6.4751 -2.3425 0.9613
-7.0201 -6.5175 -2.3422 0.9613
-6.9785 -6.5598 -2.3418 0.9613
-6.8945 -6.6434 -2.3410 0.9613
-6.8522 -6.6848 -2.3406 0.9613
-6.7668 -6.7669 -2.3399 0.9614
-6.7238 -6.8075 -2.3395 0.9614
-6.6805 -6.8479 -2.3391 0.9614
-6.5932 -6.9278 -2.3384 0.9614
-6.5493 -6.9674 -2.3380 0.9614
-6.5050 -7.0066 -2.3377 0.9614
-6.3710 -7.1229 -2.3366 0.9614
-6.3259 -7.1611 -2.3363 0.9614
-6.2806 -7.1990 -2.3359 0.9614
-6.2350 -7.2366 -2.3356 0.9614
-6.1892 -7.2739 -2.3352 0.9614
-6.1432 -7.3110 -2.3349 0.9614
-6.0970 -7.3478 -2.3345 0.9614
-6.0506 -7.3843 -2.3342 0.9615
-5.9571 -7.4565 -2.3335 0.9615
-5.8628 -7.5275 -2.3329 0.9615
-5.8153 -7.5625 -2.3326 0.9615
-5.6234 -7.6999 -2.3313 0.9615
-5.4775 -7.7998 -2.3304 0.9615
-5.2802 -7.9288 -2.3292 0.9615
-4.9788 -8.1133 -2.3275 0.9616
-4.9279 -8.1430 -2.3272 0.9616
-4.8769 -8.1724 -2.3270 0.9616
-4.6193 -8.3146 -2.3256 0.9616
-4.5673 -8.3421 -2.3254 0.9616
-4.5151 -8.3693 -2.3251 0.9616
-4.4628 -8.3961 -2.3249 0.9616
-4.4103 -8.4226 -2.3246 0.9616
-4.3577 -8.4488 -2.3244 0.9616
-4.3049 -8.4748 -2.3242 0.9616
-4.2520 -8.5004 -2.3239 0.9616
-4.1989 -8.5257 -2.3237 0.9616
-4.1457 -8.5506 -2.3235 0.9616
-4.0388 -8.5996 -2.3230 0.9616
-3.6060 -8.7823 -2.3213 0.9617
-3.5513 -8.8037 -2.3211 0.9617
-3.4965 -8.8247 -2.3209 0.9617
-3.4415 -8.8455 -2.3207 0.9617
-3.3865 -8.8658 -2.3205 0.9617
-3.3314 -8.8859 -2.3203 0.9617
-3.2761 -8.9056 -2.3202 0.9617
-3.1652 -8.9441 -2.3198 0.9617
-3.1096 -8.9628 -2.3196 0.9617
-3.0539 -8.9812 -2.3194 0.9617
-2.9421 -9.0170 -2.3191 0.9617
-2.8861 -9.0344 -2.3189 0.9617
-2.7737 -9.0681 -2.3186 0.9617
-2.6610 -9.1005 -2.3183 0.9617
-2.6045 -9.1163 -2.3182 0.9617
-2.4913 -9.1466 -2.3179 0.9617
-2.2067 -9.2166 -2.3172 0.9617
-2.1495 -9.2296 -2.3171 0.9617
-2.0923 -9.2422 -2.3170 0.9617
-2.0350 -9.2546 -2.3169 0.9617
-1.9202 -9.2781 -2.3166 0.9617
-1.8627 -9.2894 -2.3165 0.9617
-1.5164 -9.3497 -2.3159 0.9617
-1.4006 -9.3671 -2.3158 0.9617
-1.3426 -9.3753 -2.3157 0.9618
-1.1683 -9.3977 -2.3155 0.9618
-1.0519 -9.4108 -2.3153 0.9618
-0.9937 -9.4169 -2.3153 0.9618
-0.8188 -9.4330 -2.3151 0.9618
-0.7604 -9.4377 -2.3151 0.9618
-0.7020 -9.4421 -2.3150 0.9618
-0.5851 -9.4497 -2.3149 0.9618
-0.4682 -9.4560 -2.3149 0.9618
-0.4097 -9.4585 -2.3148 0.9618
-0.2927 -9.4627 -2.3148 0.9618
-0.2342 -9.4642 -2.3148 0.9618
-0.1171 -9.4663 -2.3147 0.9618
0.1171 -9.4662 -2.3147 0.9618
0.2342 -9.4640 -2.3147 0.9618
0.5267 -9.4526 -2.3148 0.9618
0.6435 -9.4455 -2.3149 0.9618
0.7019 -9.4415 -2.3149 0.9618
0.7603 -9.4371 -2.3149 0.9618
0.8770 -9.4273 -2.3150 0.9618
0.9936 -9.4161 -2.3151 0.9618
1.1682 -9.3967 -2.3152 0.9618
1.4583 -9.3574 -2.3156 0.9618
1.5741 -9.3393 -2.3157 0.9618
1.6319 -9.3296 -2.3158 0.9617
1.6896 -9.3197 -2.3159 0.9617
1.7472 -9.3095 -2.3160 0.9617
2.0346 -9.2529 -2.3165 0.9617
2.0919 -9.2406 -2.3166 0.9617
2.2063 -9.2149 -2.3168 0.9617
2.3203 -9.1878 -2.3170 0.9617
2.3772 -9.1738 -2.3171 0.9617
2.4340 -9.1594 -2.3173 0.9617
2.4907 -9.1447 -2.3174 0.9617
2.6040 -9.1142 -2.3177 0.9617
2.7168 -9.0824 -2.3179 0.9617
2.7731 -9.0660 -2.3181 0.9617
2.8293 -9.0492 -2.3182 0.9617
2.8854 -9.0321 -2.3184 0.9617
2.9414 -9.0147 -2.3185 0.9617
2.9973 -8.9970 -2.3187 0.9617
3.0531 -8.9788 -2.3188 0.9617
3.1088 -8.9604 -2.3190 0.9617
3.1643 -8.9416 -2.3192 0.9617
3.3855 -8.8633 -2.3198 0.9617
3.5502 -8.8010 -2.3204 0.9617
3.6049 -8.7796 -2.3206 0.9617
3.6594 -8.7579 -2.3208 0.9617
3.7138 -8.7358 -2.3210 0.9617
3.7681 -8.7134 -2.3212 0.9617
3.8222 -8.6907 -2.3214 0.9617
3.8762 -8.6676 -2.3216 0.9617
3.9301 -8.6443 -2.3218 0.9617
4.0375 -8.5966 -2.3222 0.9616
4.2504 -8.4973 -2.3231 0.9616
4.3561 -8.4457 -2.3235 0.9616
4.5134 -8.3660 -2.3242 0.9616
4.6693 -8.2834 -2.3250 0.9616
4.7209 -8.2553 -2.3252 0.9616
4.8237 -8.1980 -2.3257 0.9616
4.9258 -8.1396 -2.3262 0.9616
5.0273 -8.0799 -2.3268 0.9616
5.1280 -8.0189 -2.3273 0.9616
5.1781 -7.9880 -2.3276 0.9616
5.2280 -7.9568 -2.3279 0.9616
5.2778 -7.9253 -2.3281 0.9615
5.3767 -7.8613 -2.3287 0.9615
5.4749 -7.7961 -2.3293 0.9615
5.5723 -7.7298 -2.3299 0.9615
5.6207 -7.6962 -2.3302 0.9615
5.6690 -7.6622 -2.3305 0.9615
5.7170 -7.6281 -2.3308 0.9615
5.8124 -7.5588 -2.3314 0.9615
5.8598 -7.5237 -2.3317 0.9615
6.0009 -7.4167 -2.3327 0.9615
6.1400 -7.3071 -2.3337 0.9615
6.1859 -7.2701 -2.3340 0.9615
6.2317 -7.2327 -2.3343 0.9614
6.2772 -7.1951 -2.3347 0.9614
6.3225 -7.1572 -2.3350 0.9614
6.4124 -7.0805 -2.3357 0.9614
6.5014 -7.0027 -2.3364 0.9614
6.5456 -6.9634 -2.3367 0.9614
6.6332 -6.8841 -2.3374 0.9614
6.6767 -6.8439 -2.3378 0.9614
6.7199 -6.8036 -2.3382 0.9614
6.8057 -6.7220 -2.3389 0.9614
6.8482 -6.6809 -2.3393 0.9614
7.0158 -6.5136 -2.3408 0.9613
7.1390 -6.3855 -2.3419 0.9613
7.2598 -6.2550 -2.3431 0.9613
7.2996 -6.2111 -2.3435 0.9613
7.3391 -6.1669 -2.3439 0.9613
7.3783 -6.1224 -2.3443 0.9613
7.6083 -5.8505 -2.3467 0.9612
7.6457 -5.8044 -2.3471 0.9612
7.7925 -5.6175 -2.3488 0.9612
7.8642 -5.5227 -2.3496 0.9612
8.0043 -5.3304 -2.3514 0.9612
8.1063 -5.1839 -2.3527 0.9612
8.1398 -5.1346 -2.3531 0.9611
8.1729 -5.0851 -2.3536 0.9611
8.2383 -4.9856 -2.3545 0.9611
8.2706 -4.9355 -2.3549 0.9611
8.3025 -4.8852 -2.3554 0.9611
8.3342 -4.8347 -2.3558 0.9611
8.3655 -4.7840 -2.3563 0.9611
8.3966 -4.7331 -2.3567 0.9611
8.4273 -4.6820 -2.3572 0.9611
8.4879 -4.5792 -2.3581 0.9611
8.7452 -4.1073 -2.3624 0.9610
8.7723 -4.0540 -2.3628 0.9610
8.7990 -4.0004 -2.3633 0.9610
8.8253 -3.9467 -2.3638 0.9610
8.8514 -3.8929 -2.3643 0.9610
8.8771 -3.8389 -2.3648 0.9610
8.9025 -3.7847 -2.3653 0.9609
8.9276 -3.7303 -2.3658 0.9609
8.9768 -3.6212 -2.3667 0.9609
9.0247 -3.5113 -2.3677 0.9609
9.1164 -3.2898 -2.3697 0.9609
9.1385 -3.2340 -2.3702 0.9609
9.2236 -3.0096 -2.3723 0.9608
9.2440 -2.9531 -2.3728 0.9608
9.2641 -2.8965 -2.3733 0.9608
9.3032 -2.7829 -2.3743 0.9608
9.3410 -2.6688 -2.3753 0.9608
9.3774 -2.5541 -2.3764 0.9608
9.4124 -2.4390 -2.3774 0.9608
9.4293 -2.3813 -2.3779 0.9607
9.4622 -2.2655 -2.3790 0.9607
9.4781 -2.2074 -2.3795 0.9607
9.4937 -2.1493 -2.3800 0.9607
9.5089 -2.0910 -2.3805 0.9607
9.5238 -2.0325 -2.3811 0.9607
9.5383 -1.9741 -2.3816 0.9607
9.5524 -1.9155 -2.3821 0.9607
9.5662 -1.8568 -2.3827 0.9607
9.5796 -1.7980 -2.3832 0.9607
9.5927 -1.7391 -2.3837 0.9607
9.6298 -1.5619 -2.3853 0.9606
9.6414 -1.5026 -2.3859 0.9606
9.6527 -1.4433 -2.3864 0.9606
9.6942 -1.2052 -2.3885 0.9606
9.7036 -1.1454 -2.3891 0.9606
9.7127 -1.0857 -2.3896 0.9606
9.7215 -1.0258 -2.3902 0.9605
9.7298 -0.9659 -2.3907 0.9605
9.7378 -0.9059 -2.3913 0.9605
9.7661 -0.6654 -2.3934 0.9605
9.7885 -0.4240 -2.3956 0.9605
9.8050 -0.1820 -2.3978 0.9604
9.8109 -0.0607 -2.3989 0.9604
9.8171 0.1214 -2.4005 0.9604
9.8185 0.1821 -2.4011 0.9604
9.8194 0.2429 -2.4016 0.9604
9.8201 0.3645 -2.4028 0.9603
9.8154 0.6687 -2.4055 0.9603
9.8133 0.7296 -2.4061 0.9603
9.8081 0.8513 -2.4072 0.9603
9.8049 0.9121 -2.4077 0.9603
9.8013 0.9730 -2.4083 0.9603
9.7973 1.0338 -2.4088 0.9602
9.7777 1.2770 -2.4110 0.9602
9.7718 1.3377 -2.4116 0.9602
9.7656 1.3985 -2.4121 0.9602
9.7590 1.4592 -2.4127 0.9602
9.7520 1.5198 -2.4132 0.9602
9.7369 1.6411 -2.4143 0.9602
9.6721 2.0642 -2.4182 0.9601
9.6613 2.1245 -2.4187 0.9601
9.6502 2.1846 -2.4193 0.9601
9.6145 2.3649 -2.4209 0.9600
9.6018 2.4248 -2.4214 0.9600
9.5888 2.4847 -2.4220 0.9600
9.5754 2.5446 -2.4225 0.9600
9.5475 2.6640 -2.4236 0.9600
9.5329 2.7236 -2.4241 0.9600
9.5180 2.7831 -2.4247 0.9600
9.4871 2.9019 -2.4258 0.9600
9.4711 2.9612 -2.4263 0.9600
9.4547 3.0204 -2.4268 0.9600
9.4379 3.0795 -2.4274 0.9599
9.3854 3.2562 -2.4290 0.9599
9.3101 3.4904 -2.4311 0.9599
9.2702 3.6069 -2.4322 0.9599
9.2498 3.6649 -2.4327 0.9599
9.2289 3.7228 -2.4332 0.9598
9.2077 3.7807 -2.4337 0.9598
9.1419 3.9534 -2.4353 0.9598
6.8394 3.2640 -1.8530 0.9693
6.8218 3.3075 -1.8537 0.9693
6.7864 3.3947 -1.8554 0.9692
6.7688 3.4383 -1.8563 0.9692
6.7156 3.5696 -1.8596 0.9692
6.6443 3.7454 -1.8649 0.9691
6.6265 3.7895 -1.8664 0.9691
6.5726 3.9222 -1.8715 0.9690
6.5546 3.9667 -1.8733 0.9689
6.5366 4.0112 -1.8752 0.9689
6.5185 4.0558 -1.8772 0.9689
6.4822 4.1453 -1.8813 0.9688
8.3068 5.6063 -2.4504 0.9596
8.2736 5.6587 -2.4509 0.9596
8.2400 5.7108 -2.4513 0.9596
8.1374 5.8661 -2.4527 0.9595
7.9958 6.0702 -2.4546 0.9595
7.9596 6.1207 -2.4551 0.9595
7.9231 6.1710 -2.4555 0.9595
7.8863 6.2210 -2.4560 0.9595
7.8116 6.3204 -2.4569 0.9595
7.6972 6.4677 -2.4582 0.9594
7.5213 6.5618 -2.4405 0.9597
7.3628 6.5041 -2.4021 0.9604
7.2091 6.4481 -2.3649 0.9610
7.0600 6.3938 -2.3289 0.9615
6.9483 6.3713 -2.3050 0.9619
6.9100 6.4153 -2.3054 0.9619
6.8325 6.5025 -2.3062 0.9619
6.7538 6.5888 -2.3070 0.9619
6.5932 6.7584 -2.3086 0.9619
6.5524 6.8001 -2.3090 0.9619
6.4699 6.8829 -2.3097 0.9618
6.2161 7.1250 -2.3119 0.9618
6.1729 7.1645 -2.3123 0.9618
5.9974 7.3195 -2.3137 0.9618
5.9530 7.3575 -2.3141 0.9618
5.7726 7.5070 -2.3154 0.9618
5.7269 7.5436 -2.3158 0.9618
5.5884 7.6518 -2.3168 0.9617
5.5417 7.6873 -2.3171 0.9617
5.4477 7.7574 -2.3177 0.9617
5.4004 7.7921 -2.3181 0.9617
5.3050 7.8604 -2.3187 0.9617
5.2570 7.8941 -2.3190 0.9617
5.1117 7.9935 -2.3199 0.9617
4.9645 8.0900 -2.3208 0.9617
4.9150 8.1216 -2.3211 0.9617
4.7652 8.2144 -2.3220 0.9616
4.6644 8.2748 -2.3225 0.9616
4.6137 8.3044 -2.3228 0.9616
4.5628 8.3337 -2.3231 0.9616
4.5117 8.3628 -2.3234 0.9616
4.4604 8.3915 -2.3236 0.9616
4.3054 8.4757 -2.3244 0.9616
4.2533 8.5031 -2.3247 0.9616
4.2011 8.5301 -2.3249 0.9616
4.0962 8.5833 -2.3254 0.9616
4.0434 8.6094 -2.3257 0.9616
3.9905 8.6351 -2.3259 0.9616
3.9375 8.6605 -2.3261 0.9616
3.8842 8.6855 -2.3264 0.9616
3.7772 8.7346 -2.3268 0.9616
3.6156 8.8057 -2.3275 0.9616
3.5070 8.8514 -2.3279 0.9616
3.4525 8.8737 -2.3281 0.9615
3.3431 8.9172 -2.3285 0.9615
3.2882 8.9386 -2.3287 0.9615
3.2331 8.9594 -2.3289 0.9615
3.1226 9.0002 -2.3293 0.9615
3.0115 9.0396 -2.3297 0.9615
2.8999 9.0776 -2.3300 0.9615
2.8439 9.0960 -2.3302 0.9615
2.7878 9.1141 -2.3304 0.9615
2.6752 9.1492 -2.3307 0.9615
2.6188 9.1661 -2.3309 0.9615
2.5622 9.1828 -2.3310 0.9615
2.5056 9.1991 -2.3312 0.9615
2.4488 9.2150 -2.3313 0.9615
2.3349 9.2457 -2.3316 0.9615
2.2207 9.2750 -2.3319 0.9615
2.1060 9.3028 -2.3322 0.9615
2.0486 9.3161 -2.3323 0.9615
1.9334 9.3418 -2.3325 0.9615
1.7020 9.3885 -2.3330 0.9615
1.6440 9.3993 -2.3331 0.9615
1.5859 9.4097 -2.3332 0.9615
1.3529 9.4475 -2.3336 0.9615
1.2945 9.4560 -2.3336 0.9615
1.2360 9.4642 -2.3337 0.9615
1.0808 9.1559 -2.2542 0.9627
0.9611 9.1086 -2.2395 0.9630
0.7847 9.0405 -2.2188 0.9633
0.6792 9.1354 -2.2398 0.9630
0.5216 9.3617 -2.2926 0.9621
0.4624 9.3387 -2.2862 0.9622
0.4035 9.3158 -2.2799 0.9623
0.3450 9.2931 -2.2738 0.9624
0.2867 9.2704 -2.2678 0.9625
0.1712 9.2255 -2.2561 0.9627
0.1138 9.2032 -2.2504 0.9628
-0.0000 9.1589 -2.2394 0.9630
-0.0565 9.1370 -2.2341 0.9631
-0.1128 9.1151 -2.2289 0.9632
-0.1687 9.0933 -2.2238 0.9632
-0.5282 8.5302 -2.0897 0.9654
-0.5798 8.5099 -2.0856 0.9655
-0.6312 8.4897 -2.0815 0.9656
-0.6824 8.4695 -2.0776 0.9656
-0.7495 8.6349 -2.1192 0.9649
-0.8941 9.0067 -2.2130 0.9634
-1.0524 9.4154 -2.3165 0.9617
-1.1777 9.4728 -2.3340 0.9615
-1.4114 9.4396 -2.3337 0.9615
-1.4697 9.4304 -2.3336 0.9615
-1.5861 9.4108 -2.3335 0.9615
-1.6442 9.4005 -2.3334 0.9615
-1.8181 9.3672 -2.3331 0.9615
-1.9337 9.3431 -2.3329 0.9615
-1.9913 9.3305 -2.3328 0.9615
-2.1064 9.3043 -2.3325 0.9615
-2.1637 9.2906 -2.3324 0.9615
-2.2783 9.2621 -2.3322 0.9615
-2.3354 9.2473 -2.3320 0.9615
-2.3924 9.2322 -2.3319 0.9615
-2.5825 9.0390 -2.2985 0.9620
-2.7210 8.8957 -2.2745 0.9624
-2.7721 8.8662 -2.2713 0.9625
-2.8230 8.8367 -2.2682 0.9625
-2.8737 8.8074 -2.2652 0.9626
-2.9244 8.7781 -2.2623 0.9626
-3.2225 8.5954 -2.2445 0.9629
-3.2973 8.6323 -2.2594 0.9627
-3.3539 8.6202 -2.2616 0.9626
-3.4106 8.6080 -2.2639 0.9626
-3.4675 8.5959 -2.2663 0.9626
-3.8482 8.6049 -2.3048 0.9619
-4.0976 8.5863 -2.3262 0.9616
-4.2549 8.5062 -2.3255 0.9616
-4.6156 8.3078 -2.3238 0.9616
-4.7169 8.2482 -2.3232 0.9616
-4.8174 8.1873 -2.3227 0.9616
-4.9667 8.0936 -2.3219 0.9617
-5.1141 7.9971 -2.3210 0.9617
-5.2596 7.8979 -2.3201 0.9617
-5.3555 7.8302 -2.3195 0.9617
-5.4031 7.7959 -2.3192 0.9617
-5.4504 7.7613 -2.3189 0.9617
-5.4976 7.7264 -2.3186 0.9617
-5.5445 7.6912 -2.3183 0.9617
-5.5894 7.6533 -2.3172 0.9617
-5.6222 7.5991 -2.3113 0.9618
-5.7299 7.5475 -2.3170 0.9617
-6.0008 7.3234 -2.3150 0.9618
-6.0450 7.2851 -2.3146 0.9618
-6.0891 7.2465 -2.3143 0.9618
-6.2196 7.1291 -2.3132 0.9618
-6.3054 7.0494 -2.3125 0.9618
-6.3901 6.9687 -2.3118 0.9618
-6.4321 6.9280 -2.3115 0.9618
-6.4738 6.8870 -2.3111 0.9618
-6.5563 6.8042 -2.3103 0.9618
-6.6378 6.7204 -2.3096 0.9619
-6.6782 6.6782 -2.3092 0.9619
-6.7580 6.5929 -2.3084 0.9619
-6.7975 6.5499 -2.3081 0.9619
-6.9144 6.4194 -2.3069 0.9619
-6.9527 6.3754 -2.3065 0.9619
-7.0662 6.2421 -2.3053 0.9619
-7.1034 6.1972 -2.3049 0.9619
-7.1770 6.1067 -2.3041 0.9619
-7.2851 5.9693 -2.3029 0.9620
-7.3557 5.8766 -2.3020 0.9620
-7.9066 6.0025 -2.4272 0.9599
-8.0373 6.0237 -2.4558 0.9595
-8.0729 5.9727 -2.4554 0.9595
-8.1081 5.9216 -2.4549 0.9595
-8.2119 5.7669 -2.4535 0.9595
-8.2459 5.7149 -2.4531 0.9595
-8.3127 5.6103 -2.4521 0.9595
-8.3457 5.5577 -2.4516 0.9596
-8.3782 5.5049 -2.4512 0.9596
-8.4105 5.4519 -2.4507 0.9596
-8.4424 5.3988 -2.4502 0.9596
-8.5360 5.2381 -2.4488 0.9596
-8.5666 5.1842 -2.4483 0.9596
-8.6266 5.0759 -2.4473 0.9596
-8.6853 4.9668 -2.4463 0.9596
-8.7140 4.9120 -2.4458 0.9596
-8.7425 4.8570 -2.4453 0.9597
-8.7983 4.7466 -2.4443 0.9597
-8.8257 4.6911 -2.4438 0.9597
-8.8527 4.6355 -2.4433 0.9597
-8.8794 4.5797 -2.4428 0.9597
-8.9057 4.5238 -2.4423 0.9597
-8.9317 4.4677 -2.4418 0.9597
-8.9573 4.4115 -2.4413 0.9597
-8.9825 4.3551 -2.4408 0.9597
-9.0319 4.2419 -2.4398 0.9597
-9.0561 4.1851 -2.4393 0.9598
-9.1033 4.0710 -2.4383 0.9598
-9.1491 3.9564 -2.4372 0.9598
-9.1714 3.8990 -2.4367 0.9598
-9.1934 3.8413 -2.4362 0.9598
-9.2150 3.7836 -2.4357 0.9598
-9.2571 3.6678 -2.4346 0.9598
-9.3175 3.4931 -2.4330 0.9599
-9.3369 3.4347 -2.4325 0.9599
-9.3929 3.2588 -2.4309 0.9599
-9.4108 3.2000 -2.4304 0.9599
-9.4284 3.1410 -2.4299 0.9599
-9.4456 3.0820 -2.4293 0.9599
-9.4624 3.0228 -2.4288 0.9599
-9.4788 2.9636 -2.4283 0.9599
-9.4948 2.9043 -2.4277 0.9599
-9.5258 2.7854 -2.4267 0.9600
-9.5408 2.7258 -2.4261 0.9600
-9.5833 2.5467 -2.4245 0.9600
-9.5967 2.4868 -2.4240 0.9600
-9.6098 2.4269 -2.4234 0.9600
-9.6224 2.3669 -2.4229 0.9600
-9.6347 2.3068 -2.4223 0.9600
-9.6466 2.2466 -2.4218 0.9600
-9.6693 2.1262 -2.4207 0.9601
-9.6801 2.0659 -2.4202 0.9601
-9.7369 1.7030 -2.4169 0.9601
-9.7450 1.6424 -2.4163 0.9601
-9.7738 1.3996 -2.4141 0.9602
-9.7859 1.2781 -2.4130 0.9602
-9.7914 1.2172 -2.4125 0.9602
-9.7965 1.1564 -2.4119 0.9602
-9.8012 1.0956 -2.4114 0.9602
-9.8095 0.9738 -2.4103 0.9602
-9.8131 0.9129 -2.4097 0.9602
-9.8191 0.7912 -2.4086 0.9602
-9.8237 0.6693 -2.4075 0.9603
-9.8267 0.5475 -2.4064 0.9603
-9.8277 0.4865 -2.4059 0.9603
-9.8284 0.3648 -2.4048 0.9603
-9.8282 0.3040 -2.4042 0.9603
-9.8267 0.1823 -2.4031 0.9603
-9.8237 0.0607 -2.4020 0.9604
-9.5125 -0.0588 -2.4009 0.9615
-9.5098 -0.1176 -2.4004 0.9615
-9.5034 -0.2352 -2.3993 0.9615
-9.4911 -0.4111 -2.3977 0.9616
-9.4863 -0.4697 -2.3972 0.9616
-9.4811 -0.5283 -2.3966 0.9616
-9.4756 -0.5868 -2.3961 0.9616
-9.4697 -0.6452 -2.3956 0.9616
-9.4634 -0.7036 -2.3951 0.9616
-9.4568 -0.7620 -2.3945 0.9616
-9.4498 -0.8202 -2.3940 0.9616
-9.4425 -0.8785 -2.3935 0.9616
-9.4004 -1.1687 -2.3908 0.9617
-9.3811 -1.2843 -2.3898 0.9617
-9.3710 -1.3420 -2.3893 0.9617
-9.3268 -1.5720 -2.3872 0.9617
-9.3026 -1.6865 -2.3861 0.9617
-9.2499 -1.9144 -2.3841 0.9618
-9.2359 -1.9712 -2.3836 0.9618
-9.2069 -2.0843 -2.3825 0.9618
-9.1918 -2.1407 -2.3820 0.9618
-9.1607 -2.2533 -2.3810 0.9618
-9.1447 -2.3094 -2.3805 0.9618
-9.1283 -2.3654 -2.3800 0.9618
-9.1115 -2.4213 -2.3795 0.9619
-9.0944 -2.4771 -2.3790 0.9619
-9.0770 -2.5327 -2.3785 0.9619
-9.0411 -2.6437 -2.3774 0.9619
-9.0227 -2.6990 -2.3769 0.9619
-9.0039 -2.7542 -2.3764 0.9619
-8.9654 -2.8641 -2.3754 0.9619
-8.9457 -2.9189 -2.3749 0.9619
-8.9256 -2.9735 -2.3744 0.9619
-8.8844 -3.0824 -2.3735 0.9619
-8.8633 -3.1366 -2.3730 0.9620
-8.8419 -3.1907 -2.3725 0.9620
-8.7758 -3.3521 -2.3710 0.9620
-8.7531 -3.4056 -2.3705 0.9620
-8.6348 -3.6709 -2.3681 0.9620
-8.5853 -3.7759 -2.3671 0.9620
-8.5600 -3.8281 -2.3667 0.9621
-8.5345 -3.8802 -2.3662 0.9621
-8.5087 -3.9321 -2.3657 0.9621
-8.4825 -3.9839 -2.3653 0.9621
-8.4560 -4.0354 -2.3648 0.9621
-8.4292 -4.0869 -2.3643 0.9621
-8.3747 -4.1892 -2.3634 0.9621
-8.2907 -4.3413 -2.3620 0.9621
-8.0842 -4.6897 -2.3588 0.9622
-8.0535 -4.7387 -2.3584 0.9622
-8.0225 -4.7875 -2.3579 0.9622
-7.9597 -4.8845 -2.3570 0.9622
-7.8957 -4.9807 -2.3562 0.9622
-7.8633 -5.0285 -2.3557 0.9622
-7.7977 -5.1235 -2.3549 0.9622
-7.7309 -5.2177 -2.3540 0.9623
-7.6971 -5.2644 -2.3536 0.9623
-7.6630 -5.3109 -2.3532 0.9623
-7.5940 -5.4034 -2.3523 0.9623
-7.5591 -5.4493 -2.3519 0.9623
-7.5239 -5.4949 -2.3515 0.9623
-7.3072 -5.7642 -2.3490 0.9623
-7.2329 -5.8522 -2.3482 0.9623
-7.1953 -5.8958 -2.3478 0.9624
-7.0811 -6.0252 -2.3466 0.9624
-7.0038 -6.1103 -2.3458 0.9624
-6.9647 -6.1524 -2.3455 0.9624
-6.9254 -6.1944 -2.3451 0.9624
-6.8858 -6.2361 -2.3447 0.9624
-6.8460 -6.2776 -2.3443 0.9624
-6.8060 -6.3188 -2.3439 0.9624
-6.6844 -6.4409 -2.3428 0.9624
-6.6434 -6.4810 -2.3425 0.9624
-6.6021 -6.5210 -2.3421 0.9624
-6.3070 -6.7933 -2.3396 0.9625
-6.2640 -6.8312 -2.3392 0.9625
-6.2207 -6.8688 -2.3389 0.9625
-6.1335 -6.9432 -2.3382 0.9625
-6.0010 -7.0528 -2.3372 0.9625
-5.9117 -7.1244 -2.3366 0.9625
-5.7305 -7.2645 -2.3353 0.9625
-5.6847 -7.2988 -2.3349 0.9626
-5.6387 -7.3328 -2.3346 0.9626
-5.5925 -7.3666 -2.3343 0.9626
-5.5461 -7.4000 -2.3340 0.9626
-5.4057 -7.4987 -2.3331 0.9626
-5.3586 -7.5310 -2.3328 0.9626
-5.3112 -7.5631 -2.3325 0.9626
-5.2637 -7.5948 -2.3322 0.9626
-5.1200 -7.6883 -2.3314 0.9626
-4.9747 -7.7792 -2.3305 0.9626
-4.9259 -7.8089 -2.3303 0.9626
-4.8770 -7.8383 -2.3300 0.9626
-4.7291 -7.9247 -2.3292 0.9626
-4.6297 -7.9808 -2.3287 0.9627
-4.4794 -8.0627 -2.3279 0.9627
-4.4290 -8.0894 -2.3277 0.9627
-4.3784 -8.1158 -2.3274 0.9627
-4.3277 -8.1419 -2.3272 0.9627
-4.2768 -8.1676 -2.3269 0.9627
-3.9685 -8.3158 -2.3256 0.9627
-3.8646 -8.3627 -2.3251 0.9627
-3.7602 -8.4083 -2.3247 0.9627
-3.7078 -8.4306 -2.3245 0.9627
-3.6026 -8.4744 -2.3241 0.9627
-3.4970 -8.5168 -2.3237 0.9627
-3.4439 -8.5375 -2.3235 0.9627
-3.1771 -8.6365 -2.3226 0.9627
-3.1234 -8.6554 -2.3224 0.9628
-3.0695 -8.6738 -2.3222 0.9628
-2.9075 -8.7274 -2.3217 0.9628
-2.8532 -8.7446 -2.3216 0.9628
-2.7445 -8.7780 -2.3213 0.9628
-2.6900 -8.7943 -2.3211 0.9628
-2.5807 -8.8257 -2.3208 0.9628
-2.3059 -8.8987 -2.3201 0.9628
-2.1954 -8.9255 -2.3199 0.9628
-2.0847 -8.9510 -2.3196 0.9628
-2.0292 -8.9633 -2.3195 0.9628
-1.9180 -8.9869 -2.3193 0.9628
-1.8065 -9.0091 -2.3191 0.9628
-1.4145 -9.0763 -2.3184 0.9628
-1.3021 -9.0925 -2.3183 0.9628
-1.2458 -9.1000 -2.3182 0.9628
-1.1331 -9.1142 -2.3180 0.9628
-1.0766 -9.1208 -2.3180 0.9628
-0.8506 -9.1437 -2.3177 0.9628
-0.7375 -9.1531 -2.3176 0.9628
-0.5675 -9.1648 -2.3175 0.9628
-0.5108 -9.1680 -2.3175 0.9628
-0.3974 -9.1733 -2.3174 0.9628
-0.3406 -9.1755 -2.3174 0.9628
-0.2839 -9.1773 -2.3174 0.9628
-0.1136 -9.1808 -2.3173 0.9628
-0.0568 -9.1813 -2.3173 0.9628
0.1136 -9.1808 -2.3173 0.9628
0.1703 -9.1799 -2.3173 0.9628
0.2839 -9.1771 -2.3173 0.9628
0.4541 -9.1705 -2.3174 0.9628
0.5675 -9.1643 -2.3174 0.9628
0.6808 -9.1568 -2.3175 0.9628
0.9636 -9.1321 -2.3177 0.9628
1.0766 -9.1199 -2.3178 0.9628
1.1330 -9.1133 -2.3178 0.9628
1.1893 -9.1064 -2.3179 0.9628
1.2457 -9.0991 -2.3179 0.9628
1.3019 -9.0914 -2.3180 0.9628
1.3582 -9.0835 -2.3181 0.9628
1.4144 -9.0752 -2.3181 0.9628
1.5266 -9.0576 -2.3183 0.9628
1.9733 -8.9737 -2.3190 0.9628
2.0288 -8.9618 -2.3191 0.9628
2.0843 -8.9495 -2.3192 0.9628
2.2503 -8.9105 -2.3195 0.9628
2.4156 -8.8686 -2.3199 0.9628
2.6348 -8.8082 -2.3204 0.9628
2.6894 -8.7922 -2.3206 0.9628
2.8526 -8.7424 -2.3210 0.9628
2.9067 -8.7252 -2.3211 0.9628
2.9609 -8.7077 -2.3213 0.9628
3.0687 -8.6715 -2.3216 0.9628
3.1762 -8.6342 -2.3219 0.9628
3.2832 -8.5954 -2.3223 0.9628
3.3366 -8.5756 -2.3225 0.9627
3.3898 -8.5555 -2.3226 0.9627
3.4959 -8.5142 -2.3230 0.9627
3.5488 -8.4931 -2.3232 0.9627
3.7066 -8.4279 -2.3238 0.9627
3.7590 -8.4055 -2.3240 0.9627
3.8112 -8.3829 -2.3242 0.9627
3.8634 -8.3599 -2.3244 0.9627
3.9672 -8.3129 -2.3248 0.9627
4.1218 -8.2402 -2.3254 0.9627
4.2242 -8.1901 -2.3259 0.9627
4.2752 -8.1647 -2.3261 0.9627
4.3260 -8.1388 -2.3263 0.9627
4.3767 -8.1127 -2.3265 0.9627
4.4777 -8.0596 -2.3270 0.9627
4.5279 -8.0326 -2.3273 0.9627
4.5779 -8.0053 -2.3275 0.9627
4.6278 -7.9777 -2.3277 0.9627
4.8749 -7.8350 -2.3290 0.9626
4.9238 -7.8056 -2.3293 0.9626
5.0211 -7.7459 -2.3298 0.9626
5.1178 -7.6850 -2.3303 0.9626
5.2136 -7.6229 -2.3309 0.9626
5.3088 -7.5597 -2.3315 0.9626
5.4969 -7.4297 -2.3326 0.9626
5.5434 -7.3965 -2.3329 0.9626
5.6359 -7.3293 -2.3335 0.9626
5.6819 -7.2952 -2.3338 0.9626
5.9087 -7.1208 -2.3354 0.9625
5.9534 -7.0851 -2.3357 0.9625
5.9979 -7.0491 -2.3360 0.9625
6.0863 -6.9763 -2.3367 0.9625
6.1739 -6.9025 -2.3373 0.9625
6.2174 -6.8651 -2.3377 0.9625
6.3036 -6.7897 -2.3383 0.9625
6.3890 -6.7131 -2.3390 0.9625
6.4313 -6.6745 -2.3394 0.9625
6.5153 -6.5964 -2.3401 0.9625
6.5570 -6.5570 -2.3404 0.9625
6.5984 -6.5173 -2.3408 0.9625
6.6396 -6.4774 -2.3411 0.9625
6.7213 -6.3967 -2.3418 0.9624
6.7617 -6.3560 -2.3422 0.9624
6.8420 -6.2739 -2.3429 0.9624
6.8818 -6.2324 -2.3433 0.9624
6.9213 -6.1907 -2.3437 0.9624
6.9996 -6.1066 -2.3444 0.9624
7.0383 -6.0642 -2.3448 0.9624
7.0769 -6.0216 -2.3452 0.9624
7.1151 -5.9786 -2.3456 0.9624
7.1531 -5.9355 -2.3460 0.9624
7.1909 -5.8921 -2.3464 0.9624
7.2284 -5.8485 -2.3468 0.9624
7.3758 -5.6718 -2.3483 0.9623
7.4480 -5.5820 -2.3491 0.9623
7.6579 -5.3075 -2.3516 0.9623
7.6920 -5.2609 -2.3520 0.9623
7.7924 -5.1201 -2.3533 0.9623
7.8904 -4.9774 -2.3546 0.9622
8.0479 -4.7354 -2.3568 0.9622
8.1390 -4.5878 -2.3581 0.9622
8.1982 -4.4885 -2.3590 0.9622
8.2562 -4.3885 -2.3599 0.9622
8.2848 -4.3382 -2.3603 0.9622
8.3410 -4.2370 -2.3612 0.9621
8.4231 -4.0839 -2.3626 0.9621
8.4499 -4.0325 -2.3631 0.9621
8.4763 -3.9810 -2.3635 0.9621
8.5024 -3.9293 -2.3640 0.9621
8.5538 -3.8253 -2.3649 0.9621
8.5790 -3.7731 -2.3654 0.9621
8.6039 -3.7207 -2.3659 0.9621
8.6284 -3.6681 -2.3664 0.9621
8.6527 -3.6154 -2.3668 0.9621
8.6766 -3.5626 -2.3673 0.9620
8.7235 -3.4564 -2.3683 0.9620
8.7915 -3.2960 -2.3697 0.9620
8.8135 -3.2422 -2.3702 0.9620
8.8352 -3.1883 -2.3707 0.9620
8.8777 -3.0801 -2.3717 0.9620
8.8984 -3.0257 -2.3721 0.9620
8.9188 -2.9712 -2.3726 0.9620
8.9388 -2.9166 -2.3731 0.9620
8.9585 -2.8619 -2.3736 0.9619
8.9779 -2.8070 -2.3741 0.9619
8.9970 -2.7520 -2.3746 0.9619
9.0341 -2.6416 -2.3756 0.9619
9.0522 -2.5863 -2.3761 0.9619
9.0699 -2.5308 -2.3766 0.9619
9.0873 -2.4751 -2.3771 0.9619
9.1535 -2.2515 -2.3791 0.9619
9.1846 -2.1391 -2.3801 0.9618
9.2143 -2.0262 -2.3812 0.9618
9.2286 -1.9696 -2.3817 0.9618
9.2426 -1.9129 -2.3822 0.9618
9.2563 -1.8561 -2.3827 0.9618
9.2696 -1.7992 -2.3832 0.9618
9.2825 -1.7422 -2.3837 0.9618
9.2951 -1.6851 -2.3842 0.9618
9.3074 -1.6280 -2.3848 0.9618
9.3421 -1.4560 -2.3863 0.9617
9.3529 -1.3985 -2.3868 0.9617
9.3635 -1.3409 -2.3874 0.9617
9.3834 -1.2255 -2.3884 0.9617
9.3929 -1.1678 -2.3889 0.9617
9.4191 -0.9939 -2.3905 0.9617
9.4421 -0.8196 -2.3921 0.9617
9.4620 -0.6447 -2.3936 0.9616
9.4679 -0.5863 -2.3942 0.9616
9.4786 -0.4693 -2.3952 0.9616
9.4879 -0.3522 -2.3963 0.9616
9.4991 -0.1763 -2.3979 0.9616
9.5021 -0.1176 -2.3984 0.9616
9.5047 -0.0588 -2.3989 0.9615
9.5070 -0.0000 -2.3995 0.9615
9.5089 0.0588 -2.4000 0.9615
9.5117 0.1765 -2.4011 0.9615
9.5125 0.2354 -2.4016 0.9615
9.5131 0.3531 -2.4027 0.9615
9.5129 0.4121 -2.4032 0.9615
9.5123 0.4710 -2.4037 0.9615
9.5062 0.7067 -2.4059 0.9614
9.5037 0.7657 -2.4064 0.9614
9.5009 0.8246 -2.4069 0.9614
9.4977 0.8836 -2.4075 0.9614
9.4942 0.9425 -2.4080 0.9614
9.4903 1.0014 -2.4086 0.9614
9.4764 1.1781 -2.4102 0.9614
9.4527 1.4133 -2.4123 0.9613
9.4231 1.6482 -2.4144 0.9613
9.3971 1.8239 -2.4160 0.9613
9.3877 1.8824 -2.4165 0.9613
9.3780 1.9409 -2.4171 0.9613
9.3574 2.0576 -2.4181 0.9612
9.3353 2.1741 -2.4192 0.9612
9.3237 2.2323 -2.4197 0.9612
9.3117 2.2904 -2.4202 0.9612
9.2465 2.5800 -2.4229 0.9612
9.2030 2.7529 -2.4244 0.9611
9.1878 2.8104 -2.4250 0.9611
9.1722 2.8677 -2.4255 0.9611
9.1399 2.9822 -2.4265 0.9611
9.0711 3.2101 -2.4286 0.9611
9.0530 3.2669 -2.4291 0.9611
9.0345 3.3235 -2.4296 0.9611
9.0157 3.3800 -2.4301 0.9611
8.9770 3.4927 -2.4312 0.9610
8.9571 3.5489 -2.4317 0.9610
8.9369 3.6050 -2.4322 0.9610
8.9163 3.6610 -2.4327 0.9610
8.8524 3.8281 -2.4342 0.9610
8.7853 3.9942 -2.4357 0.9610
8.7388 4.1042 -2.4367 0.9610
8.7150 4.1590 -2.4372 0.9609
8.6909 4.2137 -2.4377 0.9609
8.6664 4.2683 -2.4382 0.9609
8.6416 4.3226 -2.4387 0.9609
8.5910 4.4310 -2.4397 0.9609
8.5651 4.4849 -2.4402 0.9609
8.5124 4.5924 -2.4412 0.9609
8.4856 4.6459 -2.4417 0.9609
8.4583 4.6992 -2.4421 0.9609
8.4308 4.7523 -2.4426 0.9609
8.4029 4.8054 -2.4431 0.9609
8.3747 4.8582 -2.4436 0.9608
8.2880 5.0156 -2.4450 0.9608
8.2584 5.0678 -2.4455 0.9608
8.2285 5.1198 -2.4460 0.9608
8.1056 5.3258 -2.4479 0.9608
8.0740 5.3769 -2.4483 0.9608
8.0421 5.4277 -2.4488 0.9608
8.0099 5.4784 -2.4492 0.9608
7.9774 5.5288 -2.4497 0.9607
7.8440 5.7287 -2.4515 0.9607
7.8099 5.7781 -2.4520 0.9607
7.7407 5.8764 -2.4529 0.9607
7.7056 5.9253 -2.4533 0.9607
7.5984 6.0705 -2.4546 0.9607
7.5621 6.1185 -2.4551 0.9607
7.4885 6.2137 -2.4560 0.9607
7.4512 6.2610 -2.4564 0.9606
7.4137 6.3081 -2.4568 0.9606
7.3376 6.4015 -2.4577 0.9606
7.2992 6.4479 -2.4581 0.9606
7.1800 6.4221 -2.4313 0.9610
7.0320 6.3684 -2.3945 0.9616
6.6514 6.2523 -2.3040 0.9630
6.6137 6.2943 -2.3044 0.9630
6.4603 6.4602 -2.3059 0.9630
6.4212 6.5012 -2.3063 0.9630
6.3819 6.5418 -2.3066 0.9630
6.3424 6.5822 -2.3070 0.9630
6.3025 6.6223 -2.3074 0.9630
6.2625 6.6622 -2.3077 0.9630
6.2221 6.7019 -2.3081 0.9630
6.0166 6.8964 -2.3099 0.9629
5.9326 6.9724 -2.3106 0.9629
5.8903 7.0100 -2.3109 0.9629
5.8477 7.0473 -2.3113 0.9629
5.8048 7.0844 -2.3116 0.9629
5.6749 7.1940 -2.3126 0.9629
5.5871 7.2657 -2.3133 0.9629
5.4983 7.3363 -2.3139 0.9629
5.4536 7.3712 -2.3142 0.9629
5.3635 7.4401 -2.3149 0.9629
5.2725 7.5079 -2.3155 0.9629
5.0878 7.6400 -2.3167 0.9628
5.0411 7.6723 -2.3170 0.9628
4.9471 7.7360 -2.3176 0.9628
4.8998 7.7674 -2.3179 0.9628
4.8522 7.7985 -2.3182 0.9628
4.7566 7.8599 -2.3187 0.9628
4.7084 7.8901 -2.3190 0.9628
4.6116 7.9496 -2.3196 0.9628
4.5629 7.9789 -2.3198 0.9628
4.3661 8.0930 -2.3209 0.9628
4.3165 8.1208 -2.3212 0.9628
4.2666 8.1482 -2.3214 0.9628
4.0148 8.2807 -2.3227 0.9627
3.9129 8.3314 -2.3231 0.9627
3.8103 8.3808 -2.3236 0.9627
3.7588 8.4050 -2.3238 0.9627
3.6552 8.4525 -2.3243 0.9627
3.6032 8.4757 -2.3245 0.9627
3.4987 8.5212 -2.3249 0.9627
3.4463 8.5434 -2.3251 0.9627
3.2350 8.6290 -2.3259 0.9627
3.1819 8.6496 -2.3261 0.9627
3.1286 8.6698 -2.3263 0.9627
3.0216 8.7092 -2.3267 0.9627
2.9679 8.7284 -2.3268 0.9627
2.9141 8.7472 -2.3270 0.9627
2.8601 8.7658 -2.3272 0.9627
2.8061 8.7839 -2.3274 0.9627
2.6976 8.8192 -2.3277 0.9627
2.6432 8.8363 -2.3279 0.9627
2.5887 8.8531 -2.3280 0.9627
2.5341 8.8696 -2.3282 0.9627
2.4245 8.9013 -2.3285 0.9627
2.1488 8.9747 -2.3292 0.9626
2.0378 9.0016 -2.3294 0.9626
1.9822 9.0145 -2.3295 0.9626
1.9265 9.0271 -2.3297 0.9626
1.8149 9.0511 -2.3299 0.9626
1.7030 9.0737 -2.3301 0.9626
1.6469 9.0845 -2.3302 0.9626
1.4219 9.1239 -2.3306 0.9626
1.3091 9.1414 -2.3308 0.9626
1.1960 9.1576 -2.3309 0.9626
1.1394 9.1651 -2.3310 0.9626
1.0812 9.1590 -2.3277 0.9627
0.9615 9.1116 -2.3125 0.9629
0.9022 9.0885 -2.3051 0.9630
0.8434 9.0659 -2.2980 0.9631
0.7268 9.0212 -2.2842 0.9634
0.6279 9.2163 -2.3315 0.9626
0.5709 9.2202 -2.3315 0.9626
0.4568 9.2268 -2.3316 0.9626
0.3998 9.2296 -2.3316 0.9626
0.3427 9.2320 -2.3317 0.9626
0.2285 9.2357 -2.3317 0.9626
0.1712 9.2248 -2.3287 0.9627
-0.0000 9.1583 -2.3115 0.9629
-0.0565 9.1363 -2.3060 0.9630
-0.1127 9.1145 -2.3006 0.9631
-0.2799 9.0495 -2.2851 0.9633
-0.3901 9.0066 -2.2753 0.9635
-0.4449 8.9853 -2.2706 0.9636
-0.5284 8.5328 -2.1577 0.9653
-0.5800 8.5125 -2.1535 0.9654
-0.6314 8.4923 -2.1493 0.9655
-0.6826 8.4721 -2.1452 0.9655
-0.8201 8.8152 -2.2345 0.9641
-0.8940 9.0056 -2.2841 0.9634
-1.0261 9.1797 -2.3313 0.9626
-1.0828 9.1730 -2.3312 0.9626
-1.3092 9.1423 -2.3310 0.9626
-1.4221 9.1249 -2.3308 0.9626
-1.4785 9.1156 -2.3308 0.9626
-1.5348 9.1060 -2.3307 0.9626
-1.7032 9.0749 -2.3304 0.9626
-1.7592 9.0638 -2.3303 0.9626
-1.8152 9.0523 -2.3302 0.9626
-1.9825 9.0159 -2.3299 0.9626
-2.0382 9.0030 -2.3298 0.9626
-2.1492 8.9763 -2.3296 0.9626
-2.2597 8.9481 -2.3293 0.9626
-2.4249 8.9031 -2.3289 0.9626
-2.6438 8.8382 -2.3284 0.9627
-2.6982 8.8212 -2.3282 0.9627
-2.7525 8.8038 -2.3281 0.9627
-2.8067 8.7860 -2.3279 0.9627
-2.9148 8.7494 -2.3276 0.9627
-2.9686 8.7306 -2.3274 0.9627
-3.1279 8.6679 -2.3258 0.9627
-3.2890 8.6105 -2.3264 0.9627
-3.3947 8.5678 -2.3260 0.9627
-3.4474 8.5459 -2.3258 0.9627
-3.4999 8.5237 -2.3256 0.9627
-3.5522 8.5012 -2.3254 0.9627
-3.6044 8.4783 -2.3252 0.9627
-4.1176 8.2317 -2.3230 0.9627
-4.3679 8.0962 -2.3218 0.9628
-4.4174 8.0682 -2.3216 0.9628
-4.4667 8.0399 -2.3213 0.9628
-4.5158 8.0112 -2.3211 0.9628
-4.5648 7.9822 -2.3208 0.9628
-4.6135 7.9530 -2.3205 0.9628
-4.6621 7.9234 -2.3203 0.9628
-4.7105 7.8935 -2.3200 0.9628
-4.7587 7.8633 -2.3197 0.9628
-4.9965 7.7078 -2.3184 0.9628
-5.0435 7.6758 -2.3181 0.9628
-5.0902 7.6436 -2.3178 0.9628
-5.1830 7.5781 -2.3172 0.9628
-5.2292 7.5450 -2.3169 0.9628
-5.3207 7.4778 -2.3163 0.9628
-5.4113 7.4094 -2.3157 0.9629
-5.5011 7.3400 -2.3151 0.9629
-5.6778 7.1977 -2.3138 0.9629
-5.7215 7.1615 -2.3135 0.9629
-5.8079 7.0881 -2.3128 0.9629
-5.9780 6.9383 -2.3115 0.9629
-6.0199 6.9002 -2.3112 0.9629
-6.1030 6.8232 -2.3105 0.9629
-6.1441 6.7843 -2.3101 0.9629
-6.2257 6.7057 -2.3094 0.9630
-6.3062 6.6262 -2.3087 0.9630
-6.3461 6.5860 -2.3083 0.9630
-6.4641 6.4641 -2.3073 0.9630
-6.5797 6.3400 -2.3061 0.9630
-6.6177 6.2981 -2.3058 0.9630
-6.6555 6.2561 -2.3054 0.9630
-6.7301 6.1713 -2.3046 0.9630
-6.8037 6.0855 -2.3039 0.9630
-6.9119 5.9552 -2.3027 0.9631
-6.9474 5.9113 -2.3023 0.9631
-6.9826 5.8673 -2.3019 0.9631
-7.0176 5.8230 -2.3015 0.9631
-7.0866 5.7337 -2.3007 0.9631
-7.4826 5.8279 -2.3938 0.9616
-7.6639 5.8933 -2.4401 0.9609
-7.7458 5.8804 -2.4545 0.9607
-7.8493 5.7326 -2.4532 0.9607
-7.8832 5.6829 -2.4527 0.9607
-7.9167 5.6330 -2.4523 0.9607
-7.9500 5.5829 -2.4518 0.9607
-8.0796 5.3806 -2.4500 0.9607
-8.1425 5.2782 -2.4491 0.9608
-8.1734 5.2268 -2.4486 0.9608
-8.2040 5.1752 -2.4482 0.9608
-8.2343 5.1233 -2.4477 0.9608
-8.2643 5.0714 -2.4472 0.9608
-8.2939 5.0192 -2.4468 0.9608
-8.3231 4.9668 -2.4463 0.9608
-8.3807 4.8617 -2.4453 0.9608
-8.4369 4.7558 -2.4444 0.9608
-8.4645 4.7026 -2.4439 0.9608
-8.5714 4.4882 -2.4420 0.9609
-8.6229 4.3801 -2.4410 0.9609
-8.6480 4.3259 -2.4405 0.9609
-8.6974 4.2169 -2.4395 0.9609
-8.7215 4.1621 -2.4390 0.9609
-8.7919 3.9972 -2.4376 0.9609
-8.8370 3.8866 -2.4366 0.9610
-8.8591 3.8310 -2.4361 0.9610
-8.8808 3.7754 -2.4356 0.9610
-8.9231 3.6637 -2.4346 0.9610
-8.9839 3.4954 -2.4330 0.9610
-9.0416 3.3261 -2.4315 0.9610
-9.0600 3.2694 -2.4310 0.9610
-9.0782 3.2126 -2.4305 0.9611
-9.1134 3.0988 -2.4295 0.9611
-9.1304 3.0417 -2.4289 0.9611
-9.1634 2.9273 -2.4279 0.9611
-9.1794 2.8700 -2.4274 0.9611
-9.2252 2.6974 -2.4258 0.9611
-9.2397 2.6398 -2.4253 0.9611
-9.2676 2.5242 -2.4243 0.9611
-9.3192 2.2922 -2.4222 0.9612
-9.3649 2.0592 -2.4201 0.9612
-9.3754 2.0009 -2.4195 0.9612
-9.3855 1.9425 -2.4190 0.9612
-9.4138 1.7668 -2.4174 0.9613
-9.4387 1.5908 -2.4158 0.9613
-9.4535 1.4733 -2.4148 0.9613
-9.4604 1.4145 -2.4142 0.9613
-9.4668 1.3557 -2.4137 0.9613
-9.4787 1.2379 -2.4126 0.9613
-9.4841 1.1790 -2.4121 0.9613
-9.5055 0.8843 -2.4094 0.9614
-9.5086 0.8253 -2.4089 0.9614
-9.5115 0.7663 -2.4084 0.9614
-9.5139 0.7073 -2.4078 0.9614
-9.5160 0.6483 -2.4073 0.9614
-9.5200 0.4714 -2.4057 0.9614
-9.5207 0.4123 -2.4052 0.9614
-9.5209 0.3534 -2.4046 0.9615
-9.5208 0.2945 -2.4041 0.9615
-9.5183 0.1177 -2.4025 0.9615
-9.2254 -0.0000 -2.4014 0.9626
-9.2208 -0.1141 -2.4004 0.9626
-9.2111 -0.2849 -2.3988 0.9626
-9.2072 -0.3418 -2.3983 0.9626
-9.1983 -0.4554 -2.3973 0.9626
-9.1933 -0.5122 -2.3968 0.9627
-9.1880 -0.5689 -2.3963 0.9627
-9.1764 -0.6822 -2.3952 0.9627
-9.1562 -0.8518 -2.3937 0.9627
-9.1411 -0.9646 -2.3927 0.9627
-9.1330 -1.0209 -2.3922 0.9627
-9.1067 -1.1894 -2.3906 0.9628
-9.0874 -1.3014 -2.3896 0.9628
-9.0773 -1.3573 -2.3891 0.9628
-9.0560 -1.4688 -2.3881 0.9628
-9.0448 -1.5245 -2.3876 0.9628
-9.0333 -1.5800 -2.3871 0.9628
-9.0092 -1.6909 -2.3861 0.9628
-8.9967 -1.7462 -2.3856 0.9628
-8.9145 -2.0761 -2.3826 0.9629
-8.8997 -2.1308 -2.3821 0.9629
-8.8845 -2.1854 -2.3816 0.9629
-8.8531 -2.2941 -2.3806 0.9629
-8.8369 -2.3483 -2.3801 0.9629
-8.8035 -2.4564 -2.3791 0.9629
-8.7511 -2.6177 -2.3777 0.9629
-8.7329 -2.6712 -2.3772 0.9630
-8.6957 -2.7779 -2.3762 0.9630
-8.6571 -2.8841 -2.3752 0.9630
-8.6374 -2.9370 -2.3748 0.9630
-8.5969 -3.0424 -2.3738 0.9630
-8.5122 -3.2514 -2.3719 0.9630
-8.4902 -3.3034 -2.3714 0.9630
-8.4680 -3.3551 -2.3709 0.9631
-8.4225 -3.4582 -2.3700 0.9631
-8.3993 -3.5096 -2.3695 0.9631
-8.3520 -3.6118 -2.3686 0.9631
-8.3034 -3.7134 -2.3677 0.9631
-8.2787 -3.7639 -2.3672 0.9631
-8.2536 -3.8143 -2.3668 0.9631
-8.1767 -3.9645 -2.3654 0.9631
-8.1505 -4.0142 -2.3649 0.9631
-8.0149 -4.2602 -2.3627 0.9632
-7.9869 -4.3089 -2.3623 0.9632
-7.9012 -4.4538 -2.3609 0.9632
-7.8426 -4.5495 -2.3601 0.9632
-7.8128 -4.5971 -2.3596 0.9632
-7.7526 -4.6916 -2.3588 0.9632
-7.7220 -4.7386 -2.3583 0.9632
-7.6911 -4.7854 -2.3579 0.9633
-7.6600 -4.8321 -2.3575 0.9633
-7.6286 -4.8784 -2.3571 0.9633
-7.5970 -4.9246 -2.3566 0.9633
-7.5650 -4.9706 -2.3562 0.9633
-7.5328 -5.0164 -2.3558 0.9633
-7.4675 -5.1074 -2.3550 0.9633
-7.4345 -5.1526 -2.3546 0.9633
-7.2307 -5.4192 -2.3521 0.9633
-7.0897 -5.5927 -2.3505 0.9634
-7.0177 -5.6780 -2.3498 0.9634
-6.9813 -5.7204 -2.3494 0.9634
-6.8706 -5.8461 -2.3482 0.9634
-6.8332 -5.8875 -2.3478 0.9634
-6.7577 -5.9696 -2.3471 0.9634
-6.7196 -6.0103 -2.3467 0.9634
-6.6812 -6.0508 -2.3464 0.9634
-6.6426 -6.0911 -2.3460 0.9634
-6.4462 -6.2887 -2.3442 0.9635
-6.3660 -6.3660 -2.3435 0.9635
-6.2849 -6.4423 -2.3428 0.9635
-6.2029 -6.5176 -2.3421 0.9635
-6.1616 -6.5549 -2.3417 0.9635
-6.0783 -6.6287 -2.3411 0.9635
-6.0363 -6.6652 -2.3407 0.9635
-5.9941 -6.7015 -2.3404 0.9635
-5.8663 -6.8086 -2.3394 0.9635
-5.8233 -6.8438 -2.3391 0.9635
-5.7366 -6.9135 -2.3384 0.9635
-5.6930 -6.9479 -2.3381 0.9636
-5.6491 -6.9820 -2.3378 0.9636
-5.5609 -7.0494 -2.3372 0.9636
-5.5164 -7.0828 -2.3369 0.9636
-5.4270 -7.1486 -2.3363 0.9636
-5.3368 -7.2134 -2.3357 0.9636
-5.1542 -7.3396 -2.3345 0.9636
-5.1081 -7.3704 -2.3342 0.9636
-5.0618 -7.4009 -2.3340 0.9636
-5.0154 -7.4312 -2.3337 0.9636
-4.9687 -7.4612 -2.3334 0.9636
-4.8749 -7.5203 -2.3329 0.9636
-4.5895 -7.6908 -2.3313 0.9637
-4.4930 -7.7453 -2.3308 0.9637
-4.3472 -7.8248 -2.3300 0.9637
-3.9017 -8.0474 -2.3280 0.9637
-3.8515 -8.0706 -2.3278 0.9637
-3.8012 -8.0936 -2.3276 0.9637
-3.7001 -8.1385 -2.3271 0.9637
-3.5986 -8.1822 -2.3267 0.9637
-3.3425 -8.2861 -2.3258 0.9637
-3.2909 -8.3060 -2.3256 0.9637
-3.2392 -8.3255 -2.3254 0.9637
-3.1355 -8.3637 -2.3250 0.9638
-2.9792 -8.4185 -2.3245 0.9638
-2.9269 -8.4362 -2.3244 0.9638
-2.8744 -8.4535 -2.3242 0.9638
-2.7693 -8.4872 -2.3239 0.9638
-2.6108 -8.5355 -2.3234 0.9638
-2.4516 -8.5809 -2.3230 0.9638
-2.3983 -8.5954 -2.3229 0.9638
-2.2916 -8.6234 -2.3226 0.9638
-2.1845 -8.6502 -2.3224 0.9638
-2.0771 -8.6756 -2.3221 0.9638
-2.0234 -8.6879 -2.3220 0.9638
-1.7534 -8.7443 -2.3215 0.9638
-1.6992 -8.7545 -2.3214 0.9638
-1.6450 -8.7645 -2.3213 0.9638
-1.5363 -8.7835 -2.3211 0.9638
-1.4819 -8.7925 -2.3210 0.9638
-1.4275 -8.8012 -2.3209 0.9638
-1.3184 -8.8175 -2.3207 0.9638
-1.2638 -8.8253 -2.3207 0.9638
-1.2092 -8.8326 -2.3206 0.9638
-1.1545 -8.8397 -2.3205 0.9638
-1.0998 -8.8464 -2.3205 0.9638
-1.0450 -8.8528 -2.3204 0.9638
-0.9902 -8.8588 -2.3203 0.9638
-0.8805 -8.8700 -2.3202 0.9638
-0.7707 -8.8798 -2.3201 0.9638
-0.6608 -8.8883 -2.3200 0.9638
-0.6058 -8.8921 -2.3200 0.9638
-0.5508 -8.8955 -2.3200 0.9638
-0.4407 -8.9014 -2.3199 0.9638
-0.2755 -8.9078 -2.3198 0.9638
-0.2204 -8.9092 -2.3198 0.9638
-0.1653 -8.9104 -2.3198 0.9638
-0.0551 -8.9116 -2.3198 0.9638
0.1102 -8.9111 -2.3198 0.9638
0.3857 -8.9036 -2.3198 0.9638
0.5508 -8.8951 -2.3199 0.9638
0.6058 -8.8916 -2.3199 0.9638
0.6608 -8.8878 -2.3199 0.9638
0.7707 -8.8792 -2.3200 0.9638
0.8256 -8.8744 -2.3200 0.9638
0.9901 -8.8581 -2.3201 0.9638
1.0997 -8.8456 -2.3202 0.9638
1.2637 -8.8243 -2.3204 0.9638
1.5905 -8.7730 -2.3209 0.9638
1.6447 -8.7633 -2.3209 0.9638
1.6990 -8.7533 -2.3210 0.9638
1.7531 -8.7429 -2.3211 0.9638
1.8072 -8.7322 -2.3212 0.9638
1.9692 -8.6983 -2.3215 0.9638
2.1305 -8.6615 -2.3218 0.9638
2.1841 -8.6485 -2.3219 0.9638
2.2911 -8.6217 -2.3221 0.9638
2.3445 -8.6078 -2.3223 0.9638
2.4511 -8.5791 -2.3225 0.9638
2.5042 -8.5643 -2.3226 0.9638
2.5573 -8.5491 -2.3228 0.9638
2.6103 -8.5336 -2.3229 0.9638
2.6631 -8.5178 -2.3231 0.9638
2.7159 -8.5017 -2.3232 0.9638
2.8737 -8.4514 -2.3236 0.9638
2.9261 -8.4341 -2.3238 0.9638
2.9784 -8.4164 -2.3239 0.9638
3.0306 -8.3983 -2.3241 0.9638
3.1347 -8.3614 -2.3244 0.9638
3.2383 -8.3232 -2.3248 0.9638
3.2900 -8.3036 -2.3249 0.9638
3.3415 -8.2837 -2.3251 0.9638
3.4443 -8.2430 -2.3255 0.9637
3.6483 -8.1579 -2.3262 0.9637
3.7495 -8.1135 -2.3266 0.9637
3.8000 -8.0909 -2.3268 0.9637
3.8503 -8.0680 -2.3270 0.9637
4.0003 -7.9973 -2.3276 0.9637
4.0501 -7.9731 -2.3278 0.9637
4.3456 -7.8219 -2.3292 0.9637
4.3943 -7.7956 -2.3294 0.9637
4.5877 -7.6877 -2.3304 0.9637
4.6356 -7.6600 -2.3306 0.9637
4.7785 -7.5752 -2.3314 0.9637
4.8729 -7.5171 -2.3319 0.9636
5.0132 -7.4280 -2.3327 0.9636
5.3795 -7.1778 -2.3349 0.9636
5.4693 -7.1125 -2.3355 0.9636
5.5138 -7.0794 -2.3358 0.9636
5.5582 -7.0461 -2.3361 0.9636
5.6024 -7.0125 -2.3364 0.9636
5.6464 -6.9786 -2.3367 0.9636
5.6902 -6.9445 -2.3370 0.9636
5.7772 -6.8754 -2.3376 0.9636
5.9487 -6.7340 -2.3389 0.9635
6.0751 -6.6252 -2.3398 0.9635
6.1168 -6.5885 -2.3402 0.9635
6.1583 -6.5515 -2.3405 0.9635
6.1996 -6.5141 -2.3408 0.9635
6.2406 -6.4766 -2.3412 0.9635
6.2815 -6.4388 -2.3415 0.9635
6.3221 -6.4008 -2.3418 0.9635
6.4426 -6.2852 -2.3429 0.9635
6.5218 -6.2069 -2.3436 0.9635
6.5611 -6.1674 -2.3439 0.9635
6.6001 -6.1276 -2.3443 0.9635
6.7157 -6.0069 -2.3454 0.9634
6.7538 -5.9662 -2.3457 0.9634
6.7916 -5.9252 -2.3461 0.9634
6.8665 -5.8426 -2.3468 0.9634
6.9036 -5.8010 -2.3472 0.9634
6.9405 -5.7590 -2.3476 0.9634
6.9771 -5.7170 -2.3480 0.9634
7.0135 -5.6746 -2.3484 0.9634
7.1914 -5.4595 -2.3503 0.9634
7.2608 -5.3720 -2.3511 0.9634
7.3630 -5.2390 -2.3523 0.9633
7.4298 -5.1493 -2.3531 0.9633
7.4628 -5.1042 -2.3535 0.9633
7.5601 -4.9674 -2.3547 0.9633
7.6236 -4.8752 -2.3555 0.9633
7.6550 -4.8288 -2.3559 0.9633
7.7169 -4.7355 -2.3568 0.9633
7.7776 -4.6413 -2.3576 0.9633
7.8373 -4.5464 -2.3585 0.9632
7.8667 -4.4987 -2.3589 0.9632
7.8958 -4.4508 -2.3593 0.9632
7.9246 -4.4027 -2.3598 0.9632
8.1448 -4.0114 -2.3633 0.9632
8.1969 -3.9118 -2.3642 0.9632
8.2225 -3.8618 -2.3646 0.9631
8.2728 -3.7612 -2.3655 0.9631
8.2975 -3.7107 -2.3660 0.9631
8.3219 -3.6600 -2.3665 0.9631
8.3698 -3.5582 -2.3674 0.9631
8.4164 -3.4557 -2.3683 0.9631
8.4393 -3.4043 -2.3688 0.9631
8.5489 -3.1449 -2.3711 0.9630
8.5699 -3.0926 -2.3716 0.9630
8.5906 -3.0401 -2.3720 0.9630
8.6109 -2.9875 -2.3725 0.9630
8.6507 -2.8819 -2.3735 0.9630
8.6892 -2.7759 -2.3744 0.9630
8.7445 -2.6158 -2.3759 0.9630
8.7623 -2.5621 -2.3764 0.9630
8.7798 -2.5084 -2.3768 0.9630
8.7969 -2.4546 -2.3773 0.9630
8.8137 -2.4006 -2.3778 0.9629
8.8302 -2.3466 -2.3783 0.9629
8.9222 -2.0199 -2.3813 0.9629
8.9502 -1.9102 -2.3822 0.9629
8.9638 -1.8552 -2.3827 0.9629
8.9769 -1.8001 -2.3832 0.9629
8.9898 -1.7449 -2.3837 0.9629
9.0144 -1.6343 -2.3847 0.9628
9.0263 -1.5788 -2.3852 0.9628
9.0489 -1.4677 -2.3862 0.9628
9.0803 -1.3003 -2.3878 0.9628
9.1087 -1.1324 -2.3893 0.9628
9.1339 -0.9638 -2.3908 0.9627
9.1417 -0.9075 -2.3913 0.9627
9.1561 -0.7948 -2.3923 0.9627
9.1628 -0.7382 -2.3928 0.9627
9.1861 -0.5118 -2.3949 0.9627
9.2000 -0.3416 -2.3964 0.9627
9.2038 -0.2847 -2.3969 0.9627
9.2074 -0.2278 -2.3974 0.9626
9.2135 -0.1140 -2.3985 0.9626
9.2181 0.0000 -2.3995 0.9626
9.2200 0.0570 -2.4000 0.9626
9.2214 0.1140 -2.4005 0.9626
9.2225 0.1711 -2.4011 0.9626
9.2233 0.2282 -2.4016 0.9626
9.2237 0.3424 -2.4026 0.9626
9.2217 0.5138 -2.4042 0.9625
9.2186 0.6281 -2.4052 0.9625
9.2141 0.7423 -2.4062 0.9625
9.2082 0.8566 -2.4073 0.9625
9.2008 0.9709 -2.4083 0.9625
9.1966 1.0279 -2.4088 0.9625
9.1921 1.0851 -2.4093 0.9625
9.1872 1.1421 -2.4099 0.9625
9.1819 1.1992 -2.4104 0.9624
9.1703 1.3132 -2.4114 0.9624
9.1502 1.4841 -2.4130 0.9624
9.1428 1.5410 -2.4135 0.9624
9.1351 1.5978 -2.4140 0.9624
9.1185 1.7114 -2.4150 0.9624
9.1097 1.7681 -2.4155 0.9624
9.1005 1.8248 -2.4160 0.9624
9.0709 1.9946 -2.4176 0.9623
9.0494 2.1075 -2.4186 0.9623
9.0021 2.3327 -2.4207 0.9623
8.9763 2.4449 -2.4217 0.9623
8.9350 2.6126 -2.4232 0.9623
8.9057 2.7241 -2.4242 0.9622
8.8751 2.8352 -2.4252 0.9622
8.8592 2.8906 -2.4257 0.9622
8.8264 3.0012 -2.4267 0.9622
8.8095 3.0564 -2.4272 0.9622
8.7567 3.2213 -2.4287 0.9622
8.7384 3.2760 -2.4292 0.9622
8.7008 3.3852 -2.4302 0.9621
8.6417 3.5482 -2.4317 0.9621
8.6214 3.6023 -2.4322 0.9621
8.6007 3.6563 -2.4327 0.9621
8.5582 3.7639 -2.4337 0.9621
8.5365 3.8176 -2.4342 0.9621
8.4920 3.9244 -2.4351 0.9621
8.4693 3.9776 -2.4356 0.9621
8.4462 4.0307 -2.4361 0.9621
8.4227 4.0837 -2.4366 0.9620
8.3990 4.1365 -2.4371 0.9620
8.3749 4.1892 -2.4375 0.9620
8.3505 4.2418 -2.4380 0.9620
8.3006 4.3464 -2.4390 0.9620
8.2494 4.4505 -2.4399 0.9620
8.2233 4.5023 -2.4404 0.9620
8.1969 4.5539 -2.4409 0.9620
8.1702 4.6054 -2.4413 0.9620
8.0315 4.8604 -2.4436 0.9619
7.9444 5.0114 -2.4450 0.9619
7.9148 5.0614 -2.4455 0.9619
7.8848 5.1112 -2.4459 0.9619
7.8545 5.1608 -2.4464 0.9619
7.8238 5.2102 -2.4468 0.9619
7.7929 5.2595 -2.4473 0.9619
7.7616 5.3085 -2.4477 0.9619
7.7301 5.3574 -2.4482 0.9619
7.6982 5.4061 -2.4486 0.9619
7.6660 5.4546 -2.4491 0.9619
7.6007 5.5510 -2.4499 0.9618
7.5676 5.5989 -2.4504 0.9618
7.5004 5.6941 -2.4513 0.9618
7.3973 5.8353 -2.4525 0.9618
7.3271 5.9284 -2.4534 0.9618
7.2916 5.9746 -2.4538 0.9618
7.0721 6.2473 -2.4563 0.9617
7.0345 6.2920 -2.4567 0.9617
6.9967 6.3364 -2.4571 0.9617
6.7229 6.2416 -2.3879 0.9628
6.5883 6.1929 -2.3537 0.9633
6.4575 6.1456 -2.3205 0.9638
6.3710 6.1389 -2.3030 0.9641
6.2590 6.2590 -2.3041 0.9641
6.1830 6.3379 -2.3048 0.9641
6.1447 6.3770 -2.3052 0.9641
6.0672 6.4545 -2.3059 0.9640
6.0281 6.4929 -2.3062 0.9640
5.9491 6.5689 -2.3069 0.9640
5.7064 6.7911 -2.3090 0.9640
5.6651 6.8272 -2.3093 0.9640
5.6236 6.8631 -2.3096 0.9640
5.4976 6.9692 -2.3106 0.9640
5.3696 7.0729 -2.3115 0.9640
5.0631 7.3054 -2.3137 0.9639
5.0185 7.3375 -2.3140 0.9639
4.9736 7.3693 -2.3143 0.9639
4.8379 7.4631 -2.3151 0.9639
4.7463 7.5242 -2.3157 0.9639
4.7003 7.5543 -2.3160 0.9639
4.5141 7.6719 -2.3171 0.9639
4.4671 7.7005 -2.3173 0.9639
4.3249 7.7847 -2.3181 0.9639
4.1811 7.8661 -2.3188 0.9638
4.1328 7.8926 -2.3191 0.9638
4.0843 7.9189 -2.3193 0.9638
4.0357 7.9448 -2.3196 0.9638
3.9869 7.9704 -2.3198 0.9638
3.9379 7.9958 -2.3201 0.9638
3.8888 8.0208 -2.3203 0.9638
3.8395 8.0454 -2.3205 0.9638
3.7404 8.0939 -2.3210 0.9638
3.6907 8.1177 -2.3212 0.9638
3.5907 8.1642 -2.3216 0.9638
3.5404 8.1870 -2.3218 0.9638
3.4900 8.2095 -2.3220 0.9638
3.3888 8.2535 -2.3225 0.9638
3.3380 8.2750 -2.3227 0.9638
3.2360 8.3171 -2.3230 0.9638
3.1334 8.3578 -2.3234 0.9638
3.0819 8.3777 -2.3236 0.9638
2.9785 8.4165 -2.3240 0.9638
2.8746 8.4540 -2.3243 0.9638
2.7702 8.4901 -2.3247 0.9638
2.6654 8.5249 -2.3250 0.9638
2.6128 8.5419 -2.3252 0.9638
2.4013 8.6061 -2.3258 0.9637
2.2950 8.6362 -2.3261 0.9637
2.1347 8.6788 -2.3265 0.9637
2.0811 8.6923 -2.3266 0.9637
1.9737 8.7183 -2.3268 0.9637
1.8659 8.7429 -2.3271 0.9637
1.8119 8.7547 -2.3272 0.9637
1.5951 8.7985 -2.3276 0.9637
1.4317 8.8276 -2.3279 0.9637
1.3772 8.8366 -2.3280 0.9637
1.2131 8.8615 -2.3282 0.9637
1.1035 8.8764 -2.3284 0.9637
0.9937 8.8899 -2.3285 0.9637
0.8286 8.9075 -2.3287 0.9637
0.7736 8.9126 -2.3287 0.9637
0.7185 8.9174 -2.3288 0.9637
0.6081 8.9260 -2.3288 0.9637
0.5529 8.9297 -2.3289 0.9637
0.4425 8.9361 -2.3290 0.9637
0.3319 8.9411 -2.3290 0.9637
0.2766 8.9431 -2.3290 0.9637
0.1106 8.9469 -2.3291 0.9637
0.0553 8.9474 -2.3291 0.9637
-0.0553 8.9475 -2.3291 0.9637
-0.1107 8.9470 -2.3291 0.9637
-0.2213 8.9449 -2.3291 0.9637
-0.3872 8.9390 -2.3290 0.9637
-0.4425 8.9364 -2.3290 0.9637
-0.4977 8.9334 -2.3290 0.9637
-0.5802 8.5152 -2.2217 0.9653
-0.8200 8.8147 -2.3044 0.9641
-0.9388 8.8967 -2.3287 0.9637
-0.9938 8.8906 -2.3287 0.9637
-1.0487 8.8840 -2.3286 0.9637
-1.1036 8.8772 -2.3285 0.9637
-1.1585 8.8699 -2.3285 0.9637
-1.2680 8.8545 -2.3284 0.9637
-1.3773 8.8376 -2.3282 0.9637
-1.4319 8.8286 -2.3281 0.9637
-1.6496 8.7892 -2.3278 0.9637
-1.7581 8.7675 -2.3276 0.9637
-1.8122 8.7561 -2.3275 0.9637
-1.8662 8.7443 -2.3274 0.9637
-1.9740 8.7198 -2.3272 0.9637
-2.0278 8.7070 -2.3271 0.9637
-2.0815 8.6938 -2.3270 0.9637
-2.1351 8.6804 -2.3269 0.9637
-2.4548 8.5923 -2.3261 0.9637
-2.5607 8.5603 -2.3258 0.9637
-2.6660 8.5269 -2.3255 0.9637
-2.8232 8.4743 -2.3251 0.9638
-2.9273 8.4375 -2.3248 0.9638
-2.9793 8.4187 -2.3246 0.9638
-3.0310 8.3995 -2.3244 0.9638
-3.0828 8.3800 -2.3243 0.9638
-3.1343 8.3601 -2.3241 0.9638
-3.1857 8.3400 -2.3239 0.9638
-3.2369 8.3194 -2.3237 0.9638
-3.2881 8.2987 -2.3235 0.9638
-3.4406 8.2342 -2.3230 0.9638
-3.4912 8.2121 -2.3228 0.9638
-3.5416 8.1896 -2.3226 0.9638
-3.7417 8.0967 -2.3218 0.9638
-3.8902 8.0236 -2.3211 0.9638
-3.9394 7.9986 -2.3209 0.9638
-4.0859 7.9219 -2.3202 0.9638
-4.1344 7.8956 -2.3200 0.9638
-4.1827 7.8692 -2.3197 0.9638
-4.3743 7.7601 -2.3188 0.9639
-4.4217 7.7320 -2.3185 0.9639
-4.5160 7.6750 -2.3180 0.9639
-4.8855 7.4355 -2.3159 0.9639
-4.9759 7.3727 -2.3153 0.9639
-5.1542 7.2438 -2.3142 0.9639
-5.1982 7.2108 -2.3139 0.9639
-5.2421 7.1776 -2.3136 0.9639
-5.2857 7.1442 -2.3133 0.9639
-5.3722 7.0764 -2.3127 0.9639
-5.4579 7.0075 -2.3121 0.9640
-5.5004 6.9727 -2.3118 0.9640
-5.5426 6.9376 -2.3114 0.9640
-5.5847 6.9023 -2.3111 0.9640
-5.7094 6.7947 -2.3102 0.9640
-5.7913 6.7216 -2.3095 0.9640
-5.8320 6.6847 -2.3092 0.9640
-5.8723 6.6476 -2.3089 0.9640
-5.9524 6.5725 -2.3082 0.9640
-6.1482 6.3806 -2.3065 0.9640
-6.2626 6.2626 -2.3054 0.9641
-6.3747 6.1425 -2.3043 0.9641
-6.4116 6.1020 -2.3040 0.9641
-6.4482 6.0612 -2.3036 0.9641
-6.4845 6.0203 -2.3032 0.9641
-6.5919 5.8961 -2.3021 0.9641
-6.6621 5.8122 -2.3014 0.9641
-6.7654 5.6848 -2.3002 0.9641
-6.7993 5.6419 -2.2998 0.9641
-6.8475 5.6107 -2.3043 0.9641
-7.4367 5.7921 -2.4537 0.9618
-7.4711 5.7450 -2.4533 0.9618
-7.5052 5.6977 -2.4528 0.9618
-7.6056 5.5546 -2.4515 0.9618
-7.7668 5.3121 -2.4494 0.9619
-7.7981 5.2630 -2.4489 0.9619
-7.8291 5.2137 -2.4485 0.9619
-7.8598 5.1643 -2.4480 0.9619
-7.8901 5.1146 -2.4476 0.9619
-8.0083 4.9143 -2.4458 0.9619
-8.0655 4.8131 -2.4449 0.9619
-8.1213 4.7112 -2.4440 0.9619
-8.1488 4.6600 -2.4435 0.9619
-8.1759 4.6087 -2.4430 0.9620
-8.2027 4.5571 -2.4426 0.9620
-8.2291 4.5054 -2.4421 0.9620
-8.2553 4.4536 -2.4416 0.9620
-8.2810 4.4017 -2.4412 0.9620
-8.3317 4.2972 -2.4402 0.9620
-8.3565 4.2448 -2.4398 0.9620
-8.4288 4.0866 -2.4383 0.9620
-8.4754 3.9805 -2.4374 0.9620
-8.4982 3.9272 -2.4369 0.9620
-8.5645 3.7667 -2.4354 0.9621
-8.6070 3.6590 -2.4345 0.9621
-8.6277 3.6050 -2.4340 0.9621
-8.6481 3.5509 -2.4335 0.9621
-8.6682 3.4966 -2.4330 0.9621
-8.6879 3.4423 -2.4325 0.9621
-8.7449 3.2785 -2.4310 0.9621
-8.7812 3.1688 -2.4301 0.9621
-8.8659 2.8928 -2.4276 0.9622
-8.8818 2.8373 -2.4271 0.9622
