ply
format ascii 1.0
element vertex 1562
property float32 x
property float32 y
property float32 z
property float32 I
end_header
-3.9314 9.9224 -1.8648 0.9576
-3.9239 9.7273 -1.8327 0.9583
-3.9165 9.5385 -1.8017 0.9590
-3.9026 9.1800 -1.7429 0.9603
-3.9620 9.1618 -1.7441 0.9603
-4.0283 9.1592 -1.7483 0.9602
-4.1620 9.1544 -1.7571 0.9600
-4.2297 9.1525 -1.7617 0.9599
-4.2976 9.1505 -1.7664 0.9598
-4.8748 9.8979 -1.9278 0.9562
-4.9496 9.8949 -1.9332 0.9561
-5.0247 9.8918 -1.9386 0.9559
-5.2529 9.8825 -1.9555 0.9556
-5.3298 9.8794 -1.9614 0.9554
-5.5635 9.8698 -1.9796 0.9550
-5.6424 9.8666 -1.9860 0.9549
-5.6512 9.7418 -1.9678 0.9553
-5.6455 9.5948 -1.9452 0.9558
-5.8189 9.0993 -1.8872 0.9571
-6.9035 10.6497 -2.2176 0.9498
-7.0134 10.5316 -2.2109 0.9499
-7.0681 10.4728 -2.2076 0.9500
-7.1227 10.4141 -2.2045 0.9501
-7.2082 10.4005 -2.2110 0.9499
-7.2770 10.3622 -2.2124 0.9499
-7.3458 10.3239 -2.2139 0.9499
-7.4148 10.2856 -2.2155 0.9498
-7.4838 10.2471 -2.2171 0.9498
-7.5530 10.2087 -2.2189 0.9497
-7.6071 10.1500 -2.2163 0.9498
-7.6757 10.1105 -2.2180 0.9498
-7.8839 10.1224 -2.2418 0.9492
-8.2853 10.1116 -2.2841 0.9483
-8.4020 10.1257 -2.2990 0.9480
-8.4842 10.0969 -2.3044 0.9479
-8.5454 10.0430 -2.3041 0.9479
-8.6668 9.9340 -2.3035 0.9479
-8.7269 9.8790 -2.3032 0.9479
-8.7867 9.8236 -2.3029 0.9479
-8.8462 9.7678 -2.3026 0.9479
-8.9053 9.7116 -2.3023 0.9479
-8.9640 9.6551 -2.3020 0.9479
-9.0223 9.5982 -2.3017 0.9479
-9.2520 9.3671 -2.3005 0.9479
-9.3646 9.2494 -2.2998 0.9480
-9.4203 9.1901 -2.2995 0.9480
-9.4757 9.1304 -2.2992 0.9480
-9.6393 8.9493 -2.2982 0.9480
-9.6931 8.8882 -2.2979 0.9480
-9.9043 8.6407 -2.2966 0.9480
-10.0584 8.4518 -2.2956 0.9481
-10.1090 8.3881 -2.2952 0.9481
-10.2089 8.2600 -2.2945 0.9481
-10.3557 8.0655 -2.2935 0.9481
-10.6834 7.6015 -2.2910 0.9482
-10.8612 7.3303 -2.2895 0.9482
-10.9046 7.2618 -2.2892 0.9482
-11.8244 7.4589 -2.4428 0.9448
-11.9118 7.3097 -2.4420 0.9448
-11.9973 7.1594 -2.4411 0.9448
-12.0393 7.0839 -2.4407 0.9449
-12.0809 7.0081 -2.4403 0.9449
-12.1220 6.9321 -2.4399 0.9449
-12.2423 6.7026 -2.4387 0.9449
-12.3200 6.5485 -2.4378 0.9449
-12.5058 6.1591 -2.4357 0.9450
-12.5414 6.0806 -2.4353 0.9450
-12.5766 6.0019 -2.4349 0.9450
-12.6113 5.9229 -2.4345 0.9450
-12.7122 5.6850 -2.4332 0.9450
-12.8087 5.4452 -2.4319 0.9451
-12.8398 5.3650 -2.4314 0.9451
-12.9302 5.1231 -2.4301 0.9451
-12.9878 4.9610 -2.4293 0.9451
-13.1485 4.4708 -2.4266 0.9452
-13.1735 4.3887 -2.4261 0.9452
-13.2219 4.2238 -2.4253 0.9452
-13.2453 4.1412 -2.4248 0.9452
-13.2906 3.9756 -2.4239 0.9452
-13.3124 3.8926 -2.4235 0.9452
-13.3338 3.8095 -2.4230 0.9452
-13.3546 3.7262 -2.4225 0.9453
-13.3749 3.6429 -2.4221 0.9453
-13.3946 3.5595 -2.4216 0.9453
-13.4139 3.4759 -2.4212 0.9453
-13.4326 3.3922 -2.4207 0.9453
-13.4856 3.1407 -2.4194 0.9453
-13.5183 2.9726 -2.4184 0.9453
-13.5489 2.8040 -2.4175 0.9454
-13.5634 2.7197 -2.4171 0.9454
-13.5773 2.6353 -2.4166 0.9454
-13.6280 2.2969 -2.4148 0.9454
-13.6393 2.2122 -2.4143 0.9454
-13.6501 2.1273 -2.4138 0.9454
-13.6880 1.7877 -2.4120 0.9455
-13.6962 1.7027 -2.4115 0.9455
-13.7038 1.6176 -2.4111 0.9455
-13.7175 1.4475 -2.4101 0.9455
-13.7424 1.0218 -2.4078 0.9456
-13.7511 0.7661 -2.4064 0.9456
-13.7542 0.5957 -2.4055 0.9456
-13.7551 0.4254 -2.4046 0.9457
-13.7548 0.3403 -2.4041 0.9457
-13.7540 0.2552 -2.4036 0.9457
-13.1705 0.0000 -2.4022 0.9479
-13.1678 -0.0815 -2.4017 0.9479
-13.1646 -0.1629 -2.4013 0.9479
-13.1609 -0.2442 -2.4008 0.9479
-13.1520 -0.4068 -2.3999 0.9479
-13.1468 -0.4881 -2.3995 0.9479
-13.1282 -0.7315 -2.3981 0.9479
-13.1210 -0.8125 -2.3977 0.9480
-13.1133 -0.8935 -2.3973 0.9480
-13.0964 -1.0552 -2.3964 0.9480
-13.0872 -1.1360 -2.3959 0.9480
-13.0673 -1.2973 -2.3950 0.9480
-13.0566 -1.3778 -2.3946 0.9480
-13.0454 -1.4582 -2.3942 0.9480
-12.9958 -1.7791 -2.3924 0.9481
-12.9681 -1.9391 -2.3915 0.9481
-12.9228 -2.1781 -2.3902 0.9481
-12.9067 -2.2576 -2.3898 0.9481
-12.8731 -2.4161 -2.3889 0.9481
-12.8556 -2.4952 -2.3885 0.9481
-12.8190 -2.6531 -2.3876 0.9482
-12.7194 -3.0454 -2.3854 0.9482
-12.6311 -3.3566 -2.3837 0.9482
-12.6078 -3.4341 -2.3833 0.9483
-12.5841 -3.5114 -2.3829 0.9483
-12.5599 -3.5885 -2.3825 0.9483
-12.5353 -3.6654 -2.3820 0.9483
-12.5101 -3.7422 -2.3816 0.9483
-12.4845 -3.8188 -2.3812 0.9483
-12.3212 -4.2748 -2.3787 0.9484
-12.2924 -4.3502 -2.3783 0.9484
-12.2334 -4.5003 -2.3774 0.9484
-12.2032 -4.5751 -2.3770 0.9484
-12.1415 -4.7240 -2.3762 0.9484
-12.1100 -4.7982 -2.3758 0.9484
-12.0456 -4.9459 -2.3750 0.9484
-11.9456 -5.1659 -2.3737 0.9485
-11.9114 -5.2387 -2.3733 0.9485
-11.8417 -5.3838 -2.3725 0.9485
-11.7339 -5.5998 -2.3713 0.9485
-11.6971 -5.6713 -2.3710 0.9485
-11.5841 -5.8844 -2.3698 0.9485
-11.5066 -6.0253 -2.3690 0.9486
-11.4673 -6.0953 -2.3686 0.9486
-11.4275 -6.1651 -2.3682 0.9486
-11.3057 -6.3729 -2.3671 0.9486
-11.2642 -6.4417 -2.3667 0.9486
-11.2224 -6.5102 -2.3663 0.9486
-11.1801 -6.5784 -2.3659 0.9486
-11.1374 -6.6463 -2.3656 0.9486
-10.7816 -7.1800 -2.3626 0.9487
-10.7353 -7.2454 -2.3622 0.9487
-10.6887 -7.3105 -2.3619 0.9487
-10.5942 -7.4399 -2.3611 0.9487
-10.5464 -7.5041 -2.3608 0.9487
-10.4982 -7.5681 -2.3604 0.9487
-10.4497 -7.6318 -2.3601 0.9487
-10.4007 -7.6950 -2.3597 0.9488
-10.2516 -7.8832 -2.3587 0.9488
-10.2012 -7.9453 -2.3583 0.9488
-10.0477 -8.1296 -2.3573 0.9488
-9.8379 -8.3708 -2.3560 0.9488
-9.7845 -8.4303 -2.3556 0.9488
-9.7308 -8.4895 -2.3553 0.9488
-9.6768 -8.5483 -2.3550 0.9489
-9.6224 -8.6068 -2.3546 0.9489
-9.4572 -8.7803 -2.3537 0.9489
-9.4014 -8.8373 -2.3533 0.9489
-9.2889 -8.9505 -2.3527 0.9489
-9.1176 -9.1177 -2.3518 0.9489
-9.0599 -9.1727 -2.3515 0.9489
-8.9434 -9.2816 -2.3509 0.9489
-8.8847 -9.3355 -2.3506 0.9489
-8.8257 -9.3891 -2.3503 0.9490
-8.7663 -9.4423 -2.3500 0.9490
-8.7067 -9.4951 -2.3497 0.9490
-8.5864 -9.5997 -2.3491 0.9490
-8.4650 -9.7028 -2.3485 0.9490
-8.4038 -9.7538 -2.3482 0.9490
-8.3423 -9.8044 -2.3479 0.9490
-8.0934 -10.0030 -2.3468 0.9490
-8.0304 -10.0516 -2.3465 0.9490
-7.8399 -10.1954 -2.3457 0.9491
-7.7758 -10.2425 -2.3455 0.9491
-7.6468 -10.3356 -2.3449 0.9491
-7.5819 -10.3815 -2.3447 0.9491
-7.5167 -10.4271 -2.3444 0.9491
-7.3196 -10.5613 -2.3437 0.9491
-7.1869 -10.6487 -2.3432 0.9491
-7.0532 -10.7346 -2.3427 0.9491
-6.9860 -10.7769 -2.3424 0.9491
-6.9185 -10.8188 -2.3422 0.9491
-6.5775 -11.0221 -2.3410 0.9491
-6.5085 -11.0614 -2.3408 0.9492
-6.3700 -11.1390 -2.3404 0.9492
-6.3004 -11.1772 -2.3402 0.9492
-6.2306 -11.2149 -2.3399 0.9492
-6.1606 -11.2521 -2.3397 0.9492
-5.9492 -11.3615 -2.3391 0.9492
-5.7359 -11.4670 -2.3385 0.9492
-5.5927 -11.5351 -2.3381 0.9492
-5.2313 -11.6978 -2.3372 0.9492
-5.1585 -11.7291 -2.3370 0.9492
-5.0855 -11.7598 -2.3368 0.9492
-4.9389 -11.8201 -2.3365 0.9492
-4.8653 -11.8495 -2.3363 0.9493
-4.7916 -11.8785 -2.3361 0.9493
-4.7177 -11.9071 -2.3360 0.9493
-4.6437 -11.9352 -2.3358 0.9493
-4.4951 -11.9901 -2.3355 0.9493
-4.4206 -12.0168 -2.3353 0.9493
-4.3459 -12.0431 -2.3352 0.9493
-4.2711 -12.0690 -2.3350 0.9493
-4.1961 -12.0945 -2.3349 0.9493
-4.1209 -12.1194 -2.3347 0.9493
-3.9702 -12.1679 -2.3344 0.9493
-3.6672 -12.2596 -2.3339 0.9493
-3.5911 -12.2813 -2.3338 0.9493
-3.5149 -12.3026 -2.3336 0.9493
-3.4386 -12.3235 -2.3335 0.9493
-3.3621 -12.3439 -2.3334 0.9493
-3.2856 -12.3638 -2.3333 0.9493
-3.1321 -12.4023 -2.3331 0.9493
-3.0552 -12.4208 -2.3329 0.9493
-2.9782 -12.4389 -2.3328 0.9493
-2.9011 -12.4565 -2.3327 0.9493
-2.8239 -12.4737 -2.3326 0.9493
-2.7465 -12.4904 -2.3325 0.9493
-2.6691 -12.5066 -2.3324 0.9493
-2.4364 -12.5524 -2.3321 0.9493
-2.2028 -12.5941 -2.3319 0.9493
-2.1248 -12.6070 -2.3318 0.9493
-2.0468 -12.6195 -2.3317 0.9493
-1.9686 -12.6315 -2.3316 0.9493
-1.8904 -12.6430 -2.3316 0.9493
-1.7338 -12.6647 -2.3314 0.9494
-1.5769 -12.6845 -2.3313 0.9494
-1.3412 -12.7106 -2.3311 0.9494
-1.2626 -12.7183 -2.3311 0.9494
-1.1051 -12.7325 -2.3310 0.9494
-1.0264 -12.7388 -2.3309 0.9494
-0.7109 -12.7595 -2.3308 0.9494
-0.6320 -12.7634 -2.3308 0.9494
-0.5530 -12.7670 -2.3307 0.9494
-0.3951 -12.7725 -2.3307 0.9494
-0.2371 -12.7762 -2.3306 0.9494
-0.0790 -12.7780 -2.3306 0.9494
-0.0000 -12.7782 -2.3306 0.9494
0.2370 -12.7759 -2.3306 0.9494
0.3161 -12.7742 -2.3306 0.9494
0.5530 -12.7662 -2.3306 0.9494
0.7108 -12.7585 -2.3306 0.9494
0.8686 -12.7489 -2.3306 0.9494
1.0262 -12.7374 -2.3307 0.9494
1.1837 -12.7240 -2.3307 0.9494
1.4196 -12.7004 -2.3308 0.9494
1.4982 -12.6916 -2.3309 0.9494
1.7335 -12.6623 -2.3310 0.9494
1.8118 -12.6516 -2.3311 0.9494
1.9682 -12.6288 -2.3312 0.9494
2.0463 -12.6167 -2.3312 0.9494
2.1243 -12.6041 -2.3313 0.9494
2.2023 -12.5911 -2.3313 0.9494
2.2802 -12.5776 -2.3314 0.9494
2.3580 -12.5636 -2.3315 0.9494
2.7457 -12.4866 -2.3318 0.9493
2.9772 -12.4349 -2.3321 0.9493
3.0542 -12.4167 -2.3322 0.9493
3.1310 -12.3981 -2.3323 0.9493
3.2078 -12.3790 -2.3324 0.9493
3.2844 -12.3595 -2.3325 0.9493
3.4373 -12.3190 -2.3327 0.9493
3.5897 -12.2766 -2.3329 0.9493
3.6658 -12.2548 -2.3330 0.9493
3.7417 -12.2324 -2.3331 0.9493
3.8931 -12.1865 -2.3333 0.9493
4.1191 -12.1140 -2.3337 0.9493
4.4185 -12.0112 -2.3342 0.9493
4.4929 -11.9843 -2.3344 0.9493
4.5672 -11.9570 -2.3345 0.9493
4.7892 -11.8724 -2.3349 0.9493
4.8628 -11.8433 -2.3351 0.9493
5.0096 -11.7838 -2.3354 0.9493
5.7324 -11.4599 -2.3371 0.9492
5.8036 -11.4251 -2.3372 0.9492
6.0160 -11.3182 -2.3378 0.9492
6.1565 -11.2448 -2.3382 0.9492
6.2265 -11.2074 -2.3384 0.9492
6.2962 -11.1696 -2.3386 0.9492
6.5040 -11.0538 -2.3392 0.9492
6.5728 -11.0143 -2.3394 0.9492
6.7097 -10.9342 -2.3398 0.9492
6.8457 -10.8523 -2.3402 0.9492
6.9807 -10.7688 -2.3407 0.9492
7.1814 -10.6406 -2.3414 0.9491
7.2477 -10.5970 -2.3416 0.9491
7.4453 -10.4638 -2.3423 0.9491
7.6405 -10.3271 -2.3430 0.9491
7.7693 -10.2339 -2.3435 0.9491
7.8333 -10.1868 -2.3438 0.9491
7.8970 -10.1393 -2.3440 0.9491
8.0235 -10.0430 -2.3445 0.9491
8.2112 -9.8957 -2.3453 0.9491
8.3962 -9.7450 -2.3461 0.9490
8.4573 -9.6940 -2.3464 0.9490
8.8174 -9.3803 -2.3480 0.9490
8.8763 -9.3267 -2.3483 0.9490
8.9349 -9.2728 -2.3486 0.9490
9.1088 -9.1088 -2.3495 0.9490
9.2231 -8.9977 -2.3501 0.9490
9.2797 -8.9416 -2.3504 0.9490
9.3360 -8.8852 -2.3507 0.9489
9.4476 -8.7713 -2.3513 0.9489
9.5029 -8.7139 -2.3516 0.9489
9.5579 -8.6561 -2.3519 0.9489
9.6668 -8.5395 -2.3525 0.9489
9.7207 -8.4807 -2.3528 0.9489
9.7743 -8.4215 -2.3532 0.9489
9.8276 -8.3620 -2.3535 0.9489
9.8804 -8.3022 -2.3538 0.9489
10.2404 -7.8745 -2.3561 0.9488
10.2903 -7.8121 -2.3564 0.9488
10.4865 -7.5596 -2.3578 0.9488
10.5345 -7.4957 -2.3581 0.9488
10.5822 -7.4315 -2.3585 0.9488
10.6295 -7.3670 -2.3588 0.9488
10.6765 -7.3022 -2.3592 0.9488
10.8149 -7.1061 -2.3602 0.9487
10.9499 -6.9073 -2.3613 0.9487
10.9941 -6.8405 -2.3616 0.9487
11.0378 -6.7734 -2.3620 0.9487
11.1242 -6.6385 -2.3627 0.9487
11.2089 -6.5024 -2.3635 0.9487
11.2920 -6.3652 -2.3642 0.9487
11.3735 -6.2271 -2.3650 0.9486
11.4532 -6.0878 -2.3657 0.9486
11.5698 -5.8771 -2.3668 0.9486
11.6078 -5.8064 -2.3672 0.9486
11.6453 -5.7354 -2.3676 0.9486
11.7192 -5.5928 -2.3684 0.9486
11.7913 -5.4492 -2.3692 0.9486
11.8267 -5.3771 -2.3695 0.9485
11.8963 -5.2321 -2.3703 0.9485
11.9304 -5.1592 -2.3707 0.9485
11.9641 -5.0862 -2.3711 0.9485
11.9973 -5.0130 -2.3715 0.9485
12.0301 -4.9395 -2.3719 0.9485
12.1568 -4.6436 -2.3735 0.9485
12.2174 -4.4944 -2.3743 0.9484
12.2763 -4.3444 -2.3751 0.9484
12.4679 -3.8137 -2.3780 0.9484
12.5185 -3.6605 -2.3788 0.9484
12.5431 -3.5837 -2.3793 0.9483
12.6140 -3.3521 -2.3805 0.9483
12.6368 -3.2746 -2.3809 0.9483
12.6808 -3.1192 -2.3818 0.9483
12.7021 -3.0412 -2.3822 0.9483
12.8015 -2.6495 -2.3843 0.9482
12.8199 -2.5707 -2.3848 0.9482
12.8554 -2.4128 -2.3856 0.9482
12.9205 -2.0956 -2.3873 0.9482
12.9501 -1.9364 -2.3882 0.9482
12.9642 -1.8566 -2.3886 0.9481
12.9909 -1.6967 -2.3895 0.9481
13.0035 -1.6166 -2.3900 0.9481
13.0156 -1.5365 -2.3904 0.9481
13.0384 -1.3759 -2.3913 0.9481
13.0592 -1.2149 -2.3921 0.9481
13.0867 -0.9730 -2.3935 0.9480
13.0949 -0.8922 -2.3939 0.9480
13.1026 -0.8114 -2.3943 0.9480
13.1098 -0.7304 -2.3948 0.9480
13.1164 -0.6495 -2.3952 0.9480
13.1226 -0.5685 -2.3957 0.9480
13.1283 -0.4874 -2.3961 0.9480
13.1335 -0.4062 -2.3966 0.9480
13.1382 -0.3251 -2.3970 0.9480
13.1424 -0.2439 -2.3974 0.9480
13.1461 -0.1627 -2.3979 0.9479
13.1493 -0.0814 -2.3983 0.9479
13.1541 0.0813 -2.3992 0.9479
13.1570 0.2441 -2.4001 0.9479
13.1576 0.3255 -2.4006 0.9479
13.1578 0.4070 -2.4010 0.9479
13.1567 0.5699 -2.4019 0.9479
13.1554 0.6514 -2.4023 0.9479
13.1535 0.7328 -2.4028 0.9478
13.1512 0.8143 -2.4032 0.9478
13.1483 0.8958 -2.4037 0.9478
13.1450 0.9772 -2.4041 0.9478
13.1411 1.0587 -2.4046 0.9478
13.1142 1.4658 -2.4068 0.9478
13.1000 1.6285 -2.4077 0.9477
13.0836 1.7911 -2.4086 0.9477
13.0747 1.8723 -2.4090 0.9477
13.0107 2.3587 -2.4117 0.9477
12.9853 2.5204 -2.4126 0.9476
12.9718 2.6011 -2.4130 0.9476
12.9285 2.8429 -2.4143 0.9476
12.9130 2.9233 -2.4148 0.9476
9.0832 2.1747 -1.7035 0.9627
8.7735 2.1580 -1.6479 0.9639
8.7095 2.1995 -1.6384 0.9641
7.8442 2.1365 -1.4828 0.9675
7.2692 2.0768 -1.3789 0.9697
6.3326 2.0230 -1.2125 0.9733
5.8696 1.9958 -1.1307 0.9751
5.7299 1.9879 -1.1062 0.9756
5.4679 1.9732 -1.0602 0.9766
5.2269 1.9596 -1.0181 0.9776
5.1134 1.9532 -0.9983 0.9780
5.0042 1.9470 -0.9794 0.9784
4.9013 1.9420 -0.9616 0.9788
4.7067 1.9326 -0.9280 0.9795
4.6145 1.9281 -0.9121 0.9799
4.5253 1.9238 -0.8969 0.9802
4.4388 1.9195 -0.8820 0.9805
4.3551 1.9154 -0.8677 0.9808
3.7691 1.8853 -0.7686 0.9830
3.7049 1.8820 -0.7579 0.9832
3.5818 1.8755 -0.7374 0.9837
3.5227 1.8724 -0.7276 0.9839
3.4090 1.8665 -0.7089 0.9843
3.3544 1.8636 -0.6999 0.9845
3.2492 1.8581 -0.6827 0.9849
3.1984 1.8554 -0.6744 0.9851
3.1489 1.8528 -0.6664 0.9853
3.1006 1.8503 -0.6586 0.9854
2.9622 1.8430 -0.6363 0.9859
2.9181 1.8407 -0.6293 0.9861
2.8327 1.8363 -0.6157 0.9864
2.7914 1.8341 -0.6092 0.9865
2.7510 1.8320 -0.6028 0.9867
2.6726 1.8279 -0.5906 0.9869
2.5973 1.8239 -0.5789 0.9872
2.5249 1.8202 -0.5677 0.9874
2.4214 1.8148 -0.5519 0.9878
2.3882 1.8130 -0.5469 0.9879
2.3555 1.8113 -0.5420 0.9880
2.2914 1.8076 -0.5323 0.9882
2.2602 1.8057 -0.5276 0.9883
2.2298 1.8041 -0.5231 0.9884
2.1417 1.7996 -0.5102 0.9887
2.1132 1.7981 -0.5061 0.9888
2.0853 1.7966 -0.5020 0.9889
2.0307 1.7938 -0.4942 0.9890
2.0040 1.7924 -0.4904 0.9891
1.9518 1.7897 -0.4830 0.9893
1.9263 1.7884 -0.4794 0.9894
1.8280 1.7833 -0.4658 0.9897
1.8043 1.7821 -0.4625 0.9897
1.7809 1.7809 -0.4594 0.9898
1.6686 1.7751 -0.4443 0.9901
1.6470 1.7740 -0.4415 0.9902
1.6046 1.7718 -0.4360 0.9903
1.5633 1.7697 -0.4307 0.9904
1.5430 1.7687 -0.4281 0.9905
1.4642 1.7646 -0.4182 0.9907
1.4451 1.7636 -0.4159 0.9908
1.4074 1.7617 -0.4113 0.9909
1.3889 1.7607 -0.4090 0.9909
1.3525 1.7588 -0.4047 0.9910
1.3168 1.7570 -0.4005 0.9911
1.2819 1.7552 -0.3964 0.9912
1.2647 1.7543 -0.3944 0.9912
1.2476 1.7534 -0.3925 0.9913
1.1975 1.7508 -0.3869 0.9914
1.1811 1.7500 -0.3851 0.9915
1.1488 1.7483 -0.3816 0.9915
1.1328 1.7475 -0.3798 0.9916
1.1170 1.7467 -0.3782 0.9916
1.0101 1.7412 -0.3671 0.9918
0.9807 1.7397 -0.3642 0.9919
0.9517 1.7382 -0.3614 0.9920
0.9374 1.7375 -0.3601 0.9920
0.9231 1.7368 -0.3587 0.9920
0.9090 1.7360 -0.3574 0.9921
0.8950 1.7353 -0.3561 0.9921
0.8673 1.7339 -0.3536 0.9921
0.8130 1.7311 -0.3488 0.9923
0.7997 1.7304 -0.3477 0.9923
0.7602 1.7284 -0.3444 0.9924
0.7342 1.7271 -0.3423 0.9924
0.7214 1.7264 -0.3413 0.9924
0.7086 1.7258 -0.3403 0.9924
0.6959 1.7251 -0.3393 0.9925
0.6582 1.7232 -0.3364 0.9925
0.6458 1.7226 -0.3355 0.9925
0.6334 1.7219 -0.3346 0.9926
0.6211 1.7213 -0.3338 0.9926
0.6089 1.7207 -0.3329 0.9926
0.5968 1.7201 -0.3321 0.9926
0.5847 1.7194 -0.3312 0.9926
0.5487 1.7176 -0.3289 0.9927
0.5250 1.7164 -0.3274 0.9927
0.5133 1.7158 -0.3267 0.9927
0.4783 1.7142 -0.3246 0.9928
0.4667 1.7136 -0.3239 0.9928
0.4552 1.7130 -0.3233 0.9928
0.4438 1.7125 -0.3227 0.9928
0.4323 1.7120 -0.3220 0.9928
0.4210 1.7114 -0.3214 0.9929
0.4096 1.7109 -0.3209 0.9929
0.3871 1.7098 -0.3197 0.9929
0.3424 1.7076 -0.3177 0.9929
0.3203 1.7065 -0.3167 0.9930
0.3093 1.7060 -0.3162 0.9930
0.2764 1.7044 -0.3149 0.9930
0.2330 1.7023 -0.3134 0.9930
0.2223 1.7018 -0.3130 0.9930
0.2115 1.7012 -0.3127 0.9931
0.1794 1.6997 -0.3117 0.9931
0.1687 1.6991 -0.3114 0.9931
0.1580 1.6986 -0.3111 0.9931
0.1474 1.6981 -0.3109 0.9931
0.1368 1.6976 -0.3106 0.9931
0.1262 1.6970 -0.3104 0.9931
0.1156 1.6965 -0.3101 0.9931
0.0945 1.6955 -0.3097 0.9931
0.0734 1.6944 -0.3093 0.9931
0.0629 1.6939 -0.3092 0.9931
0.0419 1.6928 -0.3089 0.9931
0.0314 1.6923 -0.3087 0.9931
0.0209 1.6918 -0.3086 0.9931
0.0105 1.6913 -0.3085 0.9931
-0.0105 1.6902 -0.3083 0.9932
-0.0209 1.6897 -0.3082 0.9932
-0.0313 1.6892 -0.3081 0.9932
-0.0418 1.6887 -0.3081 0.9932
-0.0522 1.6881 -0.3080 0.9932
-0.0627 1.6876 -0.3080 0.9932
-0.0939 1.6860 -0.3080 0.9932
-0.1044 1.6855 -0.3080 0.9932
-0.1148 1.6850 -0.3080 0.9932
-0.1357 1.6839 -0.3081 0.9932
-0.1461 1.6834 -0.3082 0.9932
-0.1566 1.6829 -0.3083 0.9932
-0.1879 1.6812 -0.3086 0.9931
-0.2089 1.6802 -0.3088 0.9931
-0.2194 1.6797 -0.3090 0.9931
-0.2299 1.6791 -0.3091 0.9931
-0.2509 1.6780 -0.3095 0.9931
-0.2931 1.6759 -0.3103 0.9931
-0.3037 1.6753 -0.3105 0.9931
-0.3143 1.6748 -0.3108 0.9931
-0.3356 1.6737 -0.3113 0.9931
-0.3570 1.6726 -0.3119 0.9931
-0.3677 1.6720 -0.3122 0.9931
-2.3899 9.2228 -1.7377 0.9620
-2.4491 9.2161 -1.7393 0.9620
-2.9347 10.0365 -1.9072 0.9584
-3.0583 9.9984 -1.9070 0.9584
-3.1814 9.9587 -1.9068 0.9584
-3.3840 9.9521 -1.9172 0.9582
-3.4521 9.9499 -1.9209 0.9581
-3.5203 9.9476 -1.9246 0.9580
-3.5889 9.9454 -1.9284 0.9579
-3.6578 9.9432 -1.9323 0.9578
-3.7269 9.9409 -1.9363 0.9578
-3.7963 9.9387 -1.9404 0.9577
-3.9091 9.3555 -1.8493 0.9596
-4.0963 9.1596 -1.8301 0.9600
-4.2991 9.1536 -1.8445 0.9597
-4.8746 9.8975 -2.0123 0.9561
-4.9493 9.8945 -2.0178 0.9560
-5.0245 9.8914 -2.0235 0.9559
-5.1001 9.8883 -2.0293 0.9558
-5.1762 9.8852 -2.0352 0.9556
-5.3892 9.8432 -2.0468 0.9554
-5.5693 9.7388 -2.0462 0.9554
-5.6289 9.7032 -2.0460 0.9554
-5.6456 9.5949 -2.0305 0.9557
-5.6340 9.3097 -1.9847 0.9567
-5.6672 9.1084 -1.9566 0.9573
-6.8803 10.6138 -2.3070 0.9499
-6.9451 10.5700 -2.3068 0.9499
-7.0096 10.5258 -2.3065 0.9499
-7.3905 10.2520 -2.3051 0.9499
-7.4530 10.2049 -2.3048 0.9499
-7.7607 9.9641 -2.3035 0.9499
-7.8212 9.9148 -2.3033 0.9499
-8.0010 9.7646 -2.3025 0.9500
-8.1779 9.6111 -2.3017 0.9500
-8.2362 9.5592 -2.3014 0.9500
-8.2941 9.5069 -2.3011 0.9500
-8.3518 9.4543 -2.3008 0.9500
-8.4090 9.4013 -2.3005 0.9500
-8.4660 9.3480 -2.3003 0.9500
-8.5226 9.2943 -2.3000 0.9500
-8.6902 9.1311 -2.2991 0.9500
-8.9626 8.8524 -2.2976 0.9501
-9.0159 8.7956 -2.2973 0.9501
-9.0690 8.7385 -2.2970 0.9501
-9.2773 8.5069 -2.2958 0.9501
-9.3792 8.3892 -2.2951 0.9501
-9.5293 8.2104 -2.2942 0.9501
-9.6758 8.0287 -2.2932 0.9502
-9.7239 7.9676 -2.2929 0.9502
-9.8189 7.8445 -2.2922 0.9502
-9.9584 7.6576 -2.2912 0.9502
-10.0041 7.5947 -2.2909 0.9502
-10.0942 7.4682 -2.2902 0.9502
-10.1387 7.4046 -2.2898 0.9502
-10.2697 7.2119 -2.2888 0.9503
-10.3969 7.0170 -2.2878 0.9503
-10.7374 7.0550 -2.3433 0.9491
-11.2336 7.2820 -2.4417 0.9470
-11.4031 6.9975 -2.4402 0.9471
-11.4852 6.8538 -2.4394 0.9471
-11.5255 6.7815 -2.4390 0.9471
-11.6048 6.6363 -2.4382 0.9471
-11.6437 6.5634 -2.4378 0.9471
-11.7202 6.4168 -2.4370 0.9471
-11.7948 6.2693 -2.4363 0.9471
-11.9032 6.0464 -2.4350 0.9472
-12.0411 5.7463 -2.4334 0.9472
-12.0743 5.6707 -2.4330 0.9472
-12.1071 5.5951 -2.4326 0.9472
-12.1395 5.5191 -2.4322 0.9472
-12.1713 5.4430 -2.4318 0.9472
-12.2027 5.3668 -2.4314 0.9472
-12.3232 5.0598 -2.4297 0.9473
-12.3522 4.9827 -2.4293 0.9473
-12.4086 4.8279 -2.4284 0.9473
-12.4360 4.7502 -2.4280 0.9473
-12.4630 4.6724 -2.4276 0.9473
-12.5410 4.4380 -2.4263 0.9473
-12.5659 4.3597 -2.4259 0.9474
-12.6145 4.2024 -2.4251 0.9474
-12.6380 4.1236 -2.4246 0.9474
-12.6610 4.0446 -2.4242 0.9474
-12.6835 3.9656 -2.4238 0.9474
-12.7056 3.8863 -2.4233 0.9474
-12.7271 3.8071 -2.4229 0.9474
-12.7887 3.5684 -2.4216 0.9474
-12.8638 3.2486 -2.4199 0.9475
-12.8813 3.1684 -2.4194 0.9475
-12.8983 3.0881 -2.4190 0.9475
-12.9148 3.0078 -2.4186 0.9475
-12.9464 2.8468 -2.4177 0.9475
-12.9613 2.7662 -2.4172 0.9475
-12.9759 2.6854 -2.4168 0.9475
-12.9899 2.6047 -2.4164 0.9476
-13.0523 2.1998 -2.4142 0.9476
-13.0836 1.9562 -2.4128 0.9476
-13.1183 1.6309 -2.4111 0.9477
-13.1258 1.5494 -2.4106 0.9477
-13.1327 1.4679 -2.4102 0.9477
-13.1503 1.2234 -2.4088 0.9477
-13.1552 1.1418 -2.4084 0.9477
-13.1596 1.0602 -2.4079 0.9477
-13.1669 0.8971 -2.4071 0.9478
-13.1697 0.8155 -2.4066 0.9478
-13.1720 0.7339 -2.4062 0.9478
-13.1739 0.6523 -2.4057 0.9478
-13.1752 0.5707 -2.4053 0.9478
-13.1764 0.4076 -2.4044 0.9478
-13.1755 0.2444 -2.4035 0.9478
-13.1744 0.1629 -2.4030 0.9478
-12.6323 -0.1563 -2.4012 0.9499
-12.6249 -0.3124 -2.4004 0.9499
-12.6205 -0.3904 -2.3999 0.9499
-12.5912 -0.7797 -2.3978 0.9499
-12.5679 -1.0126 -2.3965 0.9500
-12.5592 -1.0902 -2.3961 0.9500
-12.5403 -1.2449 -2.3953 0.9500
-12.5084 -1.4766 -2.3940 0.9500
-12.4319 -1.9375 -2.3915 0.9501
-12.4175 -2.0140 -2.3910 0.9501
-12.3715 -2.2429 -2.3898 0.9501
-12.3552 -2.3189 -2.3894 0.9501
-12.2284 -2.8480 -2.3865 0.9502
-12.2084 -2.9230 -2.3860 0.9502
-12.1880 -2.9980 -2.3856 0.9502
-12.1240 -3.2219 -2.3844 0.9502
-12.0791 -3.3704 -2.3836 0.9502
-12.0324 -3.5184 -2.3828 0.9502
-12.0083 -3.5921 -2.3824 0.9502
-11.9838 -3.6657 -2.3820 0.9503
-11.9589 -3.7391 -2.3816 0.9503
-11.9335 -3.8123 -2.3811 0.9503
-11.9077 -3.8854 -2.3807 0.9503
-11.8814 -3.9583 -2.3803 0.9503
-11.8000 -4.1759 -2.3791 0.9503
-11.7720 -4.2481 -2.3787 0.9503
-11.7435 -4.3201 -2.3783 0.9503
-11.7147 -4.3919 -2.3780 0.9503
-11.6853 -4.4635 -2.3776 0.9503
-11.5948 -4.6772 -2.3764 0.9504
-11.5637 -4.7480 -2.3760 0.9504
-11.4680 -4.9594 -2.3748 0.9504
-11.4352 -5.0293 -2.3744 0.9504
-11.3345 -5.2381 -2.3733 0.9504
-11.2299 -5.4448 -2.3721 0.9505
-11.1942 -5.5133 -2.3718 0.9505
-11.0474 -5.7847 -2.3702 0.9505
-10.9716 -5.9191 -2.3695 0.9505
-10.8548 -6.1188 -2.3684 0.9505
-10.8151 -6.1848 -2.3680 0.9505
-10.7345 -6.3162 -2.3673 0.9506
-10.6936 -6.3814 -2.3669 0.9506
-10.6523 -6.4465 -2.3666 0.9506
-10.6106 -6.5113 -2.3662 0.9506
-10.5685 -6.5757 -2.3659 0.9506
-10.4832 -6.7039 -2.3652 0.9506
-10.4400 -6.7676 -2.3648 0.9506
-10.3964 -6.8311 -2.3644 0.9506
-10.3081 -6.9571 -2.3637 0.9506
-10.2633 -7.0197 -2.3634 0.9506
-10.1269 -7.2057 -2.3624 0.9507
-9.9872 -7.3891 -2.3613 0.9507
-9.9399 -7.4497 -2.3610 0.9507
-9.8922 -7.5099 -2.3607 0.9507
-9.7958 -7.6295 -2.3600 0.9507
-9.7471 -7.6889 -2.3597 0.9507
-9.6486 -7.8067 -2.3590 0.9507
-9.5988 -7.8652 -2.3587 0.9507
-9.2928 -8.2091 -2.3568 0.9508
-9.2406 -8.2653 -2.3565 0.9508
-9.1881 -8.3212 -2.3561 0.9508
-9.1353 -8.3768 -2.3558 0.9508
-9.0286 -8.4869 -2.3552 0.9508
-8.9748 -8.5415 -2.3549 0.9508
-8.9207 -8.5957 -2.3546 0.9508
-8.8662 -8.6496 -2.3543 0.9508
-8.7563 -8.7563 -2.3537 0.9508
-8.7009 -8.8092 -2.3534 0.9508
-8.6452 -8.8618 -2.3531 0.9508
-8.4761 -9.0173 -2.3522 0.9509
-8.1300 -9.3188 -2.3506 0.9509
-8.0712 -9.3678 -2.3503 0.9509
-7.8933 -9.5126 -2.3495 0.9509
-7.6521 -9.7006 -2.3484 0.9509
-7.5912 -9.7466 -2.3481 0.9509
-7.4684 -9.8376 -2.3476 0.9510
-7.4066 -9.8826 -2.3474 0.9510
-7.3446 -9.9271 -2.3471 0.9510
-7.2823 -9.9713 -2.3469 0.9510
-7.2197 -10.0151 -2.3466 0.9510
-7.1569 -10.0585 -2.3464 0.9510
-7.0938 -10.1015 -2.3461 0.9510
-7.0305 -10.1441 -2.3459 0.9510
-6.9669 -10.1863 -2.3457 0.9510
-6.9031 -10.2283 -2.3454 0.9510
-6.7747 -10.3107 -2.3450 0.9510
-6.6454 -10.3918 -2.3445 0.9510
-6.5803 -10.4316 -2.3443 0.9510
-6.5151 -10.4711 -2.3440 0.9510
-6.3839 -10.5489 -2.3436 0.9510
-6.3179 -10.5872 -2.3434 0.9510
-6.1854 -10.6626 -2.3430 0.9510
-6.1188 -10.6996 -2.3427 0.9511
-5.9176 -10.8085 -2.3421 0.9511
-5.8502 -10.8439 -2.3419 0.9511
-5.7825 -10.8790 -2.3417 0.9511
-5.6466 -10.9478 -2.3413 0.9511
-5.5783 -10.9816 -2.3411 0.9511
-5.2340 -11.1444 -2.3402 0.9511
-5.1646 -11.1756 -2.3400 0.9511
-5.0950 -11.2065 -2.3398 0.9511
-4.8852 -11.2966 -2.3393 0.9511
-4.8148 -11.3258 -2.3392 0.9511
-4.7444 -11.3546 -2.3390 0.9511
-4.6737 -11.3829 -2.3388 0.9511
-4.6029 -11.4108 -2.3387 0.9511
-4.5320 -11.4382 -2.3385 0.9511
-4.4609 -11.4653 -2.3383 0.9511
-4.2466 -11.5438 -2.3379 0.9512
-4.1748 -11.5691 -2.3377 0.9512
-4.1029 -11.5940 -2.3376 0.9512
-3.9588 -11.6424 -2.3373 0.9512
-3.6687 -11.7341 -2.3368 0.9512
-3.5959 -11.7559 -2.3366 0.9512
-3.5229 -11.7773 -2.3365 0.9512
-3.4499 -11.7982 -2.3364 0.9512
-3.3767 -11.8187 -2.3363 0.9512
-3.0089 -11.9145 -2.3357 0.9512
-2.9350 -11.9324 -2.3356 0.9512
-2.8611 -11.9498 -2.3355 0.9512
-2.7128 -11.9832 -2.3353 0.9512
-2.6386 -11.9993 -2.3352 0.9512
-2.5642 -12.0148 -2.3351 0.9512
-2.4152 -12.0447 -2.3349 0.9512
-2.2659 -12.0728 -2.3347 0.9512
-2.0413 -12.1114 -2.3345 0.9512
-1.7409 -12.1568 -2.3342 0.9512
-1.6656 -12.1670 -2.3342 0.9512
-1.5903 -12.1767 -2.3341 0.9512
-1.5150 -12.1860 -2.3340 0.9512
-1.4395 -12.1948 -2.3340 0.9512
-1.3641 -12.2032 -2.3339 0.9512
-1.0617 -12.2322 -2.3337 0.9512
-0.9103 -12.2439 -2.3336 0.9512
-0.8346 -12.2491 -2.3336 0.9512
-0.7588 -12.2539 -2.3336 0.9512
-0.6830 -12.2581 -2.3335 0.9512
-0.6071 -12.2620 -2.3335 0.9512
-0.0759 -12.2760 -2.3334 0.9512
0.1518 -12.2752 -2.3333 0.9512
1.1372 -12.2241 -2.3335 0.9512
1.2883 -12.2094 -2.3335 0.9512
1.5900 -12.1746 -2.3337 0.9512
1.6653 -12.1648 -2.3337 0.9512
1.7406 -12.1545 -2.3338 0.9512
1.8157 -12.1438 -2.3338 0.9512
1.8908 -12.1326 -2.3339 0.9512
1.9659 -12.1209 -2.3339 0.9512
2.1157 -12.0963 -2.3341 0.9512
2.4146 -12.0416 -2.3343 0.9512
2.7861 -11.9631 -2.3347 0.9512
2.8602 -11.9461 -2.3348 0.9512
2.9341 -11.9286 -2.3349 0.9512
3.0817 -11.8924 -2.3350 0.9512
3.1553 -11.8735 -2.3351 0.9512
3.4486 -11.7939 -2.3355 0.9512
3.5216 -11.7728 -2.3356 0.9512
3.5945 -11.7514 -2.3357 0.9512
3.6673 -11.7295 -2.3359 0.9512
3.7399 -11.7072 -2.3360 0.9512
3.8848 -11.6612 -2.3362 0.9512
3.9571 -11.6375 -2.3363 0.9512
4.1730 -11.5639 -2.3367 0.9512
4.2446 -11.5386 -2.3368 0.9512
4.3161 -11.5127 -2.3370 0.9512
4.3875 -11.4865 -2.3371 0.9512
4.5298 -11.4327 -2.3374 0.9512
4.6007 -11.4051 -2.3375 0.9512
4.7420 -11.3488 -2.3378 0.9512
4.8124 -11.3200 -2.3379 0.9512
4.8826 -11.2907 -2.3381 0.9511
4.9526 -11.2610 -2.3383 0.9511
5.0922 -11.2004 -2.3386 0.9511
5.1617 -11.1695 -2.3387 0.9511
5.2311 -11.1381 -2.3389 0.9511
5.3692 -11.0742 -2.3392 0.9511
5.4380 -11.0415 -2.3394 0.9511
5.5066 -11.0085 -2.3396 0.9511
5.7789 -10.8722 -2.3403 0.9511
5.8465 -10.8371 -2.3405 0.9511
5.9139 -10.8016 -2.3406 0.9511
5.9810 -10.7657 -2.3408 0.9511
6.2476 -10.6180 -2.3416 0.9511
6.3136 -10.5800 -2.3418 0.9511
6.3795 -10.5417 -2.3420 0.9511
6.4451 -10.5030 -2.3422 0.9511
6.5757 -10.4243 -2.3426 0.9511
6.6406 -10.3844 -2.3428 0.9511
6.7053 -10.3440 -2.3430 0.9510
7.1514 -10.0508 -2.3446 0.9510
7.4624 -9.8298 -2.3458 0.9510
7.7668 -9.5993 -2.3470 0.9510
7.8269 -9.5522 -2.3472 0.9510
8.0053 -9.4084 -2.3480 0.9509
8.0642 -9.3597 -2.3483 0.9509
8.2970 -9.1615 -2.3493 0.9509
8.3545 -9.1110 -2.3496 0.9509
8.5250 -8.9576 -2.3504 0.9509
8.5813 -8.9058 -2.3507 0.9509
8.6928 -8.8010 -2.3512 0.9509
8.7481 -8.7482 -2.3515 0.9509
8.8031 -8.6949 -2.3518 0.9509
8.9122 -8.5875 -2.3524 0.9509
8.9662 -8.5333 -2.3527 0.9509
9.0199 -8.4787 -2.3529 0.9508
9.0733 -8.4238 -2.3532 0.9508
9.1264 -8.3686 -2.3535 0.9508
9.1791 -8.3131 -2.3538 0.9508
9.2315 -8.2571 -2.3541 0.9508
9.2836 -8.2010 -2.3544 0.9508
9.4885 -7.9730 -2.3556 0.9508
9.5389 -7.9152 -2.3560 0.9508
9.5889 -7.8571 -2.3563 0.9508
9.6386 -7.7986 -2.3566 0.9508
9.6879 -7.7400 -2.3569 0.9508
9.7856 -7.6216 -2.3575 0.9508
9.8338 -7.5619 -2.3579 0.9507
9.8818 -7.5020 -2.3582 0.9507
9.9293 -7.4418 -2.3585 0.9507
9.9765 -7.3812 -2.3588 0.9507
10.0699 -7.2593 -2.3595 0.9507
10.1160 -7.1979 -2.3598 0.9507
10.3410 -6.8866 -2.3615 0.9507
10.4284 -6.7601 -2.3622 0.9507
10.5142 -6.6325 -2.3628 0.9506
10.5986 -6.5039 -2.3635 0.9506
10.6402 -6.4392 -2.3639 0.9506
10.6814 -6.3742 -2.3642 0.9506
10.7222 -6.3089 -2.3646 0.9506
10.7626 -6.2434 -2.3649 0.9506
10.8026 -6.1777 -2.3653 0.9506
10.9587 -5.9121 -2.3667 0.9506
10.9968 -5.8452 -2.3671 0.9506
11.1448 -5.5748 -2.3685 0.9505
11.2164 -5.4382 -2.3693 0.9505
11.2516 -5.3696 -2.3697 0.9505
11.3207 -5.2317 -2.3704 0.9505
11.3882 -5.0929 -2.3712 0.9505
11.4212 -5.0231 -2.3715 0.9505
11.4539 -4.9532 -2.3719 0.9505
11.5496 -4.7422 -2.3730 0.9504
11.5804 -4.6714 -2.3734 0.9504
11.6109 -4.6004 -2.3738 0.9504
11.7000 -4.3864 -2.3750 0.9504
11.7288 -4.3146 -2.3754 0.9504
11.7572 -4.2427 -2.3758 0.9504
11.8664 -3.9533 -2.3773 0.9503
11.9685 -3.6610 -2.3789 0.9503
11.9929 -3.5875 -2.3793 0.9503
12.0861 -3.2920 -2.3809 0.9503
12.1083 -3.2177 -2.3813 0.9503
12.1513 -3.0687 -2.3821 0.9503
12.1925 -2.9192 -2.3829 0.9502
12.2124 -2.8442 -2.3833 0.9502
12.2318 -2.7691 -2.3837 0.9502
12.2508 -2.6939 -2.3842 0.9502
12.2693 -2.6186 -2.3846 0.9502
12.2874 -2.5430 -2.3850 0.9502
12.3222 -2.3917 -2.3858 0.9502
12.3389 -2.3159 -2.3862 0.9502
12.3862 -2.0877 -2.3875 0.9501
12.4153 -1.9349 -2.3883 0.9501
12.4292 -1.8585 -2.3887 0.9501
12.4427 -1.7819 -2.3891 0.9501
12.4681 -1.6284 -2.3900 0.9501
12.5028 -1.3976 -2.3912 0.9501
12.5510 -1.0112 -2.3933 0.9500
12.5811 -0.7010 -2.3950 0.9500
12.5933 -0.5455 -2.3959 0.9500
12.5986 -0.4677 -2.3963 0.9500
12.6035 -0.3899 -2.3967 0.9500
12.6079 -0.3120 -2.3971 0.9499
12.6153 -0.1561 -2.3980 0.9499
12.6183 -0.0781 -2.3984 0.9499
12.6207 -0.0000 -2.3988 0.9499
12.6227 0.0781 -2.3993 0.9499
12.6243 0.1561 -2.3997 0.9499
12.6259 0.3124 -2.4005 0.9499
12.6259 0.3905 -2.4010 0.9499
12.6255 0.4687 -2.4014 0.9499
12.6246 0.5468 -2.4018 0.9499
12.6214 0.7032 -2.4027 0.9498
12.6190 0.7813 -2.4031 0.9498
12.6162 0.8596 -2.4035 0.9498
12.6129 0.9377 -2.4040 0.9498
12.6048 1.0940 -2.4048 0.9498
12.6001 1.1721 -2.4053 0.9498
12.5613 1.6405 -2.4078 0.9497
12.5445 1.7964 -2.4087 0.9497
12.5257 1.9521 -2.4095 0.9497
12.5156 2.0299 -2.4100 0.9497
12.5051 2.1076 -2.4104 0.9497
12.4579 2.4180 -2.4121 0.9496
12.4314 2.5728 -2.4129 0.9496
12.4175 2.6501 -2.4134 0.9496
12.3881 2.8045 -2.4142 0.9496
12.3727 2.8815 -2.4146 0.9496
9.0906 2.1765 -1.7767 0.9627
7.8427 2.1361 -1.5450 0.9674
7.6119 2.1239 -1.5021 0.9683
7.0670 2.0664 -1.3995 0.9705
6.8703 2.0551 -1.3630 0.9712
6.6835 2.0443 -1.3284 0.9719
6.5059 2.0341 -1.2956 0.9726
6.1758 2.0151 -1.2348 0.9739
6.0218 2.0061 -1.2064 0.9745
5.8746 1.9975 -1.1794 0.9751
5.7329 1.9890 -1.1534 0.9756
5.3476 1.9672 -1.0830 0.9771
5.2294 1.9605 -1.0615 0.9775
5.1158 1.9541 -1.0409 0.9779
5.0065 1.9479 -1.0211 0.9784
4.8021 1.9371 -0.9842 0.9791
4.7066 1.9325 -0.9671 0.9795
4.2742 1.9114 -0.8899 0.9811
4.1957 1.9076 -0.8760 0.9814
4.0458 1.9001 -0.8496 0.9820
3.9741 1.8966 -0.8370 0.9822
3.9041 1.8929 -0.8247 0.9825
3.7700 1.8858 -0.8012 0.9830
3.6433 1.8791 -0.7792 0.9834
3.5234 1.8728 -0.7584 0.9839
3.0540 1.8482 -0.6785 0.9856
2.9627 1.8434 -0.6632 0.9859
2.9186 1.8411 -0.6559 0.9860
2.8754 1.8388 -0.6487 0.9862
2.8332 1.8366 -0.6418 0.9863
2.7919 1.8344 -0.6350 0.9865
2.7515 1.8323 -0.6283 0.9866
2.6730 1.8282 -0.6155 0.9869
2.6350 1.8262 -0.6094 0.9870
2.5253 1.8205 -0.5917 0.9874
2.4902 1.8186 -0.5861 0.9875
2.4556 1.8168 -0.5806 0.9876
2.4218 1.8150 -0.5752 0.9878
2.2918 1.8078 -0.5548 0.9882
2.2605 1.8060 -0.5499 0.9883
2.2002 1.8028 -0.5406 0.9885
2.1708 1.8013 -0.5362 0.9886
2.1419 1.7998 -0.5318 0.9887
2.1135 1.7983 -0.5275 0.9888
2.0855 1.7969 -0.5232 0.9889
2.0042 1.7926 -0.5111 0.9891
1.9779 1.7913 -0.5072 0.9892
1.9014 1.7873 -0.4960 0.9894
1.8767 1.7860 -0.4924 0.9895
1.8282 1.7835 -0.4855 0.9897
1.8045 1.7823 -0.4821 0.9897
1.7128 1.7776 -0.4692 0.9900
1.6048 1.7720 -0.4544 0.9903
1.5635 1.7699 -0.4489 0.9904
1.5231 1.7678 -0.4435 0.9905
1.5033 1.7668 -0.4409 0.9906
1.4837 1.7657 -0.4384 0.9907
1.4263 1.7628 -0.4310 0.9908
1.3707 1.7599 -0.4240 0.9910
1.3169 1.7571 -0.4174 0.9911
1.2994 1.7562 -0.4152 0.9911
1.2820 1.7554 -0.4131 0.9912
1.2648 1.7545 -0.4111 0.9912
1.1976 1.7510 -0.4032 0.9914
1.1489 1.7485 -0.3977 0.9915
1.1171 1.7469 -0.3941 0.9916
1.1014 1.7461 -0.3924 0.9916
1.0705 1.7445 -0.3890 0.9917
1.0102 1.7414 -0.3826 0.9918
0.9807 1.7398 -0.3796 0.9919
0.9518 1.7383 -0.3767 0.9920
0.9232 1.7369 -0.3739 0.9920
0.9091 1.7362 -0.3725 0.9921
0.8674 1.7340 -0.3685 0.9921
0.8537 1.7333 -0.3672 0.9922
0.7997 1.7305 -0.3624 0.9923
0.7865 1.7299 -0.3612 0.9923
0.7733 1.7292 -0.3600 0.9923
0.7343 1.7272 -0.3567 0.9924
0.6959 1.7252 -0.3536 0.9925
0.6458 1.7227 -0.3497 0.9925
0.5727 1.7189 -0.3444 0.9927
0.5607 1.7183 -0.3436 0.9927
0.5133 1.7159 -0.3404 0.9927
0.5016 1.7153 -0.3397 0.9927
0.4667 1.7135 -0.3376 0.9928
0.4552 1.7129 -0.3369 0.9928
0.4209 1.7112 -0.3349 0.9929
0.3983 1.7100 -0.3337 0.9929
0.3758 1.7089 -0.3326 0.9929
0.3646 1.7083 -0.3320 0.9929
0.3423 1.7072 -0.3309 0.9929
0.3202 1.7061 -0.3299 0.9930
0.2982 1.7049 -0.3290 0.9930
0.2763 1.7038 -0.3281 0.9930
0.2438 1.7022 -0.3268 0.9930
0.2222 1.7012 -0.3261 0.9930
0.2007 1.7001 -0.3254 0.9931
0.1900 1.6996 -0.3251 0.9931
0.1793 1.6991 -0.3247 0.9931
0.1473 1.6975 -0.3239 0.9931
0.0944 1.6949 -0.3226 0.9931
0.0734 1.6938 -0.3223 0.9931
0.0524 1.6928 -0.3219 0.9931
0.0105 1.6907 -0.3214 0.9931
0.0000 1.6902 -0.3213 0.9931
-0.0104 1.6896 -0.3212 0.9931
-0.0209 1.6891 -0.3211 0.9931
-0.0313 1.6886 -0.3210 0.9931
-0.0418 1.6881 -0.3210 0.9931
-0.0522 1.6875 -0.3209 0.9931
-0.0731 1.6865 -0.3209 0.9932
-0.1148 1.6844 -0.3209 0.9931
-0.1252 1.6839 -0.3209 0.9931
-0.1670 1.6817 -0.3212 0.9931
-0.1774 1.6812 -0.3213 0.9931
-0.1879 1.6807 -0.3214 0.9931
-0.1983 1.6801 -0.3216 0.9931
-0.2088 1.6796 -0.3217 0.9931
-0.2193 1.6791 -0.3219 0.9931
-0.2508 1.6774 -0.3224 0.9931
-0.2613 1.6769 -0.3226 0.9931
-0.2719 1.6764 -0.3228 0.9931
-0.2930 1.6753 -0.3233 0.9931
-0.3142 1.6742 -0.3238 0.9931
-0.3355 1.6731 -0.3243 0.9931
-0.3568 1.6720 -0.3250 0.9931
-0.3783 1.6709 -0.3256 0.9930
-0.3890 1.6703 -0.3260 0.9930
-0.3998 1.6698 -0.3263 0.9930
-0.4106 1.6692 -0.3267 0.9930
-2.5105 9.2172 -1.8157 0.9619
-2.5714 9.2154 -1.8185 0.9618
-3.0474 9.9626 -1.9802 0.9585
-3.1142 9.9604 -1.9836 0.9584
-3.1813 9.9583 -1.9870 0.9583
-3.3839 9.9517 -1.9979 0.9581
-3.4519 9.9494 -2.0017 0.9580
-3.5888 9.9450 -2.0096 0.9579
-3.6576 9.9427 -2.0136 0.9578
-3.7267 9.9405 -2.0178 0.9577
-3.7961 9.9382 -2.0221 0.9576
-3.8658 9.9359 -2.0264 0.9575
-3.9314 9.9225 -2.0286 0.9575
-3.9240 9.7277 -1.9937 0.9582
-3.9024 9.1795 -1.8959 0.9602
-3.9646 9.1678 -1.8985 0.9601
-4.0976 9.1627 -1.9078 0.9600
-4.7115 9.7177 -2.0527 0.9570
-4.9317 9.7087 -2.0698 0.9566
-5.1556 9.6995 -2.0878 0.9563
-5.6158 9.6807 -2.1272 0.9555
-6.5952 10.1740 -2.3045 0.9518
-6.6573 10.1320 -2.3043 0.9518
-6.8421 10.0037 -2.3036 0.9519
-6.9031 9.9603 -2.3034 0.9519
-6.9639 9.9164 -2.3032 0.9519
-7.0244 9.8722 -2.3029 0.9519
-7.1445 9.7825 -2.3025 0.9519
-7.2634 9.6913 -2.3020 0.9519
-7.3224 9.6452 -2.3017 0.9519
-7.3811 9.5987 -2.3015 0.9519
-7.4396 9.5519 -2.3012 0.9519
-7.4977 9.5046 -2.3010 0.9519
-7.5554 9.4570 -2.3007 0.9519
-7.6129 9.4091 -2.3005 0.9519
-7.7270 9.3121 -2.3000 0.9519
-7.7836 9.2631 -2.2997 0.9519
-7.8398 9.2137 -2.2994 0.9519
-8.0616 9.0129 -2.2984 0.9520
-8.1162 8.9617 -2.2981 0.9520
-8.1705 8.9103 -2.2978 0.9520
-8.2244 8.8585 -2.2975 0.9520
-8.2781 8.8065 -2.2973 0.9520
-8.3313 8.7540 -2.2970 0.9520
-8.3843 8.7013 -2.2967 0.9520
-8.4892 8.5948 -2.2961 0.9520
-8.5927 8.4870 -2.2956 0.9520
-8.6439 8.4326 -2.2953 0.9520
-8.7955 8.2677 -2.2944 0.9520
-8.8453 8.2120 -2.2941 0.9520
-9.0409 7.9865 -2.2929 0.9521
-9.2307 7.7563 -2.2917 0.9521
-9.2772 7.6980 -2.2913 0.9521
-9.3234 7.6394 -2.2910 0.9521
-9.4596 7.4621 -2.2901 0.9521
-9.5042 7.4024 -2.2898 0.9521
-9.5485 7.3424 -2.2894 0.9521
-9.5923 7.2822 -2.2891 0.9521
-9.6358 7.2217 -2.2888 0.9522
-9.6789 7.1609 -2.2885 0.9522
-9.7216 7.0999 -2.2881 0.9522
-9.7639 7.0387 -2.2878 0.9522
-9.8059 6.9772 -2.2875 0.9522
-9.8474 6.9154 -2.2871 0.9522
-9.8885 6.8533 -2.2868 0.9522
-9.9293 6.7911 -2.2865 0.9522
-9.9696 6.7285 -2.2861 0.9522
-10.0095 6.6657 -2.2858 0.9522
-10.5152 6.9090 -2.3915 0.9501
-10.8544 6.8470 -2.4393 0.9491
-10.8949 6.7787 -2.4389 0.9491
-10.9350 6.7102 -2.4386 0.9491
-10.9746 6.6415 -2.4382 0.9491
-11.0138 6.5725 -2.4378 0.9491
-11.0525 6.5032 -2.4374 0.9491
-11.1287 6.3640 -2.4367 0.9491
-11.1661 6.2941 -2.4363 0.9491
-11.3113 6.0123 -2.4348 0.9492
-11.3464 5.9413 -2.4344 0.9492
-11.3812 5.8701 -2.4340 0.9492
-11.4493 5.7270 -2.4332 0.9492
-11.5155 5.5832 -2.4325 0.9492
-11.5480 5.5110 -2.4321 0.9492
-11.5800 5.4386 -2.4317 0.9492
-11.6115 5.3660 -2.4313 0.9493
-11.6426 5.2932 -2.4309 0.9493
-11.6732 5.2203 -2.4305 0.9493
-11.7911 4.9267 -2.4289 0.9493
-11.8472 4.7789 -2.4281 0.9493
-11.9014 4.6305 -2.4273 0.9493
-11.9538 4.4815 -2.4265 0.9493
-11.9793 4.4067 -2.4261 0.9494
-12.0289 4.2568 -2.4253 0.9494
-12.0529 4.1816 -2.4249 0.9494
-12.1223 3.9553 -2.4236 0.9494
-12.1661 3.8038 -2.4228 0.9494
-12.1874 3.7278 -2.4224 0.9494
-12.2081 3.6518 -2.4220 0.9494
-12.2674 3.4229 -2.4207 0.9495
-12.3046 3.2698 -2.4199 0.9495
-12.3225 3.1931 -2.4195 0.9495
-12.3398 3.1163 -2.4191 0.9495
-12.3567 3.0394 -2.4187 0.9495
-12.3731 2.9624 -2.4182 0.9495
-12.4480 2.5762 -2.4161 0.9496
-12.4615 2.4987 -2.4157 0.9496
-12.4745 2.4212 -2.4153 0.9496
-12.4992 2.2659 -2.4145 0.9496
-12.5107 2.1882 -2.4140 0.9496
-12.5218 2.1104 -2.4136 0.9496
-12.5426 1.9547 -2.4128 0.9496
-12.5859 1.5646 -2.4106 0.9497
-12.6061 1.3302 -2.4094 0.9497
-12.6118 1.2520 -2.4089 0.9497
-12.6219 1.0955 -2.4081 0.9497
-12.6261 1.0172 -2.4076 0.9497
-12.6361 0.7824 -2.4064 0.9498
-12.6403 0.6258 -2.4055 0.9498
-12.6417 0.5476 -2.4051 0.9498
-12.6430 0.3910 -2.4042 0.9498
-12.6429 0.3128 -2.4038 0.9498
-12.6398 0.0781 -2.4025 0.9498
-12.1452 -0.0000 -2.4020 0.9517
-12.1429 -0.0751 -2.4016 0.9517
-12.1401 -0.1502 -2.4012 0.9517
-12.1332 -0.3002 -2.4004 0.9517
-12.1290 -0.3752 -2.4000 0.9517
-12.1193 -0.5250 -2.3991 0.9517
-12.1138 -0.5998 -2.3987 0.9517
-12.0791 -0.9732 -2.3967 0.9518
-12.0620 -1.1222 -2.3959 0.9518
-12.0432 -1.2709 -2.3951 0.9518
-12.0224 -1.4192 -2.3942 0.9518
-11.9999 -1.5673 -2.3934 0.9519
-11.9879 -1.6412 -2.3930 0.9519
-11.9755 -1.7150 -2.3926 0.9519
-11.9627 -1.7887 -2.3922 0.9519
-11.9356 -1.9359 -2.3914 0.9519
-11.9214 -2.0093 -2.3910 0.9519
-11.8761 -2.2290 -2.3898 0.9519
-11.8601 -2.3020 -2.3894 0.9519
-11.8436 -2.3749 -2.3890 0.9519
-11.7916 -2.5929 -2.3878 0.9520
-11.7734 -2.6654 -2.3874 0.9520
-11.7547 -2.7376 -2.3870 0.9520
-11.7356 -2.8098 -2.3866 0.9520
-11.7160 -2.8819 -2.3862 0.9520
-11.6756 -3.0255 -2.3854 0.9520
-11.6548 -3.0972 -2.3850 0.9520
-11.6335 -3.1687 -2.3846 0.9520
-11.5896 -3.3112 -2.3838 0.9520
-11.5670 -3.3823 -2.3835 0.9520
-11.5205 -3.5240 -2.3827 0.9521
-11.4966 -3.5945 -2.3823 0.9521
-11.4723 -3.6650 -2.3819 0.9521
-11.3968 -3.8753 -2.3807 0.9521
-11.3707 -3.9451 -2.3803 0.9521
-11.3443 -4.0146 -2.3800 0.9521
-11.2625 -4.2224 -2.3788 0.9521
-11.2343 -4.2912 -2.3784 0.9521
-11.2058 -4.3599 -2.3781 0.9522
-11.1475 -4.4968 -2.3773 0.9522
-11.1177 -4.5649 -2.3769 0.9522
-11.0259 -4.7681 -2.3758 0.9522
-10.9626 -4.9026 -2.3751 0.9522
-10.7974 -5.2351 -2.3732 0.9522
-10.7286 -5.3666 -2.3725 0.9523
-10.6935 -5.4320 -2.3721 0.9523
-10.6581 -5.4972 -2.3718 0.9523
-10.5861 -5.6269 -2.3711 0.9523
-10.5126 -5.7556 -2.3703 0.9523
-10.4752 -5.8197 -2.3700 0.9523
-10.3219 -6.0735 -2.3686 0.9523
-10.2826 -6.1362 -2.3682 0.9523
-10.0392 -6.5078 -2.3662 0.9524
-9.9551 -6.6296 -2.3655 0.9524
-9.9125 -6.6901 -2.3652 0.9524
-9.8262 -6.8102 -2.3645 0.9524
-9.7825 -6.8699 -2.3642 0.9524
-9.7385 -6.9293 -2.3638 0.9524
-9.6494 -7.0472 -2.3632 0.9524
-9.6043 -7.1058 -2.3628 0.9525
-9.2790 -7.5077 -2.3606 0.9525
-9.2311 -7.5639 -2.3603 0.9525
-9.1830 -7.6198 -2.3600 0.9525
-9.1345 -7.6754 -2.3597 0.9525
-8.8870 -7.9490 -2.3581 0.9525
-8.7347 -8.1094 -2.3572 0.9526
-8.6316 -8.2148 -2.3567 0.9526
-8.4216 -8.4217 -2.3555 0.9526
-8.3684 -8.4726 -2.3552 0.9526
-8.3148 -8.5231 -2.3549 0.9526
-8.2610 -8.5734 -2.3546 0.9526
-8.1524 -8.6728 -2.3541 0.9526
-8.0976 -8.7221 -2.3538 0.9526
-8.0426 -8.7710 -2.3535 0.9526
-7.8758 -8.9156 -2.3527 0.9527
-7.7631 -9.0102 -2.3522 0.9527
-7.7064 -9.0571 -2.3519 0.9527
-7.5346 -9.1954 -2.3512 0.9527
-7.4767 -9.2409 -2.3509 0.9527
-7.4186 -9.2859 -2.3506 0.9527
-7.3017 -9.3750 -2.3501 0.9527
-7.2428 -9.4189 -2.3499 0.9527
-7.0646 -9.5487 -2.3492 0.9527
-6.8235 -9.7166 -2.3482 0.9527
-6.7626 -9.7577 -2.3480 0.9527
-6.7015 -9.7983 -2.3477 0.9527
-6.5785 -9.8785 -2.3473 0.9528
-6.3923 -9.9960 -2.3466 0.9528
-6.3298 -10.0344 -2.3464 0.9528
-6.2041 -10.1101 -2.3460 0.9528
-6.0775 -10.1842 -2.3456 0.9528
-5.8217 -10.3278 -2.3447 0.9528
-5.6925 -10.3973 -2.3443 0.9528
-5.5626 -10.4652 -2.3440 0.9528
-5.3662 -10.5640 -2.3434 0.9528
-5.3003 -10.5962 -2.3432 0.9528
-5.2343 -10.6279 -2.3430 0.9528
-5.1681 -10.6593 -2.3428 0.9528
-5.1017 -10.6902 -2.3427 0.9528
-4.9014 -10.7806 -2.3421 0.9529
-4.8343 -10.8099 -2.3420 0.9529
-4.6995 -10.8674 -2.3416 0.9529
-4.4962 -10.9504 -2.3412 0.9529
-4.2914 -11.0298 -2.3407 0.9529
-4.2229 -11.0554 -2.3406 0.9529
-4.1542 -11.0806 -2.3404 0.9529
-4.0163 -11.1298 -2.3401 0.9529
-3.6692 -11.2454 -2.3394 0.9529
-3.5295 -11.2887 -2.3392 0.9529
-3.3892 -11.3303 -2.3389 0.9529
-3.3189 -11.3504 -2.3388 0.9529
-3.2485 -11.3702 -2.3387 0.9529
-3.1780 -11.3895 -2.3386 0.9529
-3.0366 -11.4268 -2.3384 0.9529
-2.8948 -11.4625 -2.3382 0.9529
-2.7525 -11.4964 -2.3380 0.9529
-2.6813 -11.5128 -2.3379 0.9529
-2.4669 -11.5591 -2.3376 0.9529
-2.2518 -11.6016 -2.3373 0.9530
-2.1080 -11.6277 -2.3372 0.9530
-1.8917 -11.6638 -2.3369 0.9530
-1.7472 -11.6855 -2.3368 0.9530
-1.6025 -11.7056 -2.3367 0.9530
-1.3123 -11.7405 -2.3364 0.9530
-1.2397 -11.7482 -2.3364 0.9530
-1.0942 -11.7621 -2.3363 0.9530
-0.8758 -11.7798 -2.3362 0.9530
-0.8029 -11.7848 -2.3361 0.9530
-0.7300 -11.7894 -2.3361 0.9530
-0.5841 -11.7971 -2.3360 0.9530
-0.5112 -11.8004 -2.3360 0.9530
-0.3652 -11.8056 -2.3360 0.9530
-0.2191 -11.8090 -2.3359 0.9530
-0.0731 -11.8107 -2.3359 0.9530
-0.0000 -11.8109 -2.3359 0.9530
0.0730 -11.8106 -2.3359 0.9530
0.2191 -11.8088 -2.3359 0.9530
0.2921 -11.8071 -2.3359 0.9530
0.6570 -11.7927 -2.3359 0.9530
0.7299 -11.7884 -2.3359 0.9530
0.8028 -11.7837 -2.3359 0.9530
0.8757 -11.7787 -2.3359 0.9530
0.9485 -11.7731 -2.3360 0.9530
1.1668 -11.7539 -2.3360 0.9530
1.2395 -11.7466 -2.3361 0.9530
1.6022 -11.7036 -2.3363 0.9530
1.7469 -11.6834 -2.3364 0.9530
1.8192 -11.6726 -2.3364 0.9530
1.8914 -11.6614 -2.3365 0.9530
1.9635 -11.6498 -2.3365 0.9530
2.1794 -11.6122 -2.3367 0.9530
2.3230 -11.5850 -2.3368 0.9530
2.4663 -11.5560 -2.3370 0.9530
2.6805 -11.5094 -2.3372 0.9530
2.7517 -11.4930 -2.3373 0.9530
2.8939 -11.4589 -2.3374 0.9530
2.9648 -11.4412 -2.3375 0.9530
3.1769 -11.3856 -2.3378 0.9529
3.2474 -11.3663 -2.3379 0.9529
3.3178 -11.3464 -2.3380 0.9529
3.3880 -11.3262 -2.3381 0.9529
3.5281 -11.2844 -2.3383 0.9529
3.5980 -11.2629 -2.3384 0.9529
3.8069 -11.1958 -2.3388 0.9529
3.9455 -11.1490 -2.3390 0.9529
4.0146 -11.1250 -2.3391 0.9529
4.0835 -11.1006 -2.3392 0.9529
4.1523 -11.0757 -2.3394 0.9529
4.2209 -11.0504 -2.3395 0.9529
4.4260 -10.9721 -2.3399 0.9529
4.4940 -10.9452 -2.3400 0.9529
4.6296 -10.8901 -2.3403 0.9529
4.7645 -10.8333 -2.3406 0.9529
4.8988 -10.7750 -2.3409 0.9529
5.0989 -10.6844 -2.3414 0.9529
5.1652 -10.6534 -2.3415 0.9529
5.2313 -10.6220 -2.3417 0.9529
5.2973 -10.5902 -2.3419 0.9529
5.3631 -10.5579 -2.3420 0.9529
5.4287 -10.5254 -2.3422 0.9529
5.5592 -10.4590 -2.3426 0.9529
5.7536 -10.3564 -2.3431 0.9528
5.8822 -10.2860 -2.3435 0.9528
5.9462 -10.2503 -2.3437 0.9528
6.0735 -10.1776 -2.3440 0.9528
6.1368 -10.1407 -2.3442 0.9528
6.2628 -10.0657 -2.3446 0.9528
6.3255 -10.0276 -2.3448 0.9528
6.4502 -9.9504 -2.3452 0.9528
6.5121 -9.9112 -2.3454 0.9528
6.5739 -9.8716 -2.3456 0.9528
6.6354 -9.8316 -2.3459 0.9528
6.6967 -9.7913 -2.3461 0.9528
6.7577 -9.7506 -2.3463 0.9528
6.8185 -9.7095 -2.3465 0.9528
6.8791 -9.6680 -2.3467 0.9528
6.9394 -9.6262 -2.3469 0.9528
6.9995 -9.5840 -2.3472 0.9528
7.0593 -9.5415 -2.3474 0.9528
7.1188 -9.4986 -2.3476 0.9528
7.2960 -9.3677 -2.3483 0.9527
7.3545 -9.3233 -2.3485 0.9527
7.4708 -9.2335 -2.3490 0.9527
7.5860 -9.1422 -2.3495 0.9527
7.6431 -9.0961 -2.3497 0.9527
7.8131 -8.9556 -2.3505 0.9527
7.9249 -8.8602 -2.3510 0.9527
8.1996 -8.6157 -2.3523 0.9527
8.4666 -8.3629 -2.3536 0.9526
8.6236 -8.2072 -2.3545 0.9526
8.7266 -8.1019 -2.3550 0.9526
8.8282 -7.9953 -2.3556 0.9526
8.8786 -7.9415 -2.3559 0.9526
8.9286 -7.8874 -2.3562 0.9526
8.9783 -7.8330 -2.3565 0.9526
9.0277 -7.7783 -2.3568 0.9526
9.0768 -7.7233 -2.3571 0.9526
9.1255 -7.6680 -2.3574 0.9526
9.2697 -7.5002 -2.3583 0.9525
9.3172 -7.4437 -2.3586 0.9525
9.4109 -7.3298 -2.3592 0.9525
9.5034 -7.2147 -2.3598 0.9525
9.6394 -7.0400 -2.3607 0.9525
9.7283 -6.9221 -2.3614 0.9525
9.7723 -6.8627 -2.3617 0.9525
9.8591 -6.7431 -2.3623 0.9525
9.9020 -6.6829 -2.3626 0.9525
9.9866 -6.5618 -2.3633 0.9524
10.0284 -6.5008 -2.3636 0.9524
10.0698 -6.4396 -2.3640 0.9524
10.1109 -6.3780 -2.3643 0.9524
10.1515 -6.3163 -2.3646 0.9524
10.1918 -6.2543 -2.3650 0.9524
10.2318 -6.1920 -2.3653 0.9524
10.2713 -6.1295 -2.3656 0.9524
10.5007 -5.7492 -2.3677 0.9524
10.5741 -5.6205 -2.3684 0.9523
10.6102 -5.5558 -2.3687 0.9523
10.6460 -5.4909 -2.3691 0.9523
10.7508 -5.2949 -2.3701 0.9523
10.7850 -5.2291 -2.3705 0.9523
10.8521 -5.0968 -2.3712 0.9523
10.8851 -5.0304 -2.3716 0.9523
10.9176 -4.9637 -2.3719 0.9523
10.9500 -4.8968 -2.3723 0.9523
11.0438 -4.6950 -2.3734 0.9522
11.0745 -4.6273 -2.3737 0.9522
11.1046 -4.5595 -2.3741 0.9522
11.1924 -4.3547 -2.3752 0.9522
11.4084 -3.8007 -2.3782 0.9522
11.4335 -3.7306 -2.3786 0.9521
11.4582 -3.6605 -2.3790 0.9521
11.4825 -3.5901 -2.3794 0.9521
11.5063 -3.5196 -2.3797 0.9521
11.5527 -3.3781 -2.3805 0.9521
11.5752 -3.3071 -2.3809 0.9521
11.5973 -3.2360 -2.3813 0.9521
11.6403 -3.0933 -2.3821 0.9521
11.6814 -2.9501 -2.3828 0.9521
11.7399 -2.7342 -2.3840 0.9520
11.7945 -2.5172 -2.3852 0.9520
11.8118 -2.4446 -2.3856 0.9520
11.8286 -2.3719 -2.3860 0.9520
11.8450 -2.2991 -2.3864 0.9520
11.9062 -2.0067 -2.3880 0.9520
11.9602 -1.7128 -2.3896 0.9519
12.0373 -1.1950 -2.3924 0.9519
12.0552 -1.0464 -2.3932 0.9519
12.0635 -0.9720 -2.3936 0.9518
12.0787 -0.8230 -2.3944 0.9518
12.1036 -0.5243 -2.3960 0.9518
12.1087 -0.4496 -2.3964 0.9518
12.1133 -0.3747 -2.3969 0.9518
12.1175 -0.2999 -2.3973 0.9518
12.1212 -0.2249 -2.3977 0.9518
12.1294 -0.0000 -2.3989 0.9517
12.1340 0.3002 -2.4005 0.9517
12.1340 0.3753 -2.4010 0.9517
12.1335 0.4504 -2.4014 0.9517
12.1326 0.5255 -2.4018 0.9517
12.1270 0.7509 -2.4030 0.9517
12.1242 0.8260 -2.4034 0.9517
12.1172 0.9762 -2.4042 0.9516
12.1083 1.1264 -2.4051 0.9516
12.1032 1.2015 -2.4055 0.9516
12.0976 1.2765 -2.4059 0.9516
12.0850 1.4265 -2.4067 0.9516
12.0780 1.5015 -2.4071 0.9516
12.0626 1.6513 -2.4079 0.9516
12.0542 1.7262 -2.4084 0.9516
12.0454 1.8010 -2.4088 0.9516
12.0160 2.0252 -2.4100 0.9515
11.9941 2.1744 -2.4108 0.9515
11.9578 2.3978 -2.4120 0.9515
11.9448 2.4721 -2.4124 0.9515
11.9313 2.5463 -2.4129 0.9515
11.9173 2.6205 -2.4133 0.9515
11.9029 2.6946 -2.4137 0.9515
9.0937 2.1772 -1.8493 0.9626
8.7818 2.1601 -1.7886 0.9638
8.7093 2.1995 -1.7766 0.9640
8.0853 2.1486 -1.6546 0.9665
7.4027 2.1150 -1.5226 0.9691
6.5103 2.0355 -1.3490 0.9726
6.1799 2.0164 -1.2856 0.9738
6.0260 2.0075 -1.2562 0.9744
5.6019 1.9824 -1.1752 0.9761
5.4734 1.9751 -1.1508 0.9766
5.2319 1.9614 -1.1051 0.9775
5.0088 1.9488 -1.0630 0.9783
4.8021 1.9371 -1.0241 0.9791
4.6141 1.9280 -0.9890 0.9798
4.0459 1.9002 -0.8840 0.9819
3.8370 1.8897 -0.8459 0.9827
3.7709 1.8862 -0.8339 0.9830
3.7066 1.8829 -0.8222 0.9832
3.6441 1.8795 -0.8109 0.9834
3.5242 1.8732 -0.7893 0.9839
3.4105 1.8672 -0.7690 0.9843
3.3558 1.8644 -0.7592 0.9845
3.2505 1.8588 -0.7406 0.9848
3.1997 1.8562 -0.7316 0.9850
3.1502 1.8536 -0.7229 0.9852
3.0546 1.8485 -0.7061 0.9855
2.9633 1.8438 -0.6902 0.9859
2.9191 1.8414 -0.6826 0.9860
2.8760 1.8392 -0.6752 0.9862
2.7519 1.8326 -0.6539 0.9866
2.5982 1.8246 -0.6279 0.9871
2.4906 1.8189 -0.6100 0.9875
2.4561 1.8171 -0.6042 0.9876
2.4222 1.8153 -0.5987 0.9877
2.3239 1.8100 -0.5826 0.9881
2.2609 1.8062 -0.5723 0.9883
2.1710 1.8015 -0.5579 0.9886
2.1421 1.8000 -0.5534 0.9887
2.1137 1.7985 -0.5489 0.9887
2.0311 1.7942 -0.5360 0.9890
2.0044 1.7928 -0.5319 0.9891
1.9781 1.7915 -0.5278 0.9892
1.9522 1.7901 -0.5239 0.9893
1.9267 1.7888 -0.5200 0.9893
1.8769 1.7862 -0.5124 0.9895
1.8525 1.7850 -0.5088 0.9896
1.8047 1.7825 -0.5017 0.9897
1.7582 1.7801 -0.4948 0.9899
1.6908 1.7766 -0.4851 0.9900
1.6260 1.7733 -0.4758 0.9902
1.6049 1.7722 -0.4729 0.9903
