ply
format ascii 1.0
element vertex 1573
property float32 x
property float32 y
property float32 z
property float32 I
end_header
36.6424 -7.8202 1.3084 0.8607
39.2203 -7.8645 1.3969 0.8521
38.8356 -7.2888 1.3798 0.8537
39.3544 -6.8835 1.3951 0.8522
39.6182 -6.6773 1.4030 0.8515
40.1548 -6.2581 1.4192 0.8499
40.4278 -6.0448 1.4275 0.8491
40.9835 -5.6106 1.4445 0.8474
41.2664 -5.3896 1.4533 0.8466
41.5528 -5.1658 1.4622 0.8457
41.8427 -4.9393 1.4713 0.8448
42.7346 -4.2423 1.4997 0.8421
43.0397 -4.0040 1.5095 0.8411
43.9794 -3.2697 1.5400 0.8382
44.8734 -2.5001 1.5694 0.8354
45.2083 -2.2384 1.5806 0.8343
45.6342 -1.9767 1.5951 0.8329
39.7709 -0.7379 1.3891 0.8528
47.8655 -0.2960 1.6715 0.8257
48.1640 0.0000 1.6819 0.8247
48.5482 0.3003 1.6954 0.8234
59.7568 2.2183 2.0882 0.7871
59.4771 2.5764 2.0789 0.7880
59.2407 2.9333 2.0713 0.7887
58.3824 3.9777 2.0435 0.7912
53.8987 5.0142 1.8903 0.8052
53.9340 5.6911 1.8939 0.8049
56.7347 6.6972 1.9950 0.7956
57.1683 7.1071 2.0117 0.7941
57.8906 7.5608 2.0388 0.7916
59.0391 8.4547 2.0827 0.7876
59.5608 8.9056 2.1030 0.7858
60.7794 9.8579 2.1502 0.7816
61.6610 10.3926 2.1836 0.7786
62.8184 11.3884 2.2294 0.7745
63.3893 11.8973 2.2522 0.7725
64.7898 12.9917 2.3075 0.7676
66.2610 14.1414 2.3660 0.7625
57.0627 15.1639 2.0618 0.7895
11.8947 6.4171 0.4720 0.9473
11.7879 6.5490 0.4709 0.9475
11.6286 6.7458 0.4695 0.9476
11.4176 7.0065 0.4678 0.9478
11.3651 7.0714 0.4674 0.9478
11.2081 7.2655 0.4664 0.9479
11.1558 7.3300 0.4661 0.9480
10.9476 7.5874 0.4651 0.9481
10.8957 7.6516 0.4649 0.9481
10.8438 7.7157 0.4647 0.9481
10.7919 7.7798 0.4646 0.9481
10.6884 7.9078 0.4643 0.9482
10.5849 8.0357 0.4641 0.9482
10.5332 8.0997 0.4640 0.9482
10.1199 8.6107 0.4640 0.9482
10.0682 8.6747 0.4641 0.9482
35.4784 35.9200 1.7631 0.8170
34.5412 35.8473 1.7384 0.8193
29.7357 31.2445 1.5062 0.8414
14.0769 14.9755 0.7177 0.9210
13.9569 15.0331 0.7163 0.9212
26.6749 29.0905 1.3783 0.8539
25.7493 29.1487 1.3582 0.8558
25.3273 29.3959 1.3550 0.8562
20.7989 24.4441 1.1208 0.8794
20.4339 24.3182 1.1092 0.8806
20.1434 24.2758 1.1016 0.8814
14.9912 19.7468 0.8658 0.9055
14.8088 19.7591 0.8623 0.9059
14.5869 19.7159 0.8564 0.9065
14.2871 19.8187 0.8532 0.9068
13.9797 19.9069 0.8495 0.9072
13.8271 19.9506 0.8477 0.9074
13.6093 19.8982 0.8418 0.9080
13.5234 20.0373 0.8442 0.9078
13.4126 20.1407 0.8450 0.9077
9.4658 15.4254 0.6320 0.9301
9.3797 15.4993 0.6326 0.9301
8.7966 14.9500 0.6057 0.9329
8.6681 14.9424 0.6032 0.9332
8.5296 14.9155 0.6000 0.9335
8.1975 14.9725 0.5961 0.9340
7.2985 13.7310 0.5430 0.9397
6.8698 13.5241 0.5297 0.9411
6.5943 13.1830 0.5147 0.9427
6.2837 13.1670 0.5095 0.9433
6.1740 13.1457 0.5072 0.9435
5.8333 13.2634 0.5060 0.9437
5.5732 13.3380 0.5048 0.9438
5.1888 13.3361 0.4997 0.9443
5.1374 13.4496 0.5028 0.9440
4.9250 13.6479 0.5067 0.9436
4.4513 13.3614 0.4918 0.9452
4.3283 13.2653 0.4873 0.9457
4.0666 13.0066 0.4758 0.9469
4.0007 13.0792 0.4776 0.9467
3.0094 12.2348 0.4400 0.9508
2.9109 12.1578 0.4366 0.9512
2.8007 12.0256 0.4312 0.9518
2.7033 11.9411 0.4276 0.9522
2.4577 11.8752 0.4235 0.9526
2.3670 11.8044 0.4204 0.9530
2.2776 11.7345 0.4174 0.9533
2.0181 11.5376 0.4090 0.9542
1.9080 11.3207 0.4009 0.9551
1.6733 11.1907 0.3951 0.9557
1.2764 9.3237 0.3286 0.9630
1.1045 8.8844 0.3126 0.9648
0.9396 8.9040 0.3127 0.9648
0.8792 8.8569 0.3108 0.9650
0.8196 8.8103 0.3090 0.9652
0.7008 8.6987 0.3048 0.9657
0.6449 8.6738 0.3037 0.9658
0.5879 8.6293 0.3020 0.9660
0.5316 8.5853 0.3004 0.9662
0.4672 8.3852 0.2933 0.9669
0.4137 8.3555 0.2921 0.9671
0.3636 8.3935 0.2934 0.9669
0.3112 8.3833 0.2930 0.9670
0.2590 8.3732 0.2925 0.9670
0.0515 8.3329 0.2910 0.9672
0.0000 8.3229 0.2906 0.9672
-0.1021 8.2588 0.2884 0.9675
-0.1533 8.2651 0.2887 0.9675
-0.2604 8.4189 0.2941 0.9668
-0.4725 8.4797 0.2966 0.9666
-0.9500 8.4987 0.2986 0.9664
-1.0165 8.6111 0.3028 0.9659
-1.0776 8.6682 0.3050 0.9656
-1.1396 8.7261 0.3073 0.9654
-1.2026 8.7848 0.3096 0.9651
-1.3331 8.9159 0.3148 0.9646
-1.5494 9.1929 0.3256 0.9634
-1.7020 9.3884 0.3332 0.9625
-1.7811 9.4897 0.3372 0.9621
-1.8620 9.5933 0.3413 0.9616
-1.4817 7.1595 0.2553 0.9712
-1.5165 7.1058 0.2537 0.9713
-1.5992 7.0639 0.2529 0.9714
-1.6948 7.0788 0.2542 0.9713
-2.7138 10.7460 0.3870 0.9566
-2.9192 10.9853 0.3969 0.9555
-2.9801 10.9412 0.3960 0.9556
-3.6252 11.8517 0.4328 0.9516
-3.7592 12.0232 0.4399 0.9508
-4.2915 12.6209 0.4655 0.9480
-5.1333 13.9542 0.5192 0.9422
-5.2363 13.9670 0.5209 0.9420
-5.6256 14.1985 0.5333 0.9407
-5.7802 14.0777 0.5314 0.9409
-6.2835 14.5301 0.5528 0.9386
-6.7855 15.1732 0.5804 0.9356
-7.3405 15.8840 0.6110 0.9324
-8.2925 17.1033 0.6638 0.9267
-8.6474 17.5580 0.6835 0.9247
-10.7944 20.3080 0.8031 0.9121
-11.3174 20.9779 0.8324 0.9090
-12.4867 22.4756 0.8979 0.9022
-13.1433 23.3165 0.9347 0.8984
-13.8561 24.2295 0.9747 0.8943
-8.3848 11.3330 0.4923 0.9451
-18.8373 23.8798 1.0621 0.8854
-51.8419 7.7514 1.8305 0.8107
-51.2698 7.0187 1.8071 0.8129
-50.4383 5.9539 1.7736 0.8161
-49.9009 5.2655 1.7523 0.8180
-50.7887 4.4083 1.7803 0.8154
-51.1559 4.1216 1.7922 0.8143
-51.0799 3.7976 1.7887 0.8146
-50.3030 2.8026 1.7593 0.8174
-49.7990 2.1571 1.7407 0.8191
-47.1555 1.7505 1.6478 0.8279
-46.9219 1.4513 1.6393 0.8287
-46.8351 1.1588 1.6360 0.8290
-45.9227 0.8521 1.6039 0.8321
-45.6715 -0.0000 1.2555 0.8330
-44.8266 -0.5545 1.2323 0.8358
-44.5173 -1.6526 1.2246 0.8367
-44.0872 -2.1829 1.2134 0.8381
-43.8826 -2.4449 1.2082 0.8387
-43.0814 -3.4710 1.1881 0.8412
-42.8851 -3.7223 1.1833 0.8418
-42.9445 -4.5315 1.1871 0.8413
-43.3461 -4.8451 1.1990 0.8399
-44.1742 -5.4917 1.2236 0.8368
-38.1127 -5.2176 1.0575 0.8573
-38.3021 -5.4850 1.0636 0.8566
-38.2009 -5.7119 1.0618 0.8568
-38.0326 -5.9274 1.0581 0.8573
-37.5345 -6.5652 1.0474 0.8586
-37.3707 -6.7750 1.0440 0.8590
-37.2079 -6.9834 1.0407 0.8594
-37.0462 -7.1905 1.0374 0.8598
-36.5670 -7.8041 1.0278 0.8610
-36.4092 -8.0062 1.0248 0.8614
-36.0964 -8.4067 1.0188 0.8622
-35.3906 -8.4734 1.0004 0.8645
-35.5780 -8.7513 1.0072 0.8636
-37.6488 -10.2545 1.0726 0.8554
-38.2098 -10.6616 1.0905 0.8532
-38.7901 -11.0825 1.1090 0.8509
-39.3907 -11.5181 1.1281 0.8486
-33.1151 -10.1293 0.9519 0.8706
-32.9742 -10.3096 0.9497 0.8709
-32.8340 -10.4891 0.9475 0.8712
-32.5556 -10.8457 0.9433 0.8717
-32.2795 -11.1992 0.9392 0.8722
-32.1424 -11.3748 0.9373 0.8725
-32.0059 -11.5496 0.9353 0.8727
-31.5994 -12.0701 0.9298 0.8734
-31.4650 -12.2423 0.9281 0.8736
-31.0646 -12.7550 0.9231 0.8743
-30.9320 -12.9247 0.9215 0.8745
-30.8000 -13.0938 0.9200 0.8747
-30.6683 -13.2624 0.9185 0.8748
-30.5371 -13.4304 0.9170 0.8750
-30.4063 -13.5979 0.9156 0.8752
-30.2759 -13.7649 0.9142 0.8754
-30.0162 -14.0974 0.9116 0.8757
-29.5092 -14.0827 0.8988 0.8774
-29.3819 -14.2457 0.8976 0.8775
-29.3733 -14.9207 0.9056 0.8765
-29.2456 -15.0841 0.9046 0.8766
-28.6249 -15.2151 0.8911 0.8783
-28.3748 -15.5353 0.8892 0.8786
-28.2828 -15.9427 0.8925 0.8782
-28.3600 -16.2181 0.8981 0.8775
-28.2345 -16.3789 0.8973 0.8776
-28.1091 -16.5394 0.8965 0.8777
-27.8591 -16.8595 0.8951 0.8778
-27.7344 -17.0192 0.8945 0.8779
-27.6098 -17.1787 0.8939 0.8780
-27.4854 -17.3380 0.8933 0.8781
-29.9691 -19.4270 0.9818 0.8668
-30.8227 -20.2522 1.0138 0.8628
-30.5413 -20.6126 1.0129 0.8629
-30.4008 -20.7926 1.0124 0.8630
-29.9798 -21.3316 1.0114 0.8631
-29.8396 -21.5111 1.0112 0.8631
-29.5595 -21.8697 1.0108 0.8632
-29.2795 -22.2282 1.0105 0.8632
-28.8597 -22.7657 1.0104 0.8632
-28.7198 -22.9449 1.0105 0.8632
-28.4399 -23.3033 1.0107 0.8632
-26.6991 -22.4345 0.9586 0.8698
-26.5662 -22.6046 0.9589 0.8697
-26.3003 -22.9451 0.9594 0.8697
-25.9007 -23.4568 0.9606 0.8695
-25.7672 -23.6277 0.9610 0.8695
-25.6337 -23.7987 0.9615 0.8694
-25.5000 -23.9698 0.9620 0.8693
-25.3661 -24.1412 0.9626 0.8693
-25.2321 -24.3129 0.9632 0.8692
-25.0979 -24.4846 0.9638 0.8691
-20.4342 -20.4343 0.7944 0.8908
-19.5457 -20.7935 0.7845 0.8921
-19.3706 -20.8643 0.7826 0.8923
-19.0229 -21.0049 0.7790 0.8928
-18.6783 -21.1442 0.7755 0.8932
-18.5071 -21.2134 0.7739 0.8935
-18.1670 -21.3509 0.7706 0.8939
-17.9980 -21.4193 0.7691 0.8941
-17.8296 -21.4873 0.7675 0.8943
-17.6620 -21.5552 0.7660 0.8945
-17.4949 -21.6227 0.7646 0.8947
-16.8329 -21.8903 0.7591 0.8954
-16.6688 -21.9567 0.7578 0.8956
-16.3424 -22.0887 0.7553 0.8959
-16.1799 -22.1543 0.7541 0.8960
-15.8565 -22.2851 0.7518 0.8963
-15.6955 -22.3502 0.7507 0.8965
-15.3749 -22.4798 0.7487 0.8967
-15.2153 -22.5443 0.7477 0.8969
-14.8609 -22.9252 0.7510 0.8964
-14.4129 -24.8454 0.7896 0.8914
-14.0807 -24.9797 0.7882 0.8916
-13.7497 -25.1135 0.7870 0.8918
-13.5845 -25.1803 0.7865 0.8918
-13.4196 -25.2470 0.7860 0.8919
-12.9260 -25.4465 0.7846 0.8921
-12.7618 -25.5129 0.7842 0.8921
-12.5978 -25.5791 0.7838 0.8922
-12.4340 -25.6454 0.7835 0.8922
-11.7798 -25.9098 0.7824 0.8924
-10.8676 -24.3012 0.7318 0.8990
-10.1470 -24.7129 0.7344 0.8986
-9.9938 -24.7749 0.7344 0.8986
-9.8407 -24.8368 0.7344 0.8986
-9.6875 -24.8987 0.7344 0.8986
-9.5343 -24.9606 0.7345 0.8986
-9.0445 -24.5865 0.7201 0.9005
-8.8942 -24.6473 0.7203 0.9005
-8.5780 -25.2274 0.7325 0.8989
-8.4249 -25.2893 0.7327 0.8988
-8.2717 -25.3512 0.7330 0.8988
-8.1184 -25.4132 0.7334 0.8987
-7.6882 -25.1348 0.7225 0.9002
-7.3853 -25.2572 0.7234 0.9001
-6.9144 -26.0196 0.7401 0.8979
-6.7588 -26.0825 0.7407 0.8978
-6.6028 -26.1455 0.7413 0.8977
-6.4198 -26.0998 0.7388 0.8980
-6.2640 -26.1627 0.7395 0.8979
-6.1079 -26.2259 0.7402 0.8979
-5.9514 -26.2891 0.7409 0.8978
-5.7947 -26.3524 0.7417 0.8977
-5.3224 -26.5433 0.7442 0.8973
-5.0058 -26.6713 0.7460 0.8971
-4.5278 -26.8645 0.7489 0.8967
-4.0459 -27.0592 0.7521 0.8963
-4.2351 -30.9361 0.8583 0.8825
0.2243 -36.2682 0.9970 0.8649
1.3148 -35.4167 0.9742 0.8678
1.7808 -35.9634 0.9898 0.8658
2.0209 -36.2707 0.9986 0.8647
2.1112 -21.2668 0.5875 0.9180
11.5052 -50.8212 1.4324 0.8118
12.0635 -50.3852 1.4242 0.8128
12.3403 -50.1690 1.4202 0.8132
12.6156 -49.9541 1.4163 0.8137
8.3976 -30.0957 0.8589 0.8825
8.5610 -29.9642 0.8566 0.8828
8.7244 -29.8366 0.8545 0.8830
9.2629 -29.6264 0.8533 0.8832
9.4242 -29.5004 0.8513 0.8834
9.7446 -29.2502 0.8475 0.8839
9.9037 -29.1260 0.8457 0.8842
10.2199 -28.8790 0.8421 0.8846
10.5335 -28.6341 0.8387 0.8851
10.8447 -28.3911 0.8354 0.8855
10.9993 -28.2703 0.8339 0.8857
11.4600 -27.9105 0.8294 0.8863
11.6124 -27.7915 0.8280 0.8865
11.7644 -27.6728 0.8266 0.8866
12.2967 -27.0467 0.8167 0.8879
12.5938 -26.8147 0.8144 0.8882
12.7962 -26.3925 0.8063 0.8893
13.0362 -26.4691 0.8111 0.8886
13.3292 -26.2403 0.8090 0.8889
13.6991 -26.1618 0.8118 0.8885
13.8452 -26.0477 0.8109 0.8887
14.1366 -25.8201 0.8092 0.8889
14.5715 -25.4805 0.8069 0.8892
15.0040 -25.1426 0.8049 0.8894
15.4345 -24.8064 0.8031 0.8897
15.8633 -24.4714 0.8017 0.8899
16.4329 -24.0266 0.8002 0.8900
16.5750 -23.9156 0.7999 0.8901
16.9037 -23.4484 0.7946 0.8908
17.0987 -22.8144 0.7837 0.8922
29.1927 -37.0072 1.2957 0.8281
17.9289 -22.4415 0.7896 0.8914
18.0690 -22.3321 0.7897 0.8914
18.6294 -21.8944 0.7902 0.8913
18.7697 -21.7848 0.7905 0.8913
19.0505 -21.5655 0.7910 0.8912
24.6107 -19.9125 0.8702 0.8810
24.0898 -19.2457 0.8476 0.8839
23.6964 -18.6926 0.8297 0.8862
23.3105 -17.9250 0.8083 0.8890
23.4704 -17.8180 0.8100 0.8888
23.9550 -17.4950 0.8154 0.8881
24.6139 -17.0589 0.8232 0.8871
24.9492 -16.8384 0.8274 0.8865
25.2886 -16.6160 0.8318 0.8860
26.3341 -15.9366 0.8461 0.8841
26.5125 -15.8214 0.8487 0.8838
24.3905 -13.1584 0.7618 0.8950
27.9889 -14.8770 0.8713 0.8809
28.1800 -14.7558 0.8744 0.8805
28.7521 -14.6051 0.8865 0.8789
28.7629 -14.3876 0.8841 0.8792
29.1599 -14.1380 0.8908 0.8784
29.3610 -14.0119 0.8943 0.8779
29.7686 -13.7570 0.9015 0.8770
29.9753 -13.6282 0.9051 0.8766
30.1838 -13.4984 0.9089 0.8761
30.8215 -13.1029 0.9206 0.8746
31.0382 -12.9690 0.9247 0.8741
31.7017 -12.5606 0.9373 0.8725
32.6190 -11.9994 0.9554 0.8702
32.8545 -11.8559 0.9601 0.8696
33.0927 -11.7110 0.9650 0.8690
33.3336 -11.5648 0.9699 0.8683
33.5616 -11.4119 0.9744 0.8678
42.2936 -11.8011 1.2070 0.8389
42.0143 -11.4435 1.1970 0.8401
36.1784 -9.1366 1.0257 0.8613
35.9486 -8.8424 1.0177 0.8623
35.7224 -8.5529 1.0097 0.8633
35.9412 -8.3705 1.0144 0.8627
36.1734 -8.1891 1.0195 0.8621
36.6449 -7.8207 1.0300 0.8608
38.9859 -7.5670 1.0917 0.8531
38.8383 -7.2894 1.0863 0.8537
39.0963 -7.0878 1.0922 0.8530
39.3572 -6.8839 1.0983 0.8522
40.4308 -6.0452 1.1237 0.8491
42.1394 -4.7102 1.1656 0.8439
42.7379 -4.2426 1.1806 0.8421
43.0430 -4.0043 1.1883 0.8412
43.3521 -3.7628 1.1962 0.8402
43.6653 -3.5180 1.2042 0.8392
44.6310 -2.7636 1.2292 0.8362
44.9619 -2.5051 1.2379 0.8351
45.2975 -2.2429 1.2467 0.8340
45.6379 -1.9769 1.2557 0.8329
45.9833 -1.7070 1.2649 0.8318
46.3338 -1.4331 1.2743 0.8307
46.6896 -1.1552 1.2838 0.8295
39.7683 -0.7379 1.0934 0.8529
48.5524 0.3003 1.3347 0.8234
59.4742 2.5762 1.6364 0.7880
59.2461 2.9336 1.6306 0.7887
58.1117 4.3205 1.6018 0.7920
57.8460 4.6606 1.5953 0.7928
53.9394 5.6917 1.4910 0.8049
54.4435 6.0856 1.5059 0.8032
56.7404 6.6979 1.5706 0.7956
57.8880 7.5604 1.6048 0.7917
60.2703 9.3931 1.6767 0.7834
60.7860 9.8589 1.6927 0.7816
61.6582 10.3921 1.7188 0.7786
62.0610 10.8552 1.7319 0.7772
62.8256 11.3897 1.7552 0.7745
64.1622 12.4536 1.7967 0.7699
64.7974 12.9932 1.8167 0.7676
65.6333 13.5836 1.8424 0.7648
66.2690 14.1431 1.8627 0.7625
55.2566 12.1506 1.5552 0.7974
57.0612 15.1636 1.6230 0.7896
11.9417 6.3474 0.3718 0.9473
11.8882 6.4136 0.3713 0.9474
11.7815 6.5454 0.3705 0.9475
11.7283 6.6111 0.3701 0.9476
11.5167 6.8726 0.3687 0.9477
11.3590 7.0675 0.3677 0.9479
11.3066 7.1323 0.3675 0.9479
11.0977 7.3904 0.3665 0.9480
10.9417 7.5833 0.3659 0.9481
10.8898 7.6474 0.3658 0.9481
10.8379 7.7115 0.3656 0.9482
10.7343 7.8396 0.3654 0.9482
10.6309 7.9675 0.3652 0.9482
10.5275 8.0953 0.3651 0.9482
10.4758 8.1591 0.3650 0.9483
10.4242 8.2230 0.3650 0.9483
10.2177 8.4784 0.3650 0.9483
10.1144 8.6061 0.3651 0.9482
10.0627 8.6700 0.3651 0.9482
35.4257 35.8666 1.3858 0.8173
34.2416 35.9790 1.3653 0.8198
13.9560 15.0321 0.5638 0.9212
26.7434 29.1653 1.0877 0.8536
26.0535 29.1280 1.0743 0.8552
19.9813 24.3858 0.8666 0.8815
19.7505 24.4104 0.8631 0.8819
15.5974 20.2836 0.7034 0.9027
14.5855 19.7140 0.6741 0.9065
14.2625 19.7846 0.6704 0.9070
14.1078 19.8274 0.6689 0.9072
13.6085 19.8970 0.6626 0.9080
13.4119 20.1397 0.6651 0.9077
13.3009 20.2433 0.6658 0.9076
12.9812 20.0254 0.6560 0.9089
12.3820 19.6288 0.6380 0.9113
9.3783 15.4970 0.4979 0.9301
9.1088 15.2639 0.4886 0.9313
8.6674 14.9411 0.4748 0.9332
8.0931 15.0014 0.4686 0.9341
7.2972 13.7286 0.4274 0.9397
7.1849 13.7213 0.4258 0.9399
7.0577 13.6838 0.4232 0.9402
6.5936 13.1816 0.4052 0.9427
6.3939 13.1874 0.4029 0.9430
5.9045 13.2031 0.3976 0.9438
5.7304 13.2512 0.3969 0.9439
5.5570 13.2992 0.3962 0.9440
5.4704 13.3231 0.3959 0.9440
5.1885 13.3353 0.3933 0.9444
5.1371 13.4489 0.3957 0.9440
5.0667 13.5147 0.3968 0.9439
4.9959 13.5807 0.3978 0.9437
4.9247 13.6471 0.3988 0.9436
4.8339 13.6594 0.3983 0.9437
4.0662 13.0054 0.3745 0.9469
3.8858 12.9902 0.3727 0.9472
3.5535 12.7351 0.3634 0.9485
3.3384 12.5625 0.3573 0.9493
3.1955 12.3317 0.3502 0.9503
3.0092 12.2337 0.3463 0.9508
2.8005 12.0246 0.3394 0.9518
2.7031 11.9401 0.3365 0.9522
2.2774 11.7335 0.3286 0.9533
2.1905 11.6711 0.3264 0.9536
1.9079 11.3198 0.3156 0.9551
1.8267 11.2628 0.3136 0.9554
1.7537 11.2528 0.3131 0.9555
1.3439 9.3841 0.2606 0.9628
1.2763 9.3228 0.2587 0.9630
1.0468 8.8682 0.2455 0.9649
0.9965 8.9151 0.2466 0.9647
0.9395 8.9034 0.2461 0.9648
0.7008 8.6982 0.2399 0.9657
0.5879 8.6287 0.2377 0.9660
0.4137 8.3549 0.2299 0.9671
0.3636 8.3930 0.2309 0.9669
0.3112 8.3828 0.2306 0.9670
0.2590 8.3726 0.2303 0.9670
0.2069 8.3625 0.2299 0.9671
0.1550 8.3524 0.2296 0.9671
-0.1021 8.2582 0.2270 0.9675
-0.2604 8.4183 0.2315 0.9669
-0.3659 8.4486 0.2325 0.9667
-0.4191 8.4638 0.2329 0.9667
-0.6338 8.5255 0.2350 0.9664
-0.7427 8.5568 0.2361 0.9662
-0.7975 8.5725 0.2367 0.9661
-0.8481 8.5434 0.2360 0.9662
-0.8940 8.4720 0.2342 0.9665
-0.9499 8.4981 0.2351 0.9664
-1.0164 8.6105 0.2383 0.9659
-1.2665 8.8439 0.2456 0.9649
-1.3330 8.9152 0.2478 0.9646
-1.4035 9.0054 0.2505 0.9642
-1.4756 9.0978 0.2534 0.9638
-1.6247 9.2887 0.2592 0.9630
-1.8619 9.5925 0.2686 0.9617
-1.7596 7.1537 0.2025 0.9710
-2.8587 11.0318 0.3133 0.9554
-2.9191 10.9847 0.3124 0.9555
-3.3695 11.5234 0.3300 0.9531
-3.6248 11.8504 0.3407 0.9516
-3.7587 12.0219 0.3462 0.9508
-4.2909 12.6194 0.3664 0.9481
-4.5462 13.1037 0.3813 0.9460
-4.7120 13.3149 0.3883 0.9450
-5.2360 13.9662 0.4100 0.9421
-5.5476 14.2584 0.4206 0.9406
-5.6253 14.1977 0.4198 0.9407
-5.7028 14.1372 0.4190 0.9408
-5.7799 14.0770 0.4183 0.9409
-7.6392 16.2654 0.4940 0.9306
-8.2909 17.1001 0.5224 0.9268
-8.6457 17.5545 0.5379 0.9247
-9.4226 18.5495 0.5719 0.9201
-9.8491 19.0958 0.5906 0.9176
-10.3045 19.6791 0.6106 0.9149
-12.4836 22.4700 0.7066 0.9023
-13.1397 23.3103 0.7356 0.8985
-13.8522 24.2227 0.7670 0.8944
-14.6284 25.2168 0.8014 0.8899
-8.3846 11.3328 0.3875 0.9452
-20.7980 21.8533 0.8293 0.8863
-53.0352 9.2764 1.4800 0.8062
-52.7316 8.8876 1.4700 0.8074
-52.1365 8.1254 1.4505 0.8097
-51.8449 7.7519 1.4410 0.8108
-51.2727 7.0192 1.4226 0.8130
-50.9921 6.6598 1.4136 0.8140
-50.4412 5.9542 1.3962 0.8161
-50.1708 5.6079 1.3877 0.8171
-50.7847 4.4079 1.4013 0.8155
-51.1519 4.1212 1.4107 0.8144
-51.0827 3.7979 1.4081 0.8147
-50.8208 3.4625 1.4003 0.8156
-50.3057 2.8028 1.3850 0.8174
-47.1579 1.7506 1.2972 0.8279
-46.7102 1.1557 1.2844 0.8295
-45.9250 0.8521 1.2626 0.8321
-45.7010 0.5652 1.2564 0.8329
-44.8289 -0.5545 0.8993 0.8358
-44.5195 -1.6527 0.8937 0.8367
-44.3112 -1.9194 0.8897 0.8374
-43.8847 -2.4451 0.8817 0.8387
-43.6819 -2.7048 0.8779 0.8394
-43.0834 -3.4712 0.8671 0.8412
-42.8872 -3.7225 0.8636 0.8418
-42.5465 -4.2237 0.8577 0.8428
-42.9402 -4.5311 0.8662 0.8413
-43.7515 -5.1646 0.8838 0.8384
-38.3155 -4.7634 0.7745 0.8569
-38.6148 -5.0433 0.7812 0.8557
-38.4930 -5.5124 0.7801 0.8559
-38.1542 -5.9463 0.7746 0.8569
-37.8199 -6.3743 0.7694 0.8577
-37.1646 -7.2135 0.7594 0.8594
-36.6839 -7.8291 0.7525 0.8606
-36.3682 -8.2332 0.7480 0.8614
-36.2118 -8.4336 0.7459 0.8618
-36.0562 -8.6328 0.7437 0.8621
-35.0958 -8.8632 0.7261 0.8652
-35.3385 -9.1573 0.7323 0.8641
-36.8382 -10.2789 0.7672 0.8581
-37.3707 -10.6770 0.7797 0.8560
-38.4898 -11.5135 0.8059 0.8515
-33.1165 -10.1297 0.6947 0.8706
-32.5569 -10.8462 0.6884 0.8717
-32.2809 -11.1996 0.6854 0.8722
-32.1438 -11.3753 0.6840 0.8725
-31.7357 -11.8978 0.6799 0.8732
-31.6007 -12.0706 0.6786 0.8734
-31.3323 -12.4143 0.6761 0.8739
-30.9333 -12.9252 0.6725 0.8745
-30.8013 -13.0943 0.6714 0.8747
-30.2772 -13.7654 0.6672 0.8754
-30.1471 -13.9319 0.6662 0.8756
-30.0175 -14.0980 0.6653 0.8757
-29.7593 -14.4286 0.6634 0.8761
-29.6422 -14.5989 0.6628 0.8762
-29.5139 -14.7632 0.6620 0.8763
-29.3859 -14.9271 0.6612 0.8765
-29.0037 -15.4165 0.6589 0.8769
-28.8769 -15.5788 0.6582 0.8770
-28.3722 -16.2251 0.6556 0.8774
-28.2466 -16.3859 0.6551 0.8775
-28.1212 -16.5465 0.6545 0.8776
-27.6109 -17.1794 0.6523 0.8780
-27.4865 -17.3387 0.6519 0.8781
-28.2725 -18.0799 0.6732 0.8744
-29.9511 -19.4154 0.7160 0.8669
-30.6832 -20.4333 0.7395 0.8629
-30.4020 -20.7934 0.7389 0.8630
-30.1212 -21.1529 0.7383 0.8631
-29.9810 -21.3325 0.7381 0.8631
-29.5607 -21.8706 0.7376 0.8632
-29.4207 -22.0499 0.7375 0.8632
-29.2807 -22.2291 0.7375 0.8632
-28.8609 -22.7666 0.7374 0.8632
-28.5810 -23.1250 0.7375 0.8632
-26.8330 -22.2654 0.6995 0.8698
-26.7002 -22.4354 0.6996 0.8698
-26.5673 -22.6055 0.6998 0.8697
-26.4343 -22.7758 0.7000 0.8697
-19.3039 -17.2664 0.5195 0.9016
-25.6440 -23.8082 0.7019 0.8694
-25.5102 -23.9795 0.7023 0.8693
-25.3763 -24.1509 0.7027 0.8692
-24.9645 -24.6577 0.7039 0.8690
-19.8998 -20.6522 0.5753 0.8916
-19.7230 -20.7237 0.5739 0.8918
-19.3719 -20.8657 0.5712 0.8923
-18.8514 -21.0761 0.5672 0.8930
-18.6795 -21.1456 0.5660 0.8933
-18.5083 -21.2148 0.5648 0.8935
-18.1682 -21.3523 0.5624 0.8939
-17.9991 -21.4207 0.5613 0.8941
-17.6631 -21.5565 0.5591 0.8945
-17.3296 -21.6913 0.5569 0.8949
-16.9986 -21.8252 0.5549 0.8952
-16.8340 -21.8917 0.5540 0.8954
-16.6699 -21.9580 0.5530 0.8956
-16.1809 -22.1557 0.5504 0.8960
-16.0190 -22.2212 0.5495 0.8962
-15.3759 -22.4812 0.5464 0.8968
-15.0570 -22.6101 0.5449 0.8970
-14.8982 -22.6743 0.5442 0.8971
-15.4176 -24.4411 0.5797 0.8908
-14.9142 -24.6446 0.5779 0.8911
-14.4137 -24.8469 0.5762 0.8914
-14.2475 -24.9141 0.5757 0.8915
-14.0816 -24.9812 0.5753 0.8916
-13.9159 -25.0482 0.5748 0.8917
-13.7505 -25.1151 0.5744 0.8918
-13.5853 -25.1818 0.5740 0.8918
-13.2557 -25.3151 0.5732 0.8920
-13.0911 -25.3816 0.5729 0.8920
-12.9268 -25.4480 0.5726 0.8921
-12.7626 -25.5144 0.5723 0.8921
-12.5986 -25.5807 0.5720 0.8922
-12.4348 -25.6470 0.5718 0.8922
-12.2710 -25.7131 0.5715 0.8923
-11.9439 -25.8454 0.5711 0.8923
-11.7805 -25.9114 0.5710 0.8924
-10.7156 -24.3644 0.5339 0.8990
-10.3008 -24.6525 0.5360 0.8986
-9.3426 -24.9201 0.5339 0.8990
-9.1899 -24.9818 0.5340 0.8990
-9.0372 -25.0436 0.5341 0.8990
-8.8844 -25.1053 0.5342 0.8989
-8.5785 -25.2289 0.5346 0.8989
-8.4255 -25.2908 0.5348 0.8988
-7.9655 -25.4768 0.5355 0.8987
-7.8118 -25.5389 0.5357 0.8987
-7.6580 -25.6010 0.5360 0.8986
-7.3499 -25.7256 0.5367 0.8985
-7.2256 -25.8956 0.5393 0.8980
-6.9149 -26.0212 0.5401 0.8979
-6.7592 -26.0841 0.5405 0.8978
-6.6032 -26.1471 0.5410 0.8977
-5.4115 -22.6022 0.4662 0.9112
-5.0495 -22.3050 0.4588 0.9126
-4.8728 -22.1600 0.4552 0.9132
-4.3590 -21.7388 0.4448 0.9151
-4.1930 -21.6027 0.4414 0.9157
-4.0293 -21.4687 0.4382 0.9163
-3.5867 -21.2805 0.4329 0.9173
-3.2469 -21.7154 0.4405 0.9159
-3.1310 -21.8639 0.4431 0.9154
-3.0137 -22.0140 0.4457 0.9149
0.0000 -36.4458 0.7311 0.8643
0.4465 -36.0972 0.7242 0.8655
1.1008 -35.5862 0.7142 0.8672
1.3149 -35.4190 0.7110 0.8678
1.5450 -35.6665 0.7162 0.8669
2.0212 -36.2761 0.7288 0.8647
2.1113 -21.2674 0.4287 0.9180
12.0642 -50.3881 1.0394 0.8128
12.3410 -50.1720 1.0364 0.8133
12.6163 -49.9570 1.0336 0.8137
13.0995 -50.5514 1.0476 0.8115
8.5615 -29.9659 0.6252 0.8828
8.7249 -29.8383 0.6236 0.8830
8.9386 -29.8818 0.6257 0.8827
9.5853 -29.3767 0.6199 0.8837
9.9043 -29.1276 0.6172 0.8842
10.5341 -28.6357 0.6121 0.8851
10.9999 -28.2719 0.6086 0.8857
11.1540 -28.1515 0.6074 0.8859
11.3076 -28.0316 0.6063 0.8861
11.4606 -27.9121 0.6053 0.8863
11.6131 -27.7930 0.6042 0.8865
12.2974 -27.0482 0.5960 0.8879
12.4461 -26.9320 0.5952 0.8881
12.5945 -26.8162 0.5943 0.8882
12.9019 -26.6104 0.5932 0.8884
13.3300 -26.2417 0.5904 0.8889
13.8460 -26.0490 0.5918 0.8887
13.9918 -25.9351 0.5911 0.8888
14.1373 -25.8215 0.5905 0.8889
14.2826 -25.7080 0.5899 0.8890
14.4275 -25.5948 0.5894 0.8891
14.8608 -25.2564 0.5878 0.8894
15.2920 -24.9196 0.5865 0.8896
16.0068 -24.3614 0.5847 0.8899
16.1492 -24.2501 0.5845 0.8900
16.5759 -23.9168 0.5837 0.8901
16.8598 -23.6951 0.5834 0.8902
17.0456 -23.3396 0.5798 0.8908
17.1887 -23.2325 0.5797 0.8908
17.3792 -23.1886 0.5813 0.8905
29.1942 -37.0091 0.9456 0.8281
17.9299 -22.4427 0.5762 0.8914
18.0699 -22.3333 0.5763 0.8914
18.3501 -22.1145 0.5765 0.8914
18.4902 -22.0050 0.5766 0.8914
18.6304 -21.8955 0.5767 0.8913
18.7707 -21.7859 0.5769 0.8913
27.0011 -22.9746 0.7112 0.8678
25.7359 -21.3549 0.6708 0.8748
25.1556 -20.6121 0.6524 0.8780
23.0713 -17.7410 0.5838 0.8901
24.4307 -18.5471 0.6153 0.8845
24.5856 -18.4261 0.6163 0.8843
24.7410 -18.3047 0.6174 0.8841
24.8969 -18.1829 0.6184 0.8840
25.0534 -18.0607 0.6196 0.8838
25.2104 -17.9380 0.6207 0.8836
25.3680 -17.8149 0.6218 0.8834
25.6851 -17.5672 0.6242 0.8829
25.8445 -17.4427 0.6255 0.8827
26.1654 -17.1920 0.6280 0.8823
25.4981 -15.8648 0.6024 0.8868
26.3945 -15.0941 0.6099 0.8855
26.4173 -14.6766 0.6062 0.8861
24.2436 -13.2734 0.5544 0.8953
26.9484 -14.1109 0.6102 0.8854
27.1116 -13.9834 0.6119 0.8851
27.2758 -13.8552 0.6137 0.8848
28.1849 -13.8812 0.6302 0.8819
27.9420 -13.3347 0.6211 0.8835
28.1112 -13.2026 0.6230 0.8832
28.6823 -12.8269 0.6303 0.8819
29.2695 -12.4431 0.6380 0.8805
29.4687 -12.3132 0.6407 0.8800
29.6699 -12.1823 0.6434 0.8796
30.0778 -11.9172 0.6490 0.8786
30.2847 -11.7830 0.6519 0.8781
31.3503 -11.0944 0.6671 0.8754
31.5700 -10.9529 0.6703 0.8749
31.7920 -10.8102 0.6736 0.8743
32.2432 -10.5205 0.6804 0.8731
32.7044 -10.2252 0.6874 0.8719
32.9388 -10.0753 0.6910 0.8713
42.0115 -11.4428 0.8735 0.8401
36.4070 -9.4342 0.7545 0.8603
36.1735 -9.1354 0.7484 0.8613
35.7175 -8.5517 0.7368 0.8633
35.9436 -8.3711 0.7403 0.8627
36.1758 -8.1897 0.7441 0.8621
36.4104 -8.0064 0.7478 0.8614
36.6474 -7.8213 0.7517 0.8608
36.8869 -7.6342 0.7556 0.8601
38.3518 -6.7081 0.7810 0.8558
38.6294 -6.2653 0.7850 0.8551
38.9436 -6.0693 0.7906 0.8541
39.2627 -5.8706 0.7964 0.8531
39.5866 -5.6690 0.8022 0.8521
40.5896 -5.0461 0.8205 0.8490
41.2857 -4.6148 0.8333 0.8469
41.6424 -4.3941 0.8400 0.8458
42.0051 -4.1699 0.8468 0.8446
42.3740 -3.9421 0.8537 0.8434
43.9107 -3.2646 0.8833 0.8385
44.0867 -3.0037 0.8864 0.8380
44.4913 -2.7549 0.8942 0.8367
44.9034 -2.5018 0.9022 0.8353
45.6416 -1.9770 0.9164 0.8330
39.7656 -0.7378 0.7978 0.8529
47.4214 -0.5865 0.9514 0.8272
47.7939 -0.2955 0.9588 0.8260
48.1722 0.0000 0.9663 0.8247
48.5566 0.3003 0.9741 0.8234
59.4713 2.5761 1.1941 0.7881
58.3768 3.9773 1.1738 0.7913
57.8433 4.6604 1.1641 0.7928
53.8880 5.0132 1.0857 0.8053
53.6442 5.3254 1.0814 0.8060
53.9448 5.6923 1.0881 0.8049
54.4490 6.0862 1.0990 0.8032
56.7462 6.6986 1.1462 0.7956
57.2882 7.1221 1.1581 0.7938
58.9838 8.4468 1.1953 0.7879
59.5736 8.9075 1.2083 0.7858
62.7280 11.3720 1.2788 0.7749
64.8050 12.9948 1.3259 0.7676
66.2770 14.1448 1.3595 0.7625
57.0598 15.1631 1.1844 0.7896
11.9351 6.3439 0.2711 0.9474
11.8816 6.4100 0.2708 0.9474
11.8283 6.4760 0.2705 0.9475
11.7219 6.6075 0.2699 0.9476
11.6688 6.6730 0.2696 0.9476
11.5631 6.8037 0.2691 0.9477
11.4578 6.9339 0.2687 0.9478
11.4052 6.9988 0.2684 0.9479
11.3528 7.0637 0.2682 0.9479
11.3004 7.1284 0.2680 0.9479
11.2481 7.1930 0.2678 0.9480
11.1959 7.2576 0.2676 0.9480
11.0396 7.4508 0.2672 0.9481
10.9877 7.5150 0.2670 0.9481
10.8839 7.6433 0.2668 0.9482
10.8321 7.7074 0.2667 0.9482
10.7803 7.7714 0.2666 0.9482
10.6768 7.8993 0.2664 0.9483
10.6251 7.9632 0.2664 0.9483
10.5735 8.0271 0.2663 0.9483
10.4186 8.2186 0.2662 0.9483
10.3154 8.3462 0.2662 0.9483
10.2638 8.4100 0.2662 0.9483
10.2122 8.4738 0.2662 0.9483
13.2553 13.4203 0.3784 0.9273
13.1525 13.4820 0.3778 0.9274
13.0497 13.5431 0.3773 0.9275
12.5339 13.8398 0.3746 0.9280
12.4306 13.8974 0.3740 0.9281
12.3272 13.9546 0.3735 0.9282
12.2237 14.0111 0.3730 0.9283
12.1202 14.0671 0.3725 0.9284
12.0165 14.1225 0.3720 0.9285
11.6108 13.8179 0.3621 0.9303
19.7482 24.4077 0.6298 0.8820
14.9869 19.7411 0.4972 0.9056
14.8059 19.7553 0.4952 0.9060
14.5841 19.7121 0.4919 0.9066
14.2851 19.8160 0.4900 0.9069
13.9778 19.9042 0.4879 0.9073
13.8252 19.9480 0.4869 0.9075
13.4113 20.1388 0.4854 0.9077
12.9791 20.0222 0.4787 0.9090
12.5705 19.6572 0.4680 0.9109
12.3801 19.6257 0.4655 0.9113
12.0170 19.3138 0.4563 0.9130
9.4649 15.4239 0.3630 0.9302
9.3377 15.4299 0.3618 0.9304
9.0948 15.2404 0.3560 0.9315
8.5282 14.9129 0.3446 0.9336
8.0926 15.0004 0.3419 0.9341
7.2959 13.7261 0.3118 0.9397
7.1845 13.7206 0.3107 0.9399
6.8692 13.5229 0.3043 0.9411
6.5051 13.2081 0.2953 0.9428
6.3933 13.1864 0.2940 0.9431
6.2827 13.1649 0.2926 0.9433
5.9843 13.1625 0.2900 0.9438
5.6432 13.2742 0.2893 0.9439
5.5725 13.3363 0.2899 0.9438
5.4860 13.3612 0.2897 0.9439
5.2685 13.2970 0.2869 0.9444
5.0664 13.5140 0.2895 0.9439
4.9956 13.5800 0.2903 0.9438
4.9245 13.6464 0.2910 0.9436
4.7033 13.5564 0.2878 0.9442
4.5757 13.4567 0.2851 0.9447
4.4504 13.3589 0.2825 0.9452
4.3275 13.2628 0.2799 0.9457
4.2068 13.1685 0.2773 0.9462
4.0658 13.0041 0.2733 0.9469
4.0004 13.0785 0.2744 0.9468
3.8854 12.9890 0.2720 0.9472
3.6609 12.8136 0.2673 0.9481
3.4439 12.6441 0.2629 0.9489
3.3381 12.5614 0.2607 0.9493
3.1090 12.3109 0.2547 0.9505
2.8002 12.0235 0.2476 0.9518
2.6413 12.0118 0.2467 0.9520
2.4573 11.8733 0.2432 0.9526
2.3666 11.8024 0.2415 0.9530
2.2773 11.7326 0.2397 0.9533
2.1904 11.6703 0.2382 0.9536
2.1022 11.5959 0.2364 0.9539
2.0177 11.5359 0.2349 0.9542
1.7536 11.2520 0.2284 0.9555
1.3438 9.3835 0.1902 0.9628
1.1947 9.1472 0.1850 0.9638
1.0468 8.8677 0.1791 0.9649
0.9965 8.9146 0.1799 0.9647
0.8791 8.8556 0.1785 0.9650
0.8195 8.8090 0.1775 0.9652
0.7606 8.7630 0.1764 0.9654
0.6448 8.6725 0.1745 0.9658
0.5879 8.6281 0.1735 0.9660
0.5315 8.5841 0.1725 0.9662
0.4137 8.3544 0.1678 0.9671
0.3112 8.3822 0.1683 0.9670
0.2590 8.3721 0.1680 0.9670
0.1032 8.3418 0.1674 0.9672
-0.1021 8.2577 0.1657 0.9675
-0.2079 8.4027 0.1686 0.9669
-0.5233 8.4518 0.1699 0.9667
-0.6881 8.5405 0.1719 0.9663
-0.7426 8.5562 0.1723 0.9662
-0.8939 8.4714 0.1709 0.9665
-0.9498 8.4975 0.1715 0.9664
-1.0163 8.6099 0.1739 0.9659
-1.4034 9.0047 0.1828 0.9642
-1.4754 9.0970 0.1849 0.9638
-1.7017 9.3868 0.1914 0.9626
-1.7807 9.4880 0.1937 0.9621
-1.9332 9.6409 0.1972 0.9614
-1.4814 7.1580 0.1466 0.9712
-1.5162 7.1045 0.1457 0.9714
-1.5562 7.0769 0.1454 0.9714
-1.6446 7.0615 0.1454 0.9714
-2.8585 11.0312 0.2286 0.9554
-2.9189 10.9841 0.2280 0.9555
-3.3691 11.5221 0.2408 0.9531
-4.0398 12.3810 0.2612 0.9492
-4.1878 12.5706 0.2658 0.9484
-4.5457 13.1020 0.2782 0.9460
-4.7752 13.4937 0.2871 0.9443
-4.9048 13.5921 0.2899 0.9438
-5.2357 13.9655 0.2992 0.9421
-5.3265 13.9446 0.2994 0.9420
-5.7796 14.0762 0.3052 0.9409
-5.8565 14.0161 0.3047 0.9410
-6.0480 14.2265 0.3101 0.9400
-7.0535 15.5142 0.3419 0.9341
-7.3379 15.8785 0.3509 0.9324
-7.6378 16.2625 0.3604 0.9306
-7.9544 16.6680 0.3705 0.9288
-8.2893 17.0968 0.3812 0.9268
-8.6440 17.5511 0.3925 0.9247
-9.4206 18.5457 0.4173 0.9201
-9.8470 19.0917 0.4309 0.9176
-10.7894 20.2986 0.4611 0.9121
-11.8741 21.6878 0.4960 0.9058
-12.4804 22.4642 0.5155 0.9023
-13.1364 23.3043 0.5366 0.8985
-13.8485 24.2164 0.5596 0.8944
-8.3845 11.3327 0.2828 0.9452
-20.7964 21.8516 0.6051 0.8863
-53.3462 9.6712 1.0876 0.8050
-52.1395 8.1259 1.0586 0.8097
-51.8479 7.7524 1.0516 0.8108
-51.2756 7.0196 1.0382 0.8130
-50.9950 6.6602 1.0317 0.8140
-50.4440 5.9546 1.0189 0.8161
-50.1736 5.6083 1.0128 0.8171
-49.9064 5.2662 1.0067 0.8181
-50.0611 4.9697 1.0092 0.8177
-51.0854 3.7980 1.0276 0.8147
-50.8235 3.4627 1.0219 0.8156
-49.8042 2.1573 1.0000 0.8192
-47.1604 1.7507 0.9467 0.8279
-46.9268 1.4515 0.9418 0.8288
-45.9274 0.8522 0.9215 0.8321
-45.7034 0.5653 0.9169 0.8329
-45.4815 0.2812 0.9124 0.8336
-45.1418 -0.8376 0.5704 0.8348
-44.6369 -1.3807 0.5642 0.8364
-44.4156 -1.6488 0.5615 0.8371
-44.2414 -1.9164 0.5595 0.8377
-44.0905 -2.1831 0.5577 0.8381
-43.8866 -2.4452 0.5553 0.8388
-43.6840 -2.7050 0.5529 0.8394
-43.2833 -3.2180 0.5483 0.8406
-43.0855 -3.4713 0.5461 0.8412
-42.5423 -4.2233 0.5401 0.8428
-43.3374 -4.8442 0.5509 0.8399
-43.7470 -5.1641 0.5565 0.8384
-38.4948 -5.5126 0.4913 0.8559
-38.1559 -5.9466 0.4879 0.8569
-34.2083 -5.5483 0.4378 0.8705
-37.6562 -6.5865 0.4830 0.8582
-37.4918 -6.7969 0.4814 0.8586
-37.1662 -7.2138 0.4783 0.8595
-36.8448 -7.6254 0.4753 0.8603
-36.5272 -8.0321 0.4725 0.8610
-36.3698 -8.2336 0.4711 0.8614
-35.5735 -8.9838 0.4635 0.8635
-35.4970 -9.4330 0.4640 0.8634
-35.9554 -9.7933 0.4708 0.8615
-36.9233 -10.5492 0.4851 0.8576
-32.8368 -10.4900 0.4355 0.8712
-32.5710 -10.8509 0.4337 0.8717
-32.2949 -11.2045 0.4319 0.8722
-32.1451 -11.3757 0.4308 0.8725
-31.8725 -11.7248 0.4290 0.8730
-31.7494 -11.9029 0.4284 0.8732
-31.4799 -12.2480 0.4267 0.8736
-31.3459 -12.4196 0.4260 0.8738
-31.0793 -12.7610 0.4245 0.8742
-30.9467 -12.9308 0.4237 0.8744
-30.8145 -13.1000 0.4230 0.8746
-30.0092 -13.8682 0.4176 0.8761
-29.8802 -14.0335 0.4171 0.8763
-29.7605 -14.4292 0.4178 0.8761
-29.3871 -14.9277 0.4164 0.8765
-29.2594 -15.0912 0.4159 0.8766
-29.0049 -15.4171 0.4150 0.8769
-28.7515 -15.7415 0.4141 0.8771
-28.4989 -16.0645 0.4133 0.8773
-27.8613 -16.8609 0.4114 0.8779
-27.6120 -17.1801 0.4108 0.8780
-28.2565 -18.0697 0.4237 0.8744
-30.1196 -19.5247 0.4535 0.8662
-30.6844 -20.4341 0.4657 0.8629
-30.5438 -20.6142 0.4655 0.8629
-30.4032 -20.7942 0.4653 0.8630
-30.2628 -20.9740 0.4652 0.8630
-30.1224 -21.1537 0.4650 0.8631
-29.9822 -21.3333 0.4649 0.8631
-29.7019 -21.6922 0.4647 0.8632
-29.4218 -22.0508 0.4645 0.8632
-29.2819 -22.2300 0.4645 0.8632
-29.0020 -22.5883 0.4644 0.8632
-28.8621 -22.7675 0.4644 0.8632
-28.7221 -22.9467 0.4644 0.8632
-26.8340 -22.2662 0.4405 0.8698
-26.5684 -22.6064 0.4407 0.8698
-19.3929 -17.1313 0.3269 0.9017
-19.3035 -17.2660 0.3272 0.9016
-25.9121 -23.4672 0.4417 0.8695
-25.7786 -23.6381 0.4419 0.8694
-25.6450 -23.8092 0.4421 0.8694
-25.5112 -23.9804 0.4423 0.8693
-25.3773 -24.1519 0.4426 0.8692
-25.0999 -24.4866 0.4430 0.8691
-24.9655 -24.6587 0.4433 0.8690
-20.4369 -20.4370 0.3651 0.8908
-19.9011 -20.6536 0.3623 0.8916
-18.6807 -21.1470 0.3565 0.8933
-18.5095 -21.2162 0.3557 0.8935
-18.3391 -21.2851 0.3550 0.8937
-18.0003 -21.4220 0.3535 0.8941
-17.4971 -21.6254 0.3514 0.8947
-17.3307 -21.6927 0.3508 0.8949
-16.9997 -21.8265 0.3495 0.8952
-16.8350 -21.8931 0.3489 0.8954
-16.5074 -22.0256 0.3477 0.8957
-16.3444 -22.0914 0.3472 0.8959
-16.0200 -22.2226 0.3461 0.8962
-15.8585 -22.2879 0.3456 0.8963
-15.6975 -22.3530 0.3451 0.8965
-15.3769 -22.4826 0.3441 0.8968
-15.2172 -22.5471 0.3437 0.8969
-15.0580 -22.6115 0.3432 0.8970
-14.8569 -22.9189 0.3451 0.8965
-15.4186 -24.4426 0.3651 0.8908
-15.2504 -24.5106 0.3647 0.8909
-14.9151 -24.6461 0.3639 0.8912
-14.7480 -24.7137 0.3636 0.8913
-14.4146 -24.8485 0.3629 0.8914
-13.7514 -25.1166 0.3618 0.8918
-13.5862 -25.1834 0.3615 0.8918
-13.4212 -25.2500 0.3613 0.8919
-12.9276 -25.4496 0.3606 0.8921
-12.7634 -25.5160 0.3604 0.8921
-12.5994 -25.5823 0.3603 0.8922
-12.4355 -25.6485 0.3601 0.8922
-12.2718 -25.7147 0.3600 0.8923
-12.1082 -25.7808 0.3598 0.8923
-10.5636 -24.4276 0.3362 0.8990
-10.4110 -24.4893 0.3362 0.8990
-9.8009 -24.7363 0.3361 0.8990
-9.6483 -24.7981 0.3362 0.8990
-9.1905 -24.9834 0.3363 0.8990
-8.8849 -25.1069 0.3365 0.8989
-8.7321 -25.1687 0.3366 0.8989
-8.5791 -25.2305 0.3367 0.8989
-8.4260 -25.2924 0.3368 0.8988
-8.2728 -25.3543 0.3369 0.8988
-7.9659 -25.4784 0.3372 0.8987
-7.6585 -25.6026 0.3376 0.8986
-7.5045 -25.6648 0.3378 0.8986
-7.3503 -25.7272 0.3380 0.8985
-7.1960 -25.7896 0.3383 0.8984
-5.6565 -22.3984 0.2919 0.9117
-5.2944 -22.1129 0.2873 0.9131
-5.1175 -21.9736 0.2850 0.9137
-4.4366 -21.4370 0.2766 0.9162
-4.2726 -21.3078 0.2746 0.9167
-4.1110 -21.1805 0.2726 0.9173
-3.9517 -21.0550 0.2706 0.9179
-3.4724 -20.6023 0.2639 0.9198
-3.1190 -20.8603 0.2665 0.9191
-3.0244 -21.1199 0.2695 0.9182
-2.7964 -21.4118 0.2728 0.9172
-2.6804 -21.5604 0.2745 0.9168
-2.5628 -21.7109 0.2762 0.9163
-2.3233 -22.0176 0.2797 0.9152
-2.0775 -22.3322 0.2834 0.9142
-1.9522 -22.4926 0.2852 0.9136
-1.6966 -22.8199 0.2891 0.9125
-1.5661 -22.9869 0.2911 0.9120
-1.4339 -23.1562 0.2931 0.9114
-1.2997 -23.3280 0.2952 0.9108
-1.1637 -23.5021 0.2973 0.9102
-1.0257 -23.6788 0.2994 0.9095
-0.8857 -23.8581 0.3016 0.9089
-0.5993 -24.2247 0.3061 0.9076
-0.3043 -24.6024 0.3108 0.9063
0.0000 -24.8304 0.3137 0.9054
0.3138 -25.3706 0.3205 0.9035
0.8042 -25.9984 0.3286 0.9012
1.1451 -26.4348 0.3343 0.8996
1.3200 -26.6588 0.3372 0.8987
1.8638 -27.3549 0.3464 0.8961
2.6369 -28.3448 0.3596 0.8924
2.2429 -21.2553 0.2700 0.9181
3.2390 -28.9771 0.3684 0.8899
3.4529 -29.2510 0.3721 0.8889
4.1480 -30.2998 0.3864 0.8848
4.3820 -30.5993 0.3905 0.8837
4.6210 -30.9054 0.3948 0.8825
4.8654 -31.2181 0.3992 0.8813
5.1152 -31.5380 0.4036 0.8800
6.1759 -32.9055 0.4230 0.8747
11.7865 -50.6084 0.6565 0.8123
9.1493 -37.1961 0.4839 0.8579
9.3534 -37.0367 0.4826 0.8583
9.6339 -37.1777 0.4852 0.8576
8.5619 -29.9676 0.3937 0.8828
8.9391 -29.8835 0.3941 0.8827
9.4253 -29.5037 0.3913 0.8835
9.5858 -29.3784 0.3904 0.8837
9.9048 -29.1292 0.3887 0.8842
10.0633 -29.0055 0.3879 0.8844
10.2211 -28.8822 0.3871 0.8847
10.5347 -28.6372 0.3855 0.8851
10.6906 -28.5155 0.3847 0.8853
10.8459 -28.3942 0.3840 0.8855
11.3082 -28.0331 0.3819 0.8861
11.6137 -27.7945 0.3806 0.8865
11.7657 -27.6758 0.3799 0.8867
11.9171 -27.5575 0.3793 0.8868
12.0681 -27.4396 0.3787 0.8870
12.2186 -27.3221 0.3781 0.8872
12.2981 -27.0496 0.3754 0.8879
12.5951 -26.8176 0.3743 0.8882
13.0376 -26.4720 0.3728 0.8887
13.3307 -26.2431 0.3719 0.8889
13.5540 -26.2790 0.3736 0.8884
13.7005 -26.1646 0.3731 0.8886
13.8467 -26.0504 0.3727 0.8887
14.1381 -25.8229 0.3719 0.8889
14.2833 -25.7094 0.3716 0.8890
15.1493 -25.0330 0.3697 0.8895
15.4361 -24.8090 0.3691 0.8897
15.8650 -24.4740 0.3685 0.8899
16.7188 -23.8072 0.3675 0.8901
16.9055 -23.4509 0.3652 0.8908
17.0465 -23.3408 0.3651 0.8908
17.1898 -23.2339 0.3651 0.8908
17.3807 -23.1906 0.3661 0.8905
18.2109 -22.2251 0.3630 0.8914
18.4912 -22.0062 0.3631 0.8914
18.9121 -21.6775 0.3634 0.8913
19.0525 -21.5678 0.3636 0.8913
26.2333 -22.0430 0.4329 0.8719
25.7311 -21.3510 0.4224 0.8748
24.4933 -19.8175 0.3980 0.8816
23.0725 -17.7420 0.3677 0.8901
24.5869 -18.4271 0.3882 0.8843
24.6956 -18.2711 0.3881 0.8844
25.0075 -18.0275 0.3895 0.8840
25.6865 -17.5682 0.3932 0.8829
25.9557 -17.2850 0.3940 0.8827
26.1161 -17.1597 0.3948 0.8825
26.4391 -16.9074 0.3965 0.8820
26.6016 -16.7805 0.3973 0.8818
25.4952 -15.8630 0.3793 0.8868
26.9811 -16.5570 0.3999 0.8811
27.4786 -16.1683 0.4028 0.8803
27.6461 -16.0375 0.4038 0.8800
28.1535 -15.6412 0.4069 0.8791
24.2434 -13.2733 0.3492 0.8953
24.3939 -13.1603 0.3502 0.8950
28.6690 -15.2385 0.4102 0.8782
29.0424 -14.9793 0.4128 0.8775
27.7439 -14.0930 0.3931 0.8830
29.7263 -14.4126 0.4174 0.8762
29.9062 -14.2721 0.4186 0.8759
30.4526 -13.8452 0.4226 0.8747
30.6371 -13.7011 0.4240 0.8744
30.8228 -13.5560 0.4254 0.8740
31.0098 -13.4100 0.4268 0.8736
31.1980 -13.2630 0.4283 0.8732
31.5783 -12.9659 0.4313 0.8724
31.7705 -12.8158 0.4328 0.8719
30.4064 -12.0474 0.4132 0.8774
32.1590 -12.5123 0.4360 0.8711
32.3554 -12.3589 0.4376 0.8706
32.5533 -12.2043 0.4392 0.8702
32.9536 -11.8916 0.4426 0.8692
33.3601 -11.5740 0.4461 0.8683
33.5658 -11.4133 0.4479 0.8678
33.7732 -11.2513 0.4497 0.8673
32.9017 -10.0640 0.4347 0.8714
41.7341 -11.0904 0.5455 0.8414
36.1686 -9.1341 0.4713 0.8614
36.1783 -8.1903 0.4686 0.8621
36.6500 -7.8218 0.4734 0.8608
39.2131 -7.8630 0.5053 0.8522
38.9812 -7.5660 0.5017 0.8531
38.8438 -7.2904 0.4993 0.8538
39.1019 -7.0888 0.5020 0.8530
39.3628 -6.8849 0.5048 0.8523
39.6267 -6.6788 0.5077 0.8515
40.1635 -6.2594 0.5135 0.8499
40.4366 -6.0461 0.5165 0.8491
40.7129 -5.8303 0.5196 0.8483
41.2756 -5.3908 0.5259 0.8466
41.8521 -4.9404 0.5324 0.8449
40.4568 -4.2690 0.5139 0.8498
42.7444 -4.2433 0.5427 0.8421
43.0496 -4.0049 0.5462 0.8412
42.9286 -3.7260 0.5444 0.8417
42.5738 -3.1652 0.5393 0.8430
42.0402 -2.3423 0.5319 0.8450
43.0291 -1.5973 0.5440 0.8418
43.4154 -1.3429 0.5487 0.8405
45.0335 -0.2785 0.5689 0.8351
45.8896 0.2838 0.5798 0.8323
46.7799 0.8680 0.5911 0.8293
47.7068 1.4757 0.6030 0.8262
58.1062 4.3200 0.7361 0.7921
54.1284 4.6981 0.6864 0.8047
53.6388 5.3248 0.6810 0.8060
56.3259 6.6489 0.7165 0.7970
56.7833 7.4161 0.7235 0.7953
57.4793 7.8689 0.7329 0.7929
58.9283 8.8111 0.7527 0.7879
59.6832 9.3017 0.7631 0.7853
60.4597 9.8060 0.7738 0.7827
61.2587 10.3248 0.7848 0.7800
62.0749 10.8576 0.7961 0.7772
63.4111 11.9014 0.8151 0.7725
64.8127 12.9963 0.8351 0.7676
65.5396 13.5642 0.8455 0.7651
66.2850 14.1465 0.8563 0.7625
11.9286 6.3405 0.1707 0.9474
11.7686 6.5382 0.1701 0.9476
11.7155 6.6039 0.1699 0.9476
11.6096 6.7348 0.1696 0.9477
11.5568 6.8000 0.1694 0.9478
11.5041 6.8651 0.1692 0.9478
11.3991 6.9950 0.1690 0.9479
11.3466 7.0598 0.1688 0.9479
11.2943 7.1246 0.1687 0.9480
11.2420 7.1891 0.1686 0.9480
11.0857 7.3824 0.1683 0.9481
10.9817 7.5109 0.1681 0.9482
10.8780 7.6392 0.1679 0.9482
10.7228 7.8312 0.1677 0.9483
10.6711 7.8951 0.1677 0.9483
10.6194 7.9589 0.1677 0.9483
10.5678 8.0228 0.1676 0.9483
10.4646 8.1504 0.1676 0.9483
10.4130 8.2142 0.1676 0.9483
10.3614 8.2779 0.1675 0.9483
10.3098 8.3417 0.1675 0.9483
10.2583 8.4055 0.1675 0.9483
10.1035 8.5968 0.1676 0.9483
13.2588 13.4239 0.2384 0.9273
12.5736 12.8885 0.2275 0.9305
11.0286 11.7326 0.2034 0.9376
13.9542 15.0302 0.2591 0.9212
12.9129 14.8011 0.2481 0.9244
11.9615 14.0579 0.2332 0.9288
11.1182 13.3990 0.2200 0.9327
19.5726 24.4989 0.3962 0.8821
19.2973 24.4629 0.3936 0.8828
14.5827 19.7103 0.3097 0.9066
14.1059 19.8248 0.3074 0.9073
13.7987 19.9097 0.3060 0.9076
13.6069 19.8946 0.3045 0.9081
13.2996 20.2413 0.3060 0.9077
12.5682 19.6536 0.2947 0.9109
9.4645 15.4232 0.2286 0.9302
8.7956 14.9484 0.2191 0.9330
8.6659 14.9385 0.2182 0.9332
8.3905 14.8850 0.2159 0.9339
8.1959 14.9696 0.2156 0.9340
7.2946 13.7237 0.1964 0.9397
7.0560 13.6803 0.1945 0.9403
6.8689 13.5223 0.1916 0.9411
6.5923 13.1789 0.1862 0.9428
6.5045 13.2070 0.1860 0.9428
6.2822 13.1638 0.1843 0.9433
6.1725 13.1425 0.1834 0.9436
6.0452 13.0812 0.1821 0.9440
5.9192 13.2359 0.1832 0.9436
5.7454 13.2858 0.1829 0.9437
5.6428 13.2734 0.1822 0.9439
5.2682 13.2962 0.1807 0.9444
5.1366 13.4476 0.1819 0.9440
5.0662 13.5133 0.1823 0.9439
4.9954 13.5793 0.1828 0.9438
4.8329 13.6567 0.1830 0.9437
4.2064 13.1673 0.1746 0.9462
4.0654 13.0028 0.1721 0.9470
4.0002 13.0778 0.1728 0.9468
3.6606 12.8125 0.1683 0.9481
3.4436 12.6430 0.1655 0.9489
3.1088 12.3098 0.1604 0.9505
2.7026 11.9381 0.1546 0.9522
2.6412 12.0112 0.1554 0.9520
2.2771 11.7317 0.1510 0.9533
2.0176 11.5350 0.1479 0.9542
1.6729 11.1881 0.1429 0.9558
1.3437 9.3829 0.1197 0.9628
1.2760 9.3210 0.1189 0.9631
1.0467 8.8671 0.1128 0.9649
0.8754 8.8180 0.1119 0.9652
0.8160 8.7717 0.1113 0.9654
0.7574 8.7260 0.1107 0.9656
0.6994 8.6808 0.1100 0.9658
0.6421 8.6361 0.1094 0.9660
0.5854 8.5919 0.1088 0.9661
0.5293 8.5482 0.1082 0.9663
0.4671 8.3834 0.1061 0.9670
0.2590 8.3715 0.1058 0.9671
0.1032 8.3412 0.1054 0.9672
0.0000 8.3212 0.1051 0.9673
-0.1021 8.2571 0.1043 0.9675
-0.3115 8.3911 0.1061 0.9670
-0.3641 8.4056 0.1063 0.9669
-0.4169 8.4203 0.1065 0.9668
-0.4700 8.4349 0.1067 0.9668
-0.5232 8.4496 0.1070 0.9667
-0.5767 8.4645 0.1072 0.9666
-0.6304 8.4793 0.1074 0.9666
-0.6844 8.4943 0.1077 0.9665
-0.7930 8.5243 0.1082 0.9663
-0.8938 8.4708 0.1076 0.9665
-1.0163 8.6092 0.1095 0.9659
-1.1394 8.7241 0.1112 0.9654
-1.2024 8.7829 0.1120 0.9652
-1.2663 8.8425 0.1129 0.9649
-1.3328 8.9137 0.1139 0.9646
-1.4033 9.0040 0.1151 0.9642
-1.7016 9.3860 0.1205 0.9626
-1.7806 9.4872 0.1219 0.9621
-1.8615 9.5908 0.1234 0.9617
-1.9331 9.6403 0.1242 0.9614
-1.6444 7.0608 0.0916 0.9714
-2.7538 10.9042 0.1421 0.9560
-2.8584 11.0306 0.1440 0.9554
-2.9792 10.9378 0.1432 0.9557
-3.3688 11.5209 0.1516 0.9531
-3.6240 11.8477 0.1565 0.9516
-3.7579 12.0192 0.1591 0.9509
-3.8962 12.1963 0.1618 0.9501
-4.0393 12.3795 0.1645 0.9492
-4.1873 12.5691 0.1674 0.9484
-4.5451 13.1004 0.1752 0.9460
-4.9046 13.5913 0.1825 0.9438
-5.2354 13.9647 0.1884 0.9421
-5.7793 14.0754 0.1922 0.9409
-6.2805 14.5232 0.1999 0.9387
-6.5252 14.8366 0.2048 0.9372
-7.0523 15.5115 0.2153 0.9341
-7.3366 15.8757 0.2209 0.9324
-7.6364 16.2596 0.2269 0.9307
-8.6423 17.5477 0.2471 0.9247
-9.0186 18.0295 0.2547 0.9225
-9.4186 18.5418 0.2627 0.9202
-9.8449 19.0876 0.2713 0.9177
-10.2999 19.6704 0.2805 0.9150
-11.3093 20.9629 0.3009 0.9091
-12.4772 22.4585 0.3246 0.9023
-13.1329 23.2981 0.3379 0.8985
-13.8446 24.2096 0.3523 0.8944
-14.6201 25.2026 0.3681 0.8900
-15.4681 26.2885 0.3853 0.8851
-8.4736 11.3061 0.1785 0.9450
-53.3494 9.6717 0.6850 0.8050
-53.0416 9.2775 0.6803 0.8062
-52.4382 8.5049 0.6711 0.8086
-51.8509 7.7528 0.6623 0.8108
-51.5629 7.3840 0.6581 0.8119
-51.2786 7.0200 0.6539 0.8130
-50.9979 6.6605 0.6498 0.8140
-50.7207 6.3055 0.6457 0.8151
-50.4147 4.6901 0.6397 0.8166
-50.7769 4.4073 0.6439 0.8156
-51.1439 4.1206 0.6482 0.8144
-50.8263 3.4629 0.6436 0.8156
-50.3110 2.8031 0.6366 0.8174
-50.0576 2.4785 0.6332 0.8183
-46.9292 1.4515 0.5932 0.8288
-46.4695 0.8622 0.5872 0.8303
-46.2431 0.5720 0.5843 0.8311
-45.9396 0.0000 0.2393 0.8321
-45.5786 -0.2819 0.2374 0.8333
-44.9462 -1.1121 0.2342 0.8354
-43.8890 -2.4453 0.2289 0.8388
-43.9905 -2.7240 0.2296 0.8384
-44.3737 -3.0232 0.2316 0.8370
-45.0746 -3.3512 0.2354 0.8346
-45.1616 -3.6386 0.2360 0.8342
-42.7115 -3.9735 0.2234 0.8423
-42.5744 -4.2264 0.2228 0.8427
-42.9683 -4.5341 0.2250 0.8413
-44.0621 -5.2013 0.2311 0.8374
-38.8537 -4.8303 0.2039 0.8550
-38.4966 -5.5129 0.2026 0.8559
-34.2083 -5.5483 0.1805 0.8706
-34.2932 -5.7799 0.1811 0.8701
-37.6579 -6.5868 0.1991 0.8582
-36.8464 -7.6258 0.1960 0.8603
-36.6871 -7.8297 0.1954 0.8607
-36.5288 -8.0325 0.1948 0.8610
-36.3714 -8.2340 0.1942 0.8614
-36.2150 -8.4343 0.1937 0.8618
-33.5298 -8.0279 0.1796 0.8712
-33.2290 -8.3918 0.1785 0.8719
-33.0800 -8.5721 0.1780 0.8722
-32.9319 -8.7514 0.1775 0.8726
-32.7845 -8.9297 0.1770 0.8729
-32.4923 -9.2832 0.1760 0.8736
-32.0598 -9.8065 0.1746 0.8745
-31.9171 -9.9791 0.1742 0.8748
-31.7752 -10.1509 0.1737 0.8751
-31.6339 -10.3218 0.1733 0.8754
-31.4934 -10.4919 0.1729 0.8757
-31.3535 -10.6611 0.1725 0.8759
-30.9377 -11.1642 0.1713 0.8767
-30.6636 -11.4959 0.1706 0.8772
-30.5274 -11.6607 0.1702 0.8775
-30.3918 -11.8248 0.1698 0.8777
-30.2567 -11.9882 0.1695 0.8779
-29.5892 -12.7957 0.1679 0.8790
-29.3256 -13.1146 0.1673 0.8794
-29.0638 -13.4313 0.1668 0.8798
-28.8038 -13.7460 0.1662 0.8801
-28.5453 -14.0587 0.1657 0.8805
-28.4167 -14.2144 0.1655 0.8806
-28.1605 -14.5244 0.1650 0.8810
-27.9056 -14.8328 0.1646 0.8813
-27.7787 -14.9863 0.1644 0.8814
-27.1485 -15.7489 0.1635 0.8820
-27.0232 -15.9004 0.1633 0.8821
-26.8983 -16.0516 0.1631 0.8822
-26.7735 -16.2026 0.1630 0.8823
-26.6490 -16.3532 0.1628 0.8824
-26.2769 -16.8038 0.1625 0.8827
-25.9064 -17.2522 0.1621 0.8829
-25.7832 -17.4013 0.1620 0.8830
-25.6601 -17.5502 0.1619 0.8831
-25.5372 -17.6989 0.1618 0.8831
-25.4144 -17.8475 0.1617 0.8832
-25.2917 -17.9959 0.1617 0.8832
-24.9243 -18.4404 0.1615 0.8834
-24.5577 -18.8841 0.1613 0.8835
-24.4356 -19.0318 0.1613 0.8835
-24.3135 -19.1795 0.1613 0.8835
-24.1915 -19.3271 0.1613 0.8835
-23.7036 -19.9175 0.1613 0.8835
-23.3375 -20.3604 0.1613 0.8835
-19.3934 -17.1318 0.1348 0.9017
-22.7264 -21.0995 0.1615 0.8833
-22.4815 -21.3959 0.1616 0.8833
-22.1132 -21.8414 0.1619 0.8831
-20.0801 -20.5831 0.1498 0.8913
-19.5496 -20.7976 0.1487 0.8921
-19.3744 -20.8684 0.1483 0.8923
-19.2001 -20.9388 0.1480 0.8926
-18.8539 -21.0788 0.1473 0.8930
-18.3403 -21.2864 0.1463 0.8937
-18.0014 -21.4234 0.1457 0.8941
-17.6653 -21.5593 0.1452 0.8945
-16.8361 -21.8945 0.1438 0.8954
-16.6720 -21.9608 0.1436 0.8956
-16.3454 -22.0928 0.1431 0.8959
-16.0210 -22.2240 0.1427 0.8962
-15.3779 -22.4840 0.1419 0.8968
-15.1993 -23.7679 0.1469 0.8933
-15.4195 -24.4441 0.1505 0.8908
-15.2514 -24.5121 0.1504 0.8909
-15.0835 -24.5800 0.1502 0.8910
-14.7489 -24.7153 0.1499 0.8913
-14.4155 -24.8500 0.1496 0.8914
-14.2493 -24.9172 0.1495 0.8915
-14.0833 -24.9843 0.1494 0.8916
-13.9176 -25.0512 0.1493 0.8917
-13.7522 -25.1181 0.1491 0.8918
-13.5870 -25.1849 0.1490 0.8918
-13.4220 -25.2516 0.1489 0.8919
-13.2573 -25.3182 0.1489 0.8920
-12.9284 -25.4511 0.1487 0.8921
-12.2725 -25.7163 0.1484 0.8923
-11.9454 -25.8485 0.1483 0.8923
-10.8696 -24.3057 0.1387 0.8990
-10.7169 -24.3674 0.1386 0.8990
-10.5642 -24.4291 0.1386 0.8990
-10.4116 -24.4908 0.1386 0.8990
-9.7419 -24.5876 0.1377 0.8996
-9.4386 -24.7102 0.1378 0.8996
-9.3435 -24.9225 0.1386 0.8990
-9.0381 -25.0461 0.1387 0.8990
-8.4265 -25.2939 0.1389 0.8988
-7.9664 -25.4799 0.1390 0.8987
-7.6590 -25.6042 0.1392 0.8986
-7.5049 -25.6662 0.1393 0.8986
-7.3506 -25.7283 0.1394 0.8985
-7.1526 -25.6343 0.1386 0.8990
-6.9990 -25.6964 0.1387 0.8989
-5.5889 -22.1306 0.1189 0.9127
-5.4091 -21.9905 0.1179 0.9134
-5.0577 -21.7169 0.1161 0.9147
-4.8861 -21.5832 0.1153 0.9153
-4.7170 -21.4515 0.1144 0.9159
-4.3863 -21.1939 0.1127 0.9171
-4.2245 -21.0679 0.1119 0.9176
-4.0651 -20.9438 0.1111 0.9182
-3.9078 -20.8213 0.1103 0.9188
-3.7786 -20.8429 0.1103 0.9188
-3.6246 -20.7226 0.1096 0.9193
-3.4726 -20.6039 0.1088 0.9198
-3.3380 -20.5813 0.1086 0.9200
-3.1192 -20.8615 0.1099 0.9191
-3.0246 -21.1211 0.1111 0.9182
-2.9113 -21.2662 0.1118 0.9177
-2.3234 -22.0188 0.1153 0.9152
-2.2013 -22.1751 0.1161 0.9147
-2.0777 -22.3335 0.1168 0.9142
-1.6967 -22.8212 0.1192 0.9125
-1.5662 -22.9883 0.1200 0.9120
-1.4339 -23.1577 0.1208 0.9114
-1.2998 -23.3294 0.1217 0.9108
-1.1637 -23.5036 0.1226 0.9102
-1.0257 -23.6803 0.1235 0.9095
-0.8857 -23.8596 0.1244 0.9089
-0.4529 -24.4137 0.1272 0.9069
-0.1523 -24.6370 0.1283 0.9061
0.1550 -25.0535 0.1305 0.9046
0.3139 -25.3723 0.1322 0.9035
0.4746 -25.5781 0.1332 0.9027
0.9733 -26.2165 0.1366 0.9004
1.1452 -26.4367 0.1378 0.8996
