ply
format ascii 1.0
element vertex 1537
property float32 x
property float32 y
property float32 z
property float32 I
end_header
-0.1617 8.7172 -1.1919 0.9654
-0.2168 8.7614 -1.1981 0.9652
-0.3286 8.8510 -1.2108 0.9649
-0.3857 8.9050 -1.2185 0.9647
-0.5231 7.0364 -0.9645 0.9719
-0.5667 7.0345 -0.9647 0.9719
-0.6584 7.0774 -0.9717 0.9717
-1.0124 9.5940 -1.3188 0.9618
-1.0710 9.5815 -1.3180 0.9618
-1.1716 9.9253 -1.3662 0.9605
-1.2438 10.0046 -1.3782 0.9601
-1.3139 10.0603 -1.3869 0.9599
-1.6244 10.4231 -1.4420 0.9583
-1.7694 10.4983 -1.4554 0.9579
-2.1083 10.8624 -1.5126 0.9563
-2.1674 10.8088 -1.5070 0.9565
-2.3649 11.0810 -1.5489 0.9553
-2.6550 11.3999 -1.6001 0.9538
-2.7560 11.5109 -1.6180 0.9533
-2.9650 11.7407 -1.6554 0.9523
-3.1839 11.9814 -1.6947 0.9512
-3.5327 12.3647 -1.7579 0.9494
-3.8496 12.8694 -1.8363 0.9472
-4.6433 13.6556 -1.9717 0.9434
-4.7151 13.5904 -1.9665 0.9436
-4.9125 13.8815 -2.0129 0.9423
-5.0853 13.8238 -2.0135 0.9423
-5.2301 13.6924 -2.0037 0.9425
-5.3145 13.6593 -2.0036 0.9425
-5.4872 13.8492 -2.0364 0.9416
-5.8503 14.2482 -2.1055 0.9397
-6.0412 14.4581 -2.1420 0.9387
-6.8731 16.1672 -2.4015 0.9315
-6.9717 16.1216 -2.4011 0.9315
-7.0700 16.0753 -2.4006 0.9316
-7.2656 15.9808 -2.3998 0.9316
-7.3599 14.7135 -2.2489 0.9357
-7.9396 15.6302 -2.3965 0.9317
-7.8175 15.1569 -2.3313 0.9335
-7.8312 14.3036 -2.2292 0.9363
-8.2107 14.7790 -2.3111 0.9340
-7.8673 13.7573 -2.1664 0.9380
-8.7799 15.1351 -2.3919 0.9318
-9.1432 14.8996 -2.3897 0.9319
-8.7233 13.8288 -2.2351 0.9361
-9.4112 14.7169 -2.3880 0.9319
-9.4998 14.6549 -2.3874 0.9319
-9.5879 14.5922 -2.3868 0.9319
-9.8495 14.4010 -2.3850 0.9320
-9.9359 14.3362 -2.3844 0.9320
-10.0218 14.2708 -2.3838 0.9320
-7.6426 10.7410 -1.8021 0.9482
-10.1922 14.1384 -2.3826 0.9321
-10.3608 14.0038 -2.3813 0.9321
-10.4444 13.9358 -2.3807 0.9321
-10.6102 13.7980 -2.3794 0.9321
-10.6924 13.7283 -2.3787 0.9322
-10.7741 13.6582 -2.3781 0.9322
-10.8553 13.5875 -2.3774 0.9322
-10.9361 13.5163 -2.3767 0.9322
-11.0163 13.4446 -2.3761 0.9322
-11.1754 13.2997 -2.3747 0.9323
-11.3324 13.1528 -2.3733 0.9323
-11.5642 12.9288 -2.3712 0.9324
-11.7911 12.7003 -2.3690 0.9324
-11.0709 11.6326 -2.1952 0.9372
-10.4399 10.8347 -2.0568 0.9411
-10.3136 10.3136 -1.9939 0.9428
-10.3337 10.2067 -1.9855 0.9430
-10.4058 10.1516 -1.9873 0.9430
-10.6927 9.9273 -1.9945 0.9428
-11.7926 10.5479 -2.1628 0.9381
-12.9822 11.3261 -2.3551 0.9328
-13.0476 11.2418 -2.3543 0.9328
-13.1767 11.0720 -2.3527 0.9329
-13.3035 10.9007 -2.3511 0.9329
-13.3660 10.8145 -2.3503 0.9329
-13.4280 10.7279 -2.3495 0.9330
-13.4894 10.6409 -2.3487 0.9330
-14.7223 10.8924 -2.5035 0.9287
-14.8453 10.7018 -2.5017 0.9288
-14.9656 10.5097 -2.4999 0.9288
-15.1988 10.1215 -2.4962 0.9289
-15.3114 9.9254 -2.4944 0.9290
-15.3668 9.8269 -2.4935 0.9290
-15.4756 9.6289 -2.4916 0.9291
-15.6338 9.3295 -2.4888 0.9291
-15.6853 9.2292 -2.4878 0.9292
-15.7361 9.1285 -2.4869 0.9292
-15.7862 9.0276 -2.4859 0.9292
-15.8844 8.8249 -2.4840 0.9293
-15.9325 8.7231 -2.4831 0.9293
-15.9800 8.6210 -2.4821 0.9293
-16.0729 8.4162 -2.4802 0.9294
-16.1631 8.2103 -2.4782 0.9294
-16.2072 8.1071 -2.4773 0.9295
-16.2934 7.8997 -2.4753 0.9295
-16.3354 7.7958 -2.4743 0.9295
-16.3768 7.6915 -2.4733 0.9296
-16.4576 7.4824 -2.4714 0.9296
-16.4970 7.3775 -2.4704 0.9296
-16.5356 7.2725 -2.4694 0.9297
-16.6110 7.0617 -2.4674 0.9297
-16.7188 6.7442 -2.4644 0.9298
-16.9465 5.9972 -2.4574 0.9300
-17.0337 5.6747 -2.4543 0.9301
-17.0884 5.4591 -2.4523 0.9301
-17.1404 5.2429 -2.4503 0.9302
-17.2583 4.7006 -2.4452 0.9303
-17.2797 4.5919 -2.4441 0.9304
-17.3005 4.4831 -2.4431 0.9304
-17.3588 4.1561 -2.4400 0.9305
-17.3942 3.9378 -2.4380 0.9305
-17.4421 3.6098 -2.4349 0.9306
-17.4838 3.2814 -2.4318 0.9307
-17.5082 3.0624 -2.4297 0.9308
-17.5193 2.9528 -2.4287 0.9308
-17.5298 2.8432 -2.4277 0.9308
-17.5487 2.6239 -2.4256 0.9309
-17.5571 2.5142 -2.4246 0.9309
-17.5718 2.2949 -2.4225 0.9310
-17.5839 2.0757 -2.4204 0.9310
-17.5997 1.6373 -2.4163 0.9311
-17.6035 1.4183 -2.4142 0.9312
-17.6045 1.3088 -2.4132 0.9312
-17.6047 1.1994 -2.4122 0.9312
-17.6013 0.8715 -2.4091 0.9313
-17.5957 0.6531 -2.4070 0.9314
-17.5822 0.3262 -2.4039 0.9315
-17.5764 0.2174 -2.4029 0.9315
-17.5699 0.1086 -2.4019 0.9315
-16.6339 -0.1029 -2.3999 0.9350
-16.6262 -0.2056 -2.3989 0.9350
-16.5670 -0.8203 -2.3931 0.9352
-16.5550 -0.9224 -2.3921 0.9352
-16.5423 -1.0243 -2.3912 0.9352
-16.5290 -1.1262 -2.3902 0.9352
-16.5151 -1.2279 -2.3892 0.9353
-16.4533 -1.6334 -2.3854 0.9354
-16.4187 -1.8353 -2.3835 0.9354
-16.4005 -1.9360 -2.3826 0.9354
-16.3817 -2.0366 -2.3816 0.9355
-16.3623 -2.1370 -2.3807 0.9355
-16.3422 -2.2372 -2.3797 0.9355
-16.3216 -2.3374 -2.3788 0.9355
-16.3004 -2.4373 -2.3778 0.9356
-16.2786 -2.5370 -2.3769 0.9356
-16.2561 -2.6366 -2.3760 0.9356
-16.2331 -2.7360 -2.3750 0.9356
-16.1853 -2.9342 -2.3731 0.9357
-16.1350 -3.1318 -2.3713 0.9357
-16.1091 -3.2302 -2.3704 0.9358
-16.0554 -3.4266 -2.3685 0.9358
-16.0276 -3.5244 -2.3676 0.9358
-15.9993 -3.6220 -2.3667 0.9359
-15.9703 -3.7194 -2.3657 0.9359
-15.8489 -4.1070 -2.3621 0.9360
-15.8171 -4.2033 -2.3612 0.9360
-15.7848 -4.2994 -2.3603 0.9360
-15.7519 -4.3952 -2.3594 0.9360
-15.6497 -4.6813 -2.3567 0.9361
-15.6145 -4.7762 -2.3558 0.9361
-15.5056 -5.0593 -2.3531 0.9362
-15.4682 -5.1531 -2.3522 0.9362
-15.3917 -5.3401 -2.3504 0.9363
-15.3130 -5.5259 -2.3487 0.9363
-15.2322 -5.7106 -2.3469 0.9364
-15.1492 -5.8942 -2.3452 0.9364
-15.1069 -5.9856 -2.3443 0.9364
-14.9324 -6.3482 -2.3409 0.9365
-14.8420 -6.5276 -2.3392 0.9366
-14.7960 -6.6169 -2.3384 0.9366
-14.7025 -6.7945 -2.3367 0.9366
-14.6069 -6.9709 -2.3350 0.9367
-14.4598 -7.2329 -2.3326 0.9367
-14.3591 -7.4061 -2.3309 0.9368
-14.2045 -7.6632 -2.3285 0.9369
-14.0989 -7.8329 -2.3269 0.9369
-13.9913 -8.0012 -2.3253 0.9369
-13.9369 -8.0848 -2.3245 0.9370
-13.7706 -8.3336 -2.3222 0.9370
-13.7142 -8.4157 -2.3214 0.9370
-13.6573 -8.4976 -2.3206 0.9371
-13.6000 -8.5790 -2.3199 0.9371
-13.5422 -8.6601 -2.3191 0.9371
-13.3065 -8.9807 -2.3161 0.9372
-13.1859 -9.1387 -2.3146 0.9372
-13.1249 -9.2171 -2.3138 0.9372
-12.8134 -9.6033 -2.3102 0.9373
-12.4912 -9.9794 -2.3066 0.9374
-12.3593 -10.1271 -2.3052 0.9375
-12.0906 -10.4173 -2.3025 0.9375
-11.9539 -10.5599 -2.3011 0.9376
-11.8849 -10.6305 -2.3005 0.9376
-11.6050 -10.9087 -2.2978 0.9377
-11.3190 -11.1799 -2.2953 0.9377
-11.1006 -11.3787 -2.2934 0.9378
-11.0270 -11.4440 -2.2928 0.9378
-10.9531 -11.5089 -2.2922 0.9378
-10.8788 -11.5733 -2.2916 0.9378
-10.7292 -11.7008 -2.2904 0.9379
-10.6539 -11.7639 -2.2898 0.9379
-10.5021 -11.8887 -2.2886 0.9379
-10.3490 -12.0115 -2.2874 0.9379
-10.2720 -12.0723 -2.2868 0.9379
-10.1946 -12.1326 -2.2863 0.9380
-10.1169 -12.1924 -2.2857 0.9380
-10.0388 -12.2517 -2.2852 0.9380
-9.9604 -12.3105 -2.2846 0.9380
-9.8027 -12.4268 -2.2835 0.9380
-9.6436 -12.5411 -2.2824 0.9381
-9.5637 -12.5976 -2.2819 0.9381
-9.4834 -12.6535 -2.2814 0.9381
-9.0774 -12.9261 -2.2788 0.9382
-8.8302 -13.0837 -2.2773 0.9382
-8.5805 -13.2368 -2.2758 0.9382
-8.3283 -13.3854 -2.2744 0.9383
-7.9883 -13.5765 -2.2726 0.9383
-7.9027 -13.6230 -2.2722 0.9383
-7.6443 -13.7594 -2.2709 0.9384
-7.5576 -13.8039 -2.2705 0.9384
-7.3836 -13.8912 -2.2696 0.9384
-7.2087 -13.9765 -2.2688 0.9384
-7.1209 -14.0184 -2.2684 0.9384
-7.0328 -14.0598 -2.2680 0.9384
-6.7674 -14.1806 -2.2669 0.9385
-6.6785 -14.2199 -2.2665 0.9385
-6.5000 -14.2968 -2.2658 0.9385
-6.4104 -14.3345 -2.2654 0.9385
-6.2307 -14.4082 -2.2647 0.9385
-6.1406 -14.4442 -2.2644 0.9385
-6.0502 -14.4798 -2.2641 0.9385
-5.9597 -14.5148 -2.2637 0.9386
-5.8690 -14.5493 -2.2634 0.9386
-5.6870 -14.6166 -2.2628 0.9386
-5.5957 -14.6498 -2.2624 0.9386
-5.5043 -14.6818 -2.2621 0.9386
-5.4126 -14.7136 -2.2618 0.9386
-5.2289 -14.7756 -2.2612 0.9386
-5.1367 -14.8058 -2.2610 0.9386
-4.9520 -14.8645 -2.2604 0.9386
-4.7667 -14.9210 -2.2599 0.9387
-4.6737 -14.9485 -2.2596 0.9387
-4.5807 -14.9755 -2.2593 0.9387
-4.4875 -15.0018 -2.2591 0.9387
-4.3942 -15.0277 -2.2589 0.9387
-4.3007 -15.0529 -2.2586 0.9387
-4.1133 -15.1019 -2.2581 0.9387
-3.9254 -15.1486 -2.2577 0.9387
-3.7371 -15.1931 -2.2573 0.9387
-3.4537 -15.2558 -2.2567 0.9387
-3.2642 -15.2949 -2.2563 0.9388
-3.1693 -15.3135 -2.2561 0.9388
-3.0743 -15.3317 -2.2560 0.9388
-2.9792 -15.3493 -2.2558 0.9388
-2.8840 -15.3663 -2.2556 0.9388
-2.6934 -15.3986 -2.2553 0.9388
-2.1195 -15.4825 -2.2545 0.9388
-1.6394 -15.5370 -2.2540 0.9388
-1.5433 -15.5462 -2.2539 0.9388
-1.4471 -15.5549 -2.2538 0.9388
-1.3508 -15.5630 -2.2537 0.9388
-1.2545 -15.5705 -2.2537 0.9388
-1.1581 -15.5775 -2.2536 0.9388
-1.0617 -15.5840 -2.2535 0.9388
-0.9653 -15.5898 -2.2535 0.9388
-0.8689 -15.5951 -2.2534 0.9388
-0.6759 -15.6041 -2.2533 0.9388
-0.5794 -15.6078 -2.2533 0.9388
-0.3863 -15.6133 -2.2532 0.9388
-0.2897 -15.6152 -2.2532 0.9388
-0.1932 -15.6166 -2.2532 0.9388
0.0966 -15.6174 -2.2532 0.9388
0.3863 -15.6132 -2.2532 0.9388
0.6759 -15.6039 -2.2533 0.9388
0.7724 -15.5997 -2.2533 0.9388
1.2545 -15.5702 -2.2536 0.9388
1.5433 -15.5457 -2.2538 0.9388
1.6394 -15.5365 -2.2539 0.9388
1.7356 -15.5267 -2.2540 0.9388
1.8316 -15.5163 -2.2541 0.9388
1.9276 -15.5054 -2.2542 0.9388
2.0236 -15.4939 -2.2543 0.9388
2.2153 -15.4692 -2.2545 0.9388
2.5978 -15.4133 -2.2551 0.9388
2.7886 -15.3820 -2.2554 0.9388
2.8839 -15.3655 -2.2555 0.9388
3.0741 -15.3308 -2.2558 0.9388
3.3588 -15.2747 -2.2564 0.9387
3.5481 -15.2345 -2.2567 0.9387
3.7369 -15.1921 -2.2571 0.9387
3.8311 -15.1701 -2.2573 0.9387
4.0192 -15.1244 -2.2578 0.9387
4.2068 -15.0765 -2.2582 0.9387
4.3004 -15.0518 -2.2584 0.9387
4.3938 -15.0265 -2.2587 0.9387
4.4872 -15.0006 -2.2589 0.9387
4.5803 -14.9742 -2.2592 0.9387
4.7663 -14.9198 -2.2597 0.9387
4.8590 -14.8917 -2.2599 0.9387
4.9516 -14.8632 -2.2602 0.9386
5.1363 -14.8044 -2.2607 0.9386
5.2284 -14.7742 -2.2610 0.9386
5.5952 -14.6480 -2.2622 0.9386
5.6864 -14.6151 -2.2625 0.9386
5.8684 -14.5478 -2.2632 0.9386
6.1399 -14.4427 -2.2641 0.9385
6.3200 -14.3699 -2.2648 0.9385
6.4097 -14.3328 -2.2652 0.9385
6.4992 -14.2951 -2.2655 0.9385
6.8553 -14.1391 -2.2670 0.9385
7.3827 -13.8894 -2.2693 0.9384
7.5566 -13.8020 -2.2701 0.9384
7.6432 -13.7575 -2.2706 0.9384
7.7296 -13.7125 -2.2710 0.9384
7.9872 -13.5745 -2.2723 0.9383
8.2425 -13.4320 -2.2736 0.9383
8.3271 -13.3834 -2.2741 0.9383
8.4114 -13.3344 -2.2745 0.9383
8.5792 -13.2347 -2.2755 0.9382
8.7459 -13.1331 -2.2764 0.9382
8.9938 -12.9770 -2.2779 0.9382
9.0759 -12.9239 -2.2784 0.9382
9.3204 -12.7619 -2.2799 0.9381
9.4818 -12.6514 -2.2810 0.9381
9.6420 -12.5389 -2.2820 0.9381
9.8010 -12.4246 -2.2831 0.9380
10.1150 -12.1901 -2.2853 0.9380
10.3471 -12.0093 -2.2870 0.9379
10.5002 -11.8864 -2.2881 0.9379
10.5762 -11.8243 -2.2887 0.9379
10.6518 -11.7616 -2.2893 0.9379
10.8767 -11.5711 -2.2911 0.9378
10.9510 -11.5066 -2.2917 0.9378
11.0248 -11.4417 -2.2923 0.9378
11.0984 -11.3764 -2.2929 0.9378
11.1715 -11.3106 -2.2936 0.9378
11.2443 -11.2443 -2.2942 0.9378
11.3167 -11.1776 -2.2948 0.9377
11.3888 -11.1105 -2.2954 0.9377
11.5317 -10.9749 -2.2967 0.9377
11.6731 -10.8375 -2.2980 0.9377
12.0199 -10.4865 -2.3013 0.9376
12.1558 -10.3430 -2.3027 0.9375
12.3566 -10.1248 -2.3047 0.9375
12.4883 -9.9772 -2.3061 0.9374
12.5536 -9.9028 -2.3068 0.9374
12.6185 -9.8279 -2.3075 0.9374
12.6829 -9.7528 -2.3082 0.9374
12.7469 -9.6771 -2.3089 0.9374
12.8105 -9.6011 -2.3096 0.9373
12.9363 -9.4478 -2.3111 0.9373
12.9986 -9.3705 -2.3118 0.9373
13.1828 -9.1365 -2.3140 0.9372
13.3033 -8.9785 -2.3155 0.9372
13.3629 -8.8989 -2.3163 0.9372
13.4220 -8.8190 -2.3170 0.9372
13.5389 -8.6580 -2.3185 0.9371
13.5967 -8.5769 -2.3193 0.9371
13.6540 -8.4955 -2.3201 0.9371
13.7108 -8.4137 -2.3208 0.9371
13.7671 -8.3314 -2.3216 0.9370
13.8784 -8.1661 -2.3232 0.9370
13.9878 -7.9992 -2.3247 0.9370
14.0953 -7.8309 -2.3263 0.9369
14.1483 -7.7462 -2.3271 0.9369
14.2529 -7.5759 -2.3287 0.9368
14.3044 -7.4902 -2.3295 0.9368
14.3554 -7.4042 -2.3303 0.9368
14.5055 -7.1441 -2.3328 0.9367
14.5546 -7.0567 -2.3336 0.9367
14.6986 -6.7927 -2.3361 0.9367
14.7921 -6.6151 -2.3378 0.9366
14.8835 -6.4363 -2.3394 0.9366
14.9284 -6.3465 -2.3403 0.9365
14.9728 -6.2563 -2.3411 0.9365
15.0167 -6.1658 -2.3420 0.9365
15.1028 -5.9840 -2.3437 0.9365
15.1451 -5.8926 -2.3446 0.9364
15.1868 -5.8010 -2.3454 0.9364
15.3874 -5.3386 -2.3498 0.9363
15.4259 -5.2453 -2.3507 0.9363
15.4639 -5.1517 -2.3515 0.9362
15.5013 -5.0579 -2.3524 0.9362
15.6101 -4.7748 -2.3551 0.9362
15.6452 -4.6800 -2.3560 0.9361
15.6799 -4.5849 -2.3569 0.9361
15.7139 -4.4896 -2.3578 0.9361
15.7474 -4.3939 -2.3587 0.9361
15.7803 -4.2981 -2.3596 0.9360
15.8444 -4.1058 -2.3614 0.9360
15.8756 -4.0093 -2.3623 0.9360
15.9062 -3.9125 -2.3632 0.9359
16.0507 -3.4255 -2.3678 0.9358
16.0778 -3.3275 -2.3687 0.9358
16.1304 -3.1309 -2.3706 0.9358
16.2284 -2.7352 -2.3743 0.9357
16.2514 -2.6358 -2.3752 0.9356
16.2738 -2.5363 -2.3762 0.9356
16.3374 -2.2366 -2.3790 0.9355
16.4138 -1.8347 -2.3828 0.9354
16.4314 -1.7339 -2.3838 0.9354
16.4484 -1.6329 -2.3847 0.9354
16.4957 -1.3291 -2.3876 0.9353
16.5500 -0.9221 -2.3914 0.9352
16.5621 -0.8201 -2.3924 0.9352
16.5843 -0.6157 -2.3943 0.9351
16.6040 -0.4108 -2.3962 0.9351
16.6130 -0.3083 -2.3972 0.9351
16.6289 -0.1029 -2.3991 0.9350
16.6360 -0.0000 -2.4001 0.9350
16.6424 0.1029 -2.4011 0.9350
16.6533 0.3090 -2.4030 0.9349
16.6617 0.5153 -2.4050 0.9349
16.6649 0.6186 -2.4059 0.9348
16.6715 1.0323 -2.4098 0.9347
16.6715 1.1359 -2.4108 0.9347
16.6679 1.4467 -2.4137 0.9346
16.6653 1.5504 -2.4147 0.9346
16.6622 1.6540 -2.4157 0.9346
16.6583 1.7578 -2.4167 0.9345
16.6539 1.8615 -2.4176 0.9345
16.6488 1.9653 -2.4186 0.9345
16.6367 2.1728 -2.4206 0.9344
16.6220 2.3803 -2.4225 0.9344
16.6136 2.4841 -2.4235 0.9344
16.6047 2.5878 -2.4245 0.9343
16.5738 2.8989 -2.4274 0.9343
16.5500 3.1062 -2.4294 0.9342
16.5236 3.3133 -2.4313 0.9342
16.5094 3.4168 -2.4323 0.9341
16.4946 3.5202 -2.4333 0.9341
16.4791 3.6236 -2.4343 0.9341
16.4630 3.7270 -2.4352 0.9341
16.4462 3.8302 -2.4362 0.9340
16.4288 3.9334 -2.4372 0.9340
16.3525 4.3455 -2.4411 0.9339
16.2658 4.7562 -2.4450 0.9338
16.1161 5.3690 -2.4507 0.9337
16.0611 5.5722 -2.4527 0.9336
16.0325 5.6737 -2.4536 0.9336
16.0034 5.7749 -2.4546 0.9336
15.9736 5.8761 -2.4555 0.9335
15.9431 5.9771 -2.4565 0.9335
15.8803 6.1786 -2.4584 0.9335
15.8478 6.2791 -2.4593 0.9334
15.8148 6.3795 -2.4603 0.9334
15.7118 6.6794 -2.4631 0.9333
15.6399 6.8785 -2.4650 0.9333
15.5272 7.1756 -2.4678 0.9332
15.4884 7.2742 -2.4687 0.9332
15.4490 7.3726 -2.4696 0.9332
15.3681 7.5688 -2.4715 0.9331
15.3267 7.6666 -2.4724 0.9331
15.2421 7.8614 -2.4743 0.9330
15.0651 8.2481 -2.4779 0.9329
15.0193 8.3442 -2.4788 0.9329
14.9258 8.5355 -2.4806 0.9329
14.8299 8.7258 -2.4824 0.9328
14.7809 8.8205 -2.4833 0.9328
14.7314 8.9150 -2.4842 0.9328
14.6812 9.0091 -2.4851 0.9328
14.5791 9.1966 -2.4869 0.9327
14.5270 9.2898 -2.4877 0.9327
14.4744 9.3828 -2.4886 0.9327
14.3673 9.5678 -2.4904 0.9326
14.3129 9.6598 -2.4912 0.9326
14.1459 9.9340 -2.4938 0.9325
14.0316 10.1152 -2.4955 0.9325
13.9149 10.2949 -2.4972 0.9324
13.6743 10.6503 -2.5006 0.9323
13.6127 10.7382 -2.5014 0.9323
13.5505 10.8257 -2.5022 0.9323
13.3285 10.7841 -2.4735 0.9331
13.2323 10.8424 -2.4681 0.9332
13.0447 10.9611 -2.4582 0.9335
12.2674 10.7024 -2.3487 0.9363
12.2048 10.7814 -2.3494 0.9363
11.9494 11.0940 -2.3524 0.9362
11.8186 11.2479 -2.3539 0.9362
11.7524 11.3242 -2.3546 0.9362
11.6857 11.4001 -2.3553 0.9362
11.4826 11.6254 -2.3574 0.9361
11.3446 11.7736 -2.3588 0.9361
11.2749 11.8470 -2.3595 0.9360
11.2047 11.9200 -2.3602 0.9360
11.1341 11.9925 -2.3609 0.9360
11.0628 12.0646 -2.3616 0.9360
10.9190 12.2075 -2.3629 0.9360
10.6264 12.4888 -2.3658 0.9359
10.5518 12.5576 -2.3664 0.9359
10.4767 12.6259 -2.3670 0.9358
10.3251 12.7611 -2.3682 0.9358
10.2486 12.8280 -2.3688 0.9358
10.0943 12.9604 -2.3700 0.9358
9.8602 13.1563 -2.3720 0.9357
9.7020 13.2844 -2.3733 0.9357
9.6222 13.3476 -2.3739 0.9357
9.4612 13.4726 -2.3751 0.9356
9.3801 13.5342 -2.3757 0.9356
9.1341 13.7160 -2.3775 0.9356
8.9680 13.8345 -2.3786 0.9355
8.8844 13.8929 -2.3792 0.9355
8.7160 14.0083 -2.3803 0.9355
8.4603 14.1772 -2.3819 0.9355
8.2880 14.2871 -2.3829 0.9354
8.2013 14.3412 -2.3835 0.9354
6.1728 11.9680 -1.9428 0.9470
5.3934 10.6175 -1.7181 0.9530
5.0679 10.6194 -1.6976 0.9536
4.0904 9.6217 -1.5084 0.9586
3.9725 9.6750 -1.5089 0.9586
3.7505 9.8187 -1.5164 0.9584
3.7013 9.8726 -1.5211 0.9583
3.6020 9.9816 -1.5310 0.9580
3.5013 10.0920 -1.5411 0.9577
3.4505 10.1477 -1.5463 0.9576
3.2959 10.3173 -1.5626 0.9572
3.1910 10.4323 -1.5739 0.9569
3.1380 10.4905 -1.5797 0.9567
3.0846 10.5491 -1.5857 0.9566
3.0308 10.6081 -1.5917 0.9564
2.9219 10.7275 -1.6041 0.9561
2.8668 10.7879 -1.6104 0.9559
2.8113 10.8488 -1.6169 0.9557
2.6420 11.0347 -1.6370 0.9552
1.9872 9.0372 -1.3350 0.9633
1.8033 8.9933 -1.3233 0.9636
1.6589 8.8385 -1.2974 0.9643
1.5964 8.8056 -1.2911 0.9645
1.4329 8.5018 -1.2439 0.9658
1.3258 8.5071 -1.2421 0.9658
1.1031 8.4465 -1.2289 0.9662
1.0482 8.4315 -1.2258 0.9662
0.9392 8.4019 -1.2197 0.9664
0.8804 8.3437 -1.2104 0.9667
0.8285 8.3462 -1.2100 0.9667
0.6730 8.3536 -1.2091 0.9667
0.6213 8.3561 -1.2089 0.9667
0.5695 8.3586 -1.2087 0.9667
0.5177 8.3611 -1.2086 0.9667
0.4660 8.3636 -1.2085 0.9667
0.3635 8.3914 -1.2118 0.9666
0.3122 8.4108 -1.2143 0.9666
0.2608 8.4303 -1.2168 0.9665
0.1572 8.4695 -1.2221 0.9663
0.1050 8.4892 -1.2248 0.9663
0.0526 8.5090 -1.2276 0.9662
-0.0534 8.6298 -1.2451 0.9657
-0.2167 8.7607 -1.2643 0.9652
-0.3286 8.8504 -1.2777 0.9648
-0.3857 8.9044 -1.2859 0.9646
-0.3984 7.1498 -1.0331 0.9715
-0.4803 7.0491 -1.0193 0.9718
-0.5231 7.0356 -1.0178 0.9719
-0.6114 7.0441 -1.0201 0.9718
-0.9450 9.5192 -1.3801 0.9621
-1.0123 9.5932 -1.3917 0.9618
-1.2437 10.0038 -1.4544 0.9601
-1.3138 10.0596 -1.4636 0.9598
-1.5454 10.3354 -1.5077 0.9586
-1.7047 10.5106 -1.5362 0.9579
-1.7693 10.4976 -1.5359 0.9579
-1.8489 10.5706 -1.5482 0.9576
-1.9326 10.6604 -1.5631 0.9572
-2.0180 10.7519 -1.5783 0.9568
-2.1672 10.8081 -1.5904 0.9564
-2.3646 11.0799 -1.6345 0.9552
-2.4592 11.1839 -1.6521 0.9548
-2.6547 11.3987 -1.6885 0.9538
-2.8590 11.6233 -1.7269 0.9528
-2.9647 11.7395 -1.7469 0.9522
-3.1836 11.9801 -1.7884 0.9511
-3.4132 12.2325 -1.8322 0.9500
-3.6212 12.3842 -1.8615 0.9492
-3.8122 12.7444 -1.9192 0.9477
-4.2523 13.3110 -2.0160 0.9451
-4.3941 13.4668 -2.0437 0.9444
-4.6430 13.6548 -2.0808 0.9434
-4.7148 13.5897 -2.0753 0.9435
-4.9119 13.8798 -2.1242 0.9422
-5.1576 13.7572 -2.1197 0.9424
-5.6649 14.0434 -2.1847 0.9406
-6.0403 14.4560 -2.2603 0.9386
-6.5820 15.2204 -2.3924 0.9352
-6.6749 15.1769 -2.3920 0.9352
-6.7674 15.1327 -2.3916 0.9352
-6.8597 15.0879 -2.3912 0.9352
-6.9516 15.0426 -2.3908 0.9352
-7.3608 14.7153 -2.3738 0.9357
-7.4966 14.7580 -2.3881 0.9353
-7.8532 14.5566 -2.3862 0.9353
-7.8339 14.3084 -2.3534 0.9362
-8.0293 14.4525 -2.3853 0.9354
-8.1169 14.3996 -2.3848 0.9354
-7.8668 13.7563 -2.2863 0.9380
-8.3773 14.2375 -2.3833 0.9354
-8.4634 14.1824 -2.3828 0.9354
-8.6344 14.0704 -2.3817 0.9355
-8.1176 13.0467 -2.2169 0.9398
-8.7230 13.8284 -2.3588 0.9361
-8.8879 13.8985 -2.3801 0.9355
-9.0549 13.7811 -2.3790 0.9355
-8.7951 13.2070 -2.2892 0.9379
-9.3025 13.6011 -2.3773 0.9356
-9.3841 13.5401 -2.3767 0.9356
-7.6419 10.7401 -1.9017 0.9481
-9.6266 13.3538 -2.3750 0.9356
-9.7066 13.2907 -2.3744 0.9357
-9.9439 13.0984 -2.3726 0.9357
-10.0222 13.0333 -2.3720 0.9357
-10.1773 12.9016 -2.3708 0.9357
-10.2542 12.8351 -2.3701 0.9358
-10.3306 12.7680 -2.3695 0.9358
-10.4821 12.6324 -2.3682 0.9358
-10.5571 12.5640 -2.3676 0.9358
-10.6317 12.4950 -2.3669 0.9358
-10.7059 12.4256 -2.3663 0.9359
-10.7795 12.3557 -2.3656 0.9359
-10.9254 12.2146 -2.3643 0.9359
-11.2109 11.9265 -2.3615 0.9360
-10.2479 10.2479 -2.0909 0.9431
-10.3568 10.2295 -2.1002 0.9429
-10.6573 10.0178 -2.1102 0.9426
-10.7394 9.9706 -2.1142 0.9425
-11.7920 10.5474 -2.2825 0.9381
-10.7317 9.4802 -2.0659 0.9438
-12.2703 10.7049 -2.3493 0.9363
-12.3323 10.6254 -2.3485 0.9363
-12.3938 10.5456 -2.3478 0.9363
-12.4548 10.4654 -2.3470 0.9364
-12.5751 10.3038 -2.3455 0.9364
-12.6345 10.2226 -2.3447 0.9364
-12.7516 10.0589 -2.3432 0.9365
-12.8093 9.9765 -2.3424 0.9365
-12.9231 9.8108 -2.3408 0.9365
-12.9791 9.7274 -2.3401 0.9366
-13.0346 9.6437 -2.3393 0.9366
-14.0926 10.0273 -2.4953 0.9325
-14.2615 9.7541 -2.4927 0.9326
-14.3166 9.6624 -2.4919 0.9326
-14.3711 9.5703 -2.4910 0.9326
-14.4782 9.3853 -2.4893 0.9326
-14.7353 8.9174 -2.4849 0.9328
-14.8338 8.7282 -2.4831 0.9328
-14.9769 8.4423 -2.4804 0.9329
-15.0234 8.3465 -2.4795 0.9329
-15.0692 8.2504 -2.4786 0.9329
-15.1590 8.0575 -2.4768 0.9330
-15.2462 7.8636 -2.4749 0.9330
-15.2889 7.7663 -2.4740 0.9330
-15.3309 7.6687 -2.4731 0.9331
-15.4533 7.3747 -2.4703 0.9331
-15.4927 7.2763 -2.4694 0.9332
-15.5316 7.1777 -2.4685 0.9332
-15.5698 7.0788 -2.4675 0.9332
-15.6074 6.9797 -2.4666 0.9332
-15.6443 6.8804 -2.4657 0.9333
-15.6806 6.7810 -2.4647 0.9333
-15.7162 6.6813 -2.4638 0.9333
-15.7512 6.5815 -2.4629 0.9333
-15.8193 6.3813 -2.4610 0.9334
-15.8848 6.1804 -2.4591 0.9334
-15.9477 5.9789 -2.4572 0.9335
-15.9781 5.8779 -2.4562 0.9335
-16.0372 5.6753 -2.4543 0.9336
-16.0657 5.5738 -2.4534 0.9336
-16.1474 5.2687 -2.4505 0.9337
-16.2232 4.9624 -2.4476 0.9337
-16.2472 4.8600 -2.4466 0.9338
-16.3152 4.5524 -2.4437 0.9338
-16.3573 4.3468 -2.4418 0.9339
-16.3968 4.1409 -2.4399 0.9339
-16.4336 3.9346 -2.4379 0.9340
-16.4679 3.7281 -2.4360 0.9340
-16.5285 3.3143 -2.4321 0.9341
-16.5897 2.7961 -2.4272 0.9343
-16.6096 2.5886 -2.4252 0.9343
-16.6269 2.3811 -2.4233 0.9344
-16.6481 2.0696 -2.4203 0.9344
-16.6634 1.7583 -2.4174 0.9345
-16.6672 1.6546 -2.4164 0.9346
-16.6747 1.3434 -2.4135 0.9346
-16.6765 1.0326 -2.4106 0.9347
-16.6725 0.7222 -2.4076 0.9348
-16.6532 0.2060 -2.4028 0.9349
-16.6474 0.1029 -2.4018 0.9349
-15.8094 0.0000 -2.4008 0.9380
-15.7961 -0.1954 -2.3990 0.9381
-15.7885 -0.2929 -2.3980 0.9381
-15.7716 -0.4878 -2.3962 0.9382
-15.7622 -0.5851 -2.3953 0.9382
-15.7417 -0.7795 -2.3935 0.9382
-15.7306 -0.8765 -2.3925 0.9382
-15.7188 -0.9733 -2.3916 0.9383
-15.7065 -1.0701 -2.3907 0.9383
-15.6801 -1.2634 -2.3889 0.9383
-15.6661 -1.3598 -2.3880 0.9384
-15.6361 -1.5523 -2.3862 0.9384
-15.4933 -2.3166 -2.3790 0.9386
-15.4081 -2.6951 -2.3754 0.9387
-15.3854 -2.7892 -2.3745 0.9387
-15.3382 -2.9771 -2.3727 0.9387
-15.3138 -3.0707 -2.3718 0.9388
-15.2633 -3.2575 -2.3701 0.9388
-15.1834 -3.5362 -2.3674 0.9389
-15.0691 -3.9049 -2.3640 0.9390
-15.0392 -3.9965 -2.3631 0.9390
-15.0087 -4.0880 -2.3622 0.9390
-14.9777 -4.1792 -2.3614 0.9390
-14.8813 -4.4515 -2.3588 0.9391
-14.8145 -4.6319 -2.3571 0.9391
-14.7802 -4.7217 -2.3563 0.9392
-14.7454 -4.8113 -2.3554 0.9392
-14.7101 -4.9006 -2.3546 0.9392
-14.6379 -5.0786 -2.3529 0.9392
-14.5257 -5.3435 -2.3504 0.9393
-14.4483 -5.5189 -2.3487 0.9393
-14.4089 -5.6062 -2.3479 0.9394
-14.3689 -5.6932 -2.3471 0.9394
-14.3284 -5.7799 -2.3463 0.9394
-14.2874 -5.8664 -2.3455 0.9394
-14.2460 -5.9526 -2.3446 0.9394
-14.0750 -6.2944 -2.3414 0.9395
-13.9865 -6.4636 -2.3398 0.9396
-13.9415 -6.5478 -2.3390 0.9396
-13.8961 -6.6316 -2.3382 0.9396
-13.8501 -6.7152 -2.3374 0.9396
-13.8037 -6.7984 -2.3367 0.9396
-13.7093 -6.9639 -2.3351 0.9397
-13.6615 -7.0462 -2.3343 0.9397
-13.5643 -7.2099 -2.3328 0.9397
-13.5150 -7.2913 -2.3320 0.9398
-13.4652 -7.3722 -2.3312 0.9398
-13.4150 -7.4529 -2.3305 0.9398
-13.3643 -7.5333 -2.3297 0.9398
-13.3131 -7.6133 -2.3290 0.9398
-13.2615 -7.6930 -2.3282 0.9399
-13.1039 -7.9301 -2.3260 0.9399
-12.8874 -8.2414 -2.3230 0.9400
-12.8322 -8.3183 -2.3223 0.9400
-12.6069 -8.6225 -2.3194 0.9401
-12.5495 -8.6976 -2.3187 0.9401
-12.3747 -8.9208 -2.3166 0.9401
-12.1358 -9.2132 -2.3138 0.9402
-12.0750 -9.2853 -2.3132 0.9402
-12.0139 -9.3571 -2.3125 0.9402
-11.9523 -9.4285 -2.3118 0.9403
-11.8279 -9.5700 -2.3105 0.9403
-11.7019 -9.7100 -2.3092 0.9403
-11.5100 -9.9170 -2.3072 0.9404
-11.3146 -10.1204 -2.3053 0.9404
-11.1825 -10.2539 -2.3040 0.9405
-11.0488 -10.3858 -2.3028 0.9405
-10.9814 -10.4512 -2.3022 0.9405
-10.8455 -10.5806 -2.3009 0.9405
-10.7771 -10.6446 -2.3003 0.9406
-10.6391 -10.7715 -2.2991 0.9406
-10.4996 -10.8967 -2.2979 0.9406
-10.4294 -10.9586 -2.2974 0.9406
-10.2878 -11.0812 -2.2962 0.9407
-10.1449 -11.2020 -2.2951 0.9407
-10.0007 -11.3210 -2.2939 0.9407
-9.9281 -11.3799 -2.2934 0.9407
-9.8552 -11.4383 -2.2928 0.9407
-9.7819 -11.4963 -2.2923 0.9408
-9.7083 -11.5538 -2.2917 0.9408
-9.3356 -11.8347 -2.2891 0.9408
-9.2602 -11.8894 -2.2886 0.9408
-9.1844 -11.9439 -2.2880 0.9409
-9.1083 -11.9978 -2.2875 0.9409
-8.8784 -12.1567 -2.2860 0.9409
-8.8011 -12.2087 -2.2855 0.9409
-8.6458 -12.3114 -2.2846 0.9409
-8.5676 -12.3620 -2.2841 0.9410
-8.4893 -12.4122 -2.2836 0.9410
-8.4106 -12.4619 -2.2831 0.9410
-8.2525 -12.5599 -2.2822 0.9410
-8.1730 -12.6081 -2.2817 0.9410
-8.0133 -12.7033 -2.2808 0.9410
-7.9331 -12.7501 -2.2804 0.9411
-7.8525 -12.7965 -2.2800 0.9411
-7.7717 -12.8423 -2.2795 0.9411
-7.4462 -13.0209 -2.2778 0.9411
-7.3642 -13.0644 -2.2774 0.9411
-6.8673 -13.3147 -2.2751 0.9412
-6.7837 -13.3547 -2.2747 0.9412
-6.6159 -13.4332 -2.2739 0.9412
-6.5317 -13.4717 -2.2736 0.9412
-6.3625 -13.5472 -2.2729 0.9412
-6.2776 -13.5842 -2.2725 0.9413
-6.1073 -13.6567 -2.2718 0.9413
-5.7643 -13.7955 -2.2705 0.9413
-5.5051 -13.8945 -2.2696 0.9413
-5.1571 -14.0189 -2.2684 0.9414
-4.9820 -14.0782 -2.2678 0.9414
-4.8943 -14.1070 -2.2675 0.9414
-4.8064 -14.1353 -2.2673 0.9414
-4.7183 -14.1631 -2.2670 0.9414
-4.6301 -14.1904 -2.2668 0.9414
-4.5418 -14.2171 -2.2665 0.9414
-4.2759 -14.2944 -2.2658 0.9414
-4.1870 -14.3190 -2.2655 0.9414
-4.0979 -14.3432 -2.2653 0.9414
-4.0087 -14.3668 -2.2651 0.9414
-3.9194 -14.3900 -2.2649 0.9414
-3.8300 -14.4125 -2.2646 0.9414
-3.6508 -14.4562 -2.2642 0.9415
-3.2910 -14.5371 -2.2635 0.9415
-3.2007 -14.5560 -2.2633 0.9415
-2.8389 -14.6264 -2.2626 0.9415
-2.7482 -14.6427 -2.2624 0.9415
-2.4756 -14.6883 -2.2620 0.9415
-2.3846 -14.7025 -2.2619 0.9415
-2.2935 -14.7160 -2.2617 0.9415
-2.1111 -14.7417 -2.2615 0.9415
-1.9284 -14.7652 -2.2613 0.9415
-1.8369 -14.7762 -2.2612 0.9415
-1.4707 -14.8147 -2.2608 0.9415
-1.3790 -14.8229 -2.2607 0.9415
-1.2872 -14.8307 -2.2606 0.9415
-0.7361 -14.8660 -2.2603 0.9416
-0.4601 -14.8764 -2.2602 0.9416
-0.3681 -14.8787 -2.2602 0.9416
0.0000 -14.8830 -2.2601 0.9416
0.0921 -14.8827 -2.2601 0.9416
0.6441 -14.8698 -2.2602 0.9416
1.0118 -14.8505 -2.2604 0.9416
1.3790 -14.8226 -2.2607 0.9415
1.6539 -14.7961 -2.2609 0.9415
1.7454 -14.7862 -2.2610 0.9415
2.0197 -14.7532 -2.2613 0.9415
2.1110 -14.7412 -2.2614 0.9415
2.2022 -14.7285 -2.2615 0.9415
2.3845 -14.7019 -2.2618 0.9415
2.5665 -14.6730 -2.2620 0.9415
2.6573 -14.6577 -2.2622 0.9415
2.7481 -14.6419 -2.2623 0.9415
2.9294 -14.6088 -2.2626 0.9415
3.2908 -14.5363 -2.2633 0.9415
3.7402 -14.4337 -2.2643 0.9415
3.8297 -14.4115 -2.2645 0.9415
3.9192 -14.3890 -2.2647 0.9414
4.0085 -14.3658 -2.2649 0.9414
4.4530 -14.2423 -2.2661 0.9414
4.5414 -14.2160 -2.2663 0.9414
4.6298 -14.1892 -2.2666 0.9414
4.8060 -14.1341 -2.2671 0.9414
4.9816 -14.0769 -2.2676 0.9414
5.1566 -14.0176 -2.2682 0.9414
5.7637 -13.7941 -2.2703 0.9413
5.8498 -13.7601 -2.2706 0.9413
5.9356 -13.7256 -2.2709 0.9413
6.0212 -13.6906 -2.2712 0.9413
6.1067 -13.6551 -2.2716 0.9413
6.2770 -13.5826 -2.2722 0.9413
6.3618 -13.5456 -2.2726 0.9412
6.5309 -13.4701 -2.2733 0.9412
6.6991 -13.3926 -2.2740 0.9412
6.9499 -13.2725 -2.2752 0.9412
7.0330 -13.2315 -2.2755 0.9412
7.1986 -13.1481 -2.2763 0.9412
7.5270 -12.9752 -2.2779 0.9411
7.6897 -12.8859 -2.2788 0.9411
7.7707 -12.8405 -2.2792 0.9411
7.8515 -12.7946 -2.2796 0.9411
7.9319 -12.7482 -2.2801 0.9411
8.0122 -12.7014 -2.2805 0.9411
8.0921 -12.6541 -2.2810 0.9410
8.2513 -12.5580 -2.2819 0.9410
8.4094 -12.4600 -2.2828 0.9410
8.6444 -12.3095 -2.2842 0.9410
8.7997 -12.2068 -2.2852 0.9409
8.8770 -12.1547 -2.2857 0.9409
9.1829 -11.9419 -2.2877 0.9409
9.2586 -11.8875 -2.2882 0.9409
9.4092 -11.7774 -2.2892 0.9408
9.6328 -11.6089 -2.2908 0.9408
9.8534 -11.4363 -2.2924 0.9408
10.1431 -11.1999 -2.2946 0.9407
10.2147 -11.1397 -2.2952 0.9407
10.3569 -11.0180 -2.2963 0.9407
10.6370 -10.7694 -2.2987 0.9406
10.7062 -10.7062 -2.2993 0.9406
10.8434 -10.5785 -2.3005 0.9406
10.9115 -10.5140 -2.3011 0.9405
10.9792 -10.4491 -2.3017 0.9405
11.0466 -10.3838 -2.3023 0.9405
11.1802 -10.2519 -2.3035 0.9405
11.3123 -10.1183 -2.3048 0.9404
11.4429 -9.9832 -2.3061 0.9404
11.6359 -9.7773 -2.3080 0.9404
11.6995 -9.7079 -2.3087 0.9403
11.7626 -9.6381 -2.3093 0.9403
11.8878 -9.4974 -2.3106 0.9403
12.0113 -9.3550 -2.3120 0.9403
12.0724 -9.2833 -2.3127 0.9402
12.1935 -9.1386 -2.3140 0.9402
12.2534 -9.0658 -2.3147 0.9402
12.4306 -8.8448 -2.3168 0.9401
12.4889 -8.7704 -2.3175 0.9401
12.5467 -8.6956 -2.3182 0.9401
12.6041 -8.6205 -2.3189 0.9401
12.7175 -8.4692 -2.3203 0.9401
12.7736 -8.3929 -2.3210 0.9400
12.8292 -8.3164 -2.3218 0.9400
12.9392 -8.1622 -2.3232 0.9400
13.0474 -8.0066 -2.3247 0.9399
13.1008 -7.9282 -2.3254 0.9399
13.2063 -7.7706 -2.3269 0.9399
13.2584 -7.6913 -2.3276 0.9399
13.3099 -7.6115 -2.3284 0.9399
13.3611 -7.5315 -2.3291 0.9398
13.4619 -7.3704 -2.3307 0.9398
13.5117 -7.2895 -2.3314 0.9398
13.5610 -7.2081 -2.3322 0.9398
13.6581 -7.0445 -2.3337 0.9397
13.7060 -6.9622 -2.3345 0.9397
13.8466 -6.7135 -2.3369 0.9396
13.8926 -6.6300 -2.3376 0.9396
13.9380 -6.5461 -2.3384 0.9396
14.0274 -6.3775 -2.3400 0.9396
14.1149 -6.2078 -2.3416 0.9395
14.2423 -5.9510 -2.3440 0.9395
14.2838 -5.8649 -2.3448 0.9394
14.3247 -5.7784 -2.3457 0.9394
14.3652 -5.6917 -2.3465 0.9394
14.4835 -5.4299 -2.3489 0.9393
14.6341 -5.0772 -2.3523 0.9393
14.7415 -4.8100 -2.3548 0.9392
14.7763 -4.7204 -2.3556 0.9392
14.8105 -4.6306 -2.3565 0.9391
14.8442 -4.5406 -2.3573 0.9391
14.8774 -4.4503 -2.3582 0.9391
14.9100 -4.3598 -2.3590 0.9391
14.9736 -4.1780 -2.3607 0.9390
15.0046 -4.0869 -2.3616 0.9390
15.0351 -3.9954 -2.3625 0.9390
15.0650 -3.9038 -2.3633 0.9390
15.2846 -3.1634 -2.3703 0.9388
15.3340 -2.9763 -2.3721 0.9388
15.3578 -2.8825 -2.3729 0.9387
15.3811 -2.7885 -2.3738 0.9387
15.4038 -2.6943 -2.3747 0.9387
15.4685 -2.4108 -2.3774 0.9386
15.4890 -2.3160 -2.3783 0.9386
15.5088 -2.2210 -2.3792 0.9386
15.5281 -2.1258 -2.3801 0.9386
15.5649 -1.9350 -2.3819 0.9385
15.5825 -1.8395 -2.3828 0.9385
15.5995 -1.7437 -2.3837 0.9385
15.6159 -1.6478 -2.3846 0.9384
15.6317 -1.5518 -2.3855 0.9384
15.6616 -1.3594 -2.3873 0.9384
15.7021 -1.0698 -2.3900 0.9383
15.7372 -0.7793 -2.3928 0.9382
15.7478 -0.6821 -2.3937 0.9382
15.7577 -0.5850 -2.3946 0.9382
15.7671 -0.4877 -2.3955 0.9382
15.7758 -0.3904 -2.3964 0.9381
15.7916 -0.1954 -2.3983 0.9381
15.7985 -0.0977 -2.3992 0.9381
15.8049 -0.0000 -2.4001 0.9381
15.8204 0.2935 -2.4029 0.9380
15.8244 0.3915 -2.4038 0.9380
15.8277 0.4896 -2.4047 0.9379
15.8305 0.5876 -2.4057 0.9379
15.8326 0.6858 -2.4066 0.9379
15.8342 0.7840 -2.4075 0.9379
15.8351 0.8823 -2.4084 0.9378
15.8354 0.9805 -2.4094 0.9378
15.8328 1.2756 -2.4121 0.9378
15.8280 1.4725 -2.4140 0.9377
15.8207 1.6694 -2.4159 0.9377
15.8110 1.8664 -2.4177 0.9376
15.8052 1.9649 -2.4186 0.9376
15.7842 2.2604 -2.4214 0.9375
15.7671 2.4573 -2.4233 0.9375
15.7476 2.6542 -2.4251 0.9374
15.7369 2.7525 -2.4261 0.9374
15.7256 2.8509 -2.4270 0.9374
15.7011 3.0475 -2.4289 0.9373
15.6447 3.4402 -2.4326 0.9372
15.6291 3.5382 -2.4335 0.9372
15.5785 3.8319 -2.4363 0.9372
15.5604 3.9296 -2.4372 0.9371
15.5024 4.2224 -2.4399 0.9371
15.4818 4.3198 -2.4409 0.9370
15.4388 4.5144 -2.4427 0.9370
15.3933 4.7085 -2.4445 0.9369
15.3696 4.8054 -2.4454 0.9369
15.3204 4.9988 -2.4473 0.9369
15.2949 5.0954 -2.4482 0.9369
15.2688 5.1918 -2.4491 0.9368
15.2421 5.2881 -2.4500 0.9368
15.2147 5.3842 -2.4509 0.9368
15.1867 5.4803 -2.4518 0.9368
15.1289 5.6719 -2.4536 0.9367
15.0991 5.7674 -2.4545 0.9367
15.0687 5.8628 -2.4554 0.9367
15.0376 5.9581 -2.4563 0.9367
14.9408 6.2429 -2.4590 0.9366
14.9073 6.3374 -2.4599 0.9366
14.8386 6.5261 -2.4617 0.9365
14.8032 6.6201 -2.4626 0.9365
14.7673 6.7139 -2.4634 0.9365
14.7308 6.8076 -2.4643 0.9365
14.6937 6.9010 -2.4652 0.9364
14.5787 7.1800 -2.4678 0.9364
14.5392 7.2726 -2.4687 0.9363
14.4990 7.3650 -2.4696 0.9363
14.4583 7.4572 -2.4705 0.9363
14.3325 7.7322 -2.4731 0.9362
14.2457 7.9144 -2.4748 0.9362
14.2014 8.0051 -2.4756 0.9362
14.1565 8.0956 -2.4765 0.9362
14.0649 8.2757 -2.4782 0.9361
14.0183 8.3654 -2.4790 0.9361
13.9232 8.5439 -2.4807 0.9360
13.8748 8.6328 -2.4816 0.9360
13.8258 8.7214 -2.4824 0.9360
13.7762 8.8097 -2.4832 0.9360
13.7261 8.8977 -2.4841 0.9360
13.6240 9.0728 -2.4857 0.9359
13.5197 9.2467 -2.4874 0.9359
13.3589 9.5053 -2.4898 0.9358
13.1931 9.7609 -2.4922 0.9358
13.1366 9.8455 -2.4930 0.9357
12.9641 10.0971 -2.4954 0.9357
12.8463 10.2631 -2.4970 0.9356
12.7263 10.4277 -2.4985 0.9356
12.6655 10.5094 -2.4993 0.9356
12.6041 10.5908 -2.5000 0.9356
12.5422 10.6718 -2.5008 0.9355
11.5690 10.2197 -2.3442 0.9395
11.4485 10.3682 -2.3456 0.9394
11.3876 10.4419 -2.3463 0.9394
11.3261 10.5153 -2.3470 0.9394
11.0755 10.8048 -2.3497 0.9393
11.0116 10.8762 -2.3504 0.9393
10.8824 11.0178 -2.3517 0.9393
10.7514 11.1579 -2.3530 0.9392
10.6185 11.2962 -2.3543 0.9392
10.4837 11.4330 -2.3556 0.9392
10.4156 11.5007 -2.3563 0.9392
10.3471 11.5680 -2.3569 0.9391
10.2787 11.6357 -2.3577 0.9391
10.2092 11.7020 -2.3583 0.9391
10.1392 11.7679 -2.3589 0.9391
9.9979 11.8984 -2.3601 0.9391
9.9266 11.9629 -2.3607 0.9390
9.5645 12.2802 -2.3638 0.9390
9.4908 12.3423 -2.3644 0.9390
9.3421 12.4649 -2.3655 0.9389
9.1917 12.5856 -2.3667 0.9389
9.1159 12.6453 -2.3673 0.9389
8.8860 12.8214 -2.3690 0.9388
8.6526 12.9930 -2.3706 0.9388
8.5741 13.0493 -2.3711 0.9388
8.4951 13.1050 -2.3717 0.9388
8.0948 13.3760 -2.3743 0.9387
6.6249 11.7527 -2.0488 0.9469
6.4673 11.6408 -2.0223 0.9475
6.4088 11.7054 -2.0266 0.9474
6.3500 11.7703 -2.0310 0.9473
6.2911 11.8358 -2.0355 0.9472
5.3979 10.6265 -1.8100 0.9529
5.2464 10.4884 -1.7809 0.9537
5.1726 10.5027 -1.7779 0.9537
5.1202 10.5606 -1.7823 0.9536
5.0676 10.6187 -1.7868 0.9535
4.9615 10.7361 -1.7961 0.9533
4.9081 10.7953 -1.8008 0.9532
4.0226 9.4623 -1.5614 0.9593
3.9279 9.5662 -1.5704 0.9590
3.8320 9.6714 -1.5798 0.9588
3.7992 9.7645 -1.5911 0.9585
3.7503 9.8181 -1.5960 0.9584
3.7011 9.8721 -1.6011 0.9582
3.6516 9.9264 -1.6062 0.9581
3.6018 9.9810 -1.6114 0.9580
3.5516 10.0361 -1.6167 0.9578
3.5011 10.0914 -1.6221 0.9577
3.3992 10.2033 -1.6332 0.9574
3.1909 10.4317 -1.6566 0.9568
3.0844 10.5485 -1.6690 0.9565
3.0306 10.6075 -1.6753 0.9563
2.9764 10.6670 -1.6818 0.9562
2.9217 10.7269 -1.6883 0.9560
2.8666 10.7873 -1.6950 0.9558
2.6987 10.9715 -1.7158 0.9553
2.6418 11.0340 -1.7230 0.9551
2.2291 9.5713 -1.4924 0.9610
1.9871 9.0367 -1.4051 0.9633
1.8032 8.9925 -1.3928 0.9636
1.7331 8.9289 -1.3812 0.9639
1.6588 8.8380 -1.3656 0.9643
1.3257 8.5064 -1.3074 0.9658
1.2696 8.4912 -1.3038 0.9659
1.2138 8.4760 -1.3003 0.9660
1.1031 8.4458 -1.2935 0.9661
0.9391 8.4012 -1.2837 0.9664
0.8285 8.3456 -1.2736 0.9666
0.6846 8.4975 -1.2946 0.9661
0.6326 8.5083 -1.2956 0.9661
0.5282 8.5300 -1.2978 0.9660
0.4736 8.5004 -1.2929 0.9661
0.2655 8.5846 -1.3043 0.9658
0.1597 8.6066 -1.3072 0.9658
0.1054 8.5226 -1.2943 0.9661
0.0526 8.5085 -1.2921 0.9662
0.0000 8.5283 -1.2951 0.9661
-0.2167 8.7601 -1.3307 0.9652
-0.4440 8.9679 -1.3635 0.9643
-0.3983 7.1484 -1.0872 0.9714
-0.4802 7.0483 -1.0728 0.9718
-0.5666 7.0328 -1.0715 0.9719
-0.6113 7.0433 -1.0736 0.9718
-0.9449 9.5185 -1.4526 0.9620
-1.0708 9.5799 -1.4639 0.9618
-1.3108 10.0368 -1.5371 0.9599
-1.3773 10.0606 -1.5420 0.9597
-1.4528 10.1452 -1.5564 0.9594
-1.6069 10.3104 -1.5846 0.9587
-1.7046 10.5097 -1.6168 0.9578
-1.8701 10.6916 -1.6483 0.9570
-1.9553 10.7853 -1.6645 0.9566
-2.1081 10.8611 -1.6801 0.9562
-2.1671 10.8075 -1.6739 0.9564
-2.3644 11.0788 -1.7203 0.9552
-2.5557 11.2890 -1.7577 0.9542
-2.6545 11.3976 -1.7772 0.9538
-2.7554 11.5086 -1.7971 0.9532
-2.9644 11.7383 -1.8385 0.9522
-3.2967 12.1035 -1.9050 0.9505
-4.1139 13.1579 -2.0935 0.9458
-4.2518 13.3095 -2.1218 0.9450
-4.6428 13.6541 -2.1901 0.9433
-4.7146 13.5889 -2.1843 0.9435
-4.9113 13.8781 -2.2356 0.9422
-5.0118 13.8885 -2.2422 0.9420
-5.2295 13.6909 -2.2256 0.9424
-5.4858 13.8454 -2.2616 0.9415
-5.6642 14.0415 -2.2993 0.9406
-5.8486 14.2442 -2.3384 0.9396
-6.0395 14.4540 -2.3789 0.9386
-6.1445 14.4535 -2.3850 0.9384
-6.4960 14.2879 -2.3835 0.9385
-6.5831 14.2451 -2.3831 0.9385
-6.6700 14.2018 -2.3827 0.9385
-6.7565 14.1578 -2.3823 0.9385
-6.9287 14.0682 -2.3814 0.9385
-7.0143 14.0226 -2.3810 0.9385
-7.3536 13.8347 -2.3793 0.9386
-7.4376 13.7863 -2.3788 0.9386
-7.5213 13.7374 -2.3784 0.9386
-7.6876 13.6381 -2.3774 0.9386
-7.7703 13.5876 -2.3770 0.9386
-7.8526 13.5365 -2.3765 0.9386
-8.0161 13.4329 -2.3755 0.9387
-8.0974 13.3803 -2.3750 0.9387
-8.1783 13.3272 -2.3745 0.9387
-8.3389 13.2194 -2.3735 0.9387
-8.4187 13.1648 -2.3730 0.9387
-8.4981 13.1096 -2.3725 0.9387
-8.8119 12.8839 -2.3704 0.9388
-7.6127 10.6990 -1.9941 0.9483
-9.1954 12.5907 -2.3676 0.9389
-9.2708 12.5306 -2.3671 0.9389
-9.3459 12.4701 -2.3665 0.9389
-9.5686 12.2855 -2.3648 0.9389
-9.6420 12.2231 -2.3642 0.9390
-9.7150 12.1602 -2.3636 0.9390
-9.7876 12.0968 -2.3630 0.9390
-10.0026 11.9041 -2.3612 0.9390
-10.1438 11.7733 -2.3600 0.9391
-10.2832 11.6408 -2.3587 0.9391
-10.3522 11.5738 -2.3581 0.9391
-10.1720 10.5567 -2.2262 0.9424
-10.2251 10.4812 -2.2236 0.9425
-10.2212 10.3484 -2.2088 0.9429
-10.2767 10.2767 -2.2070 0.9429
-10.3765 10.1229 -2.2014 0.9430
-10.5712 9.9369 -2.2032 0.9430
-10.7313 9.9631 -2.2237 0.9425
-10.8289 9.9298 -2.2312 0.9423
-11.4410 10.3615 -2.3440 0.9395
-11.5116 10.2965 -2.3454 0.9394
-11.8065 9.9207 -2.3419 0.9395
-11.8640 9.8445 -2.3411 0.9395
-11.9775 9.6910 -2.3397 0.9396
-12.0334 9.6137 -2.3390 0.9396
-12.0889 9.5362 -2.3382 0.9396
-12.1982 9.3800 -2.3368 0.9396
-12.2521 9.3015 -2.3360 0.9397
-12.3055 9.2226 -2.3353 0.9397
-13.3621 9.5076 -2.4904 0.9358
-13.6273 9.0751 -2.4863 0.9359
-13.6787 8.9876 -2.4855 0.9359
-13.7294 8.8999 -2.4847 0.9359
-13.7796 8.8119 -2.4839 0.9360
-14.0218 8.3676 -2.4797 0.9361
-14.1601 8.0977 -2.4771 0.9361
-14.2493 7.9165 -2.4754 0.9362
-14.3362 7.7342 -2.4737 0.9362
-14.3788 7.6428 -2.4728 0.9362
-14.4207 7.5511 -2.4720 0.9363
-14.4621 7.4591 -2.4711 0.9363
-14.5028 7.3669 -2.4702 0.9363
-14.5429 7.2746 -2.4694 0.9363
-14.6598 6.9961 -2.4667 0.9364
-14.6976 6.9028 -2.4659 0.9364
-14.7712 6.7157 -2.4641 0.9365
-14.8425 6.5279 -2.4623 0.9365
-14.8772 6.4336 -2.4614 0.9365
-14.9113 6.3392 -2.4606 0.9365
-15.0728 5.8645 -2.4561 0.9367
-15.1623 5.5777 -2.4534 0.9367
-15.1909 5.4818 -2.4525 0.9367
-15.2188 5.3858 -2.4516 0.9368
-15.2462 5.2896 -2.4507 0.9368
-15.3247 5.0003 -2.4479 0.9369
-15.3496 4.9036 -2.4470 0.9369
-15.3739 4.8067 -2.4461 0.9369
-15.3976 4.7098 -2.4452 0.9369
-15.4206 4.6128 -2.4443 0.9370
-15.4431 4.5156 -2.4434 0.9370
-15.5267 4.1261 -2.4397 0.9371
-15.5460 4.0284 -2.4388 0.9371
-15.5829 3.8330 -2.4369 0.9371
-15.6004 3.7351 -2.4360 0.9372
-15.6492 3.4411 -2.4332 0.9372
-15.6642 3.3430 -2.4323 0.9373
-15.6786 3.2448 -2.4314 0.9373
-15.6924 3.1466 -2.4305 0.9373
-15.7181 2.9500 -2.4286 0.9373
-15.7300 2.8517 -2.4277 0.9374
-15.7716 2.4580 -2.4240 0.9375
-15.7805 2.3595 -2.4231 0.9375
-15.8033 2.0640 -2.4203 0.9376
-15.8097 1.9654 -2.4193 0.9376
-15.8207 1.7684 -2.4175 0.9376
-15.8292 1.5714 -2.4156 0.9377
-15.8324 1.4730 -2.4147 0.9377
-15.8373 1.2760 -2.4128 0.9377
-15.8388 1.1775 -2.4119 0.9378
-15.8400 0.9808 -2.4101 0.9378
-15.8397 0.8825 -2.4091 0.9378
-15.8322 0.4897 -2.4054 0.9379
-15.8288 0.3917 -2.4045 0.9379
-15.8249 0.2936 -2.4036 0.9380
-15.8152 0.0978 -2.4017 0.9380
-15.0432 -0.1861 -2.3990 0.9409
-15.0363 -0.2790 -2.3982 0.9409
-15.0288 -0.3718 -2.3973 0.9409
-15.0121 -0.5573 -2.3955 0.9410
-14.9827 -0.8348 -2.3929 0.9410
-14.9604 -1.0193 -2.3912 0.9411
-14.9358 -1.2034 -2.3894 0.9411
-14.9090 -1.3870 -2.3877 0.9412
-14.8947 -1.4787 -2.3868 0.9412
-14.8321 -1.8439 -2.3834 0.9413
-14.7415 -2.2975 -2.3791 0.9414
-14.7218 -2.3877 -2.3783 0.9414
-14.6806 -2.5678 -2.3766 0.9414
-14.5919 -2.9260 -2.3732 0.9415
-14.5442 -3.1040 -2.3715 0.9415
-14.5196 -3.1928 -2.3707 0.9416
-14.4688 -3.3697 -2.3690 0.9416
-14.4426 -3.4579 -2.3682 0.9416
-14.3887 -3.6337 -2.3665 0.9417
-14.3609 -3.7213 -2.3657 0.9417
-14.3326 -3.8088 -2.3649 0.9417
-14.2745 -3.9830 -2.3632 0.9417
-14.2446 -4.0698 -2.3624 0.9418
-14.1834 -4.2427 -2.3608 0.9418
-14.0214 -4.6712 -2.3567 0.9419
-13.9875 -4.7562 -2.3559 0.9419
-13.9531 -4.8409 -2.3551 0.9419
-13.9181 -4.9255 -2.3543 0.9420
-13.7735 -5.2611 -2.3512 0.9420
-13.7361 -5.3444 -2.3504 0.9420
-13.6982 -5.4274 -2.3496 0.9421
-13.5015 -5.8387 -2.3457 0.9422
-13.3778 -6.0822 -2.3434 0.9422
-13.3356 -6.1628 -2.3426 0.9422
-13.2929 -6.2431 -2.3419 0.9422
-13.2061 -6.4029 -2.3404 0.9423
-13.0726 -6.6404 -2.3381 0.9423
-12.9348 -6.8753 -2.3359 0.9424
-12.8880 -6.9530 -2.3352 0.9424
-12.8407 -7.0304 -2.3344 0.9424
-12.7930 -7.1074 -2.3337 0.9424
-12.7449 -7.1841 -2.3330 0.9425
-12.6472 -7.3367 -2.3316 0.9425
-12.5977 -7.4125 -2.3308 0.9425
-12.5478 -7.4880 -2.3301 0.9425
-12.4467 -7.6379 -2.3287 0.9426
-12.3955 -7.7124 -2.3280 0.9426
-12.3438 -7.7867 -2.3273 0.9426
-12.2918 -7.8604 -2.3266 0.9426
-12.1330 -8.0799 -2.3245 0.9427
-12.0251 -8.2245 -2.3232 0.9427
-11.9155 -8.3678 -2.3218 0.9427
-11.8601 -8.4388 -2.3211 0.9427
-11.6914 -8.6500 -2.3191 0.9428
-11.6344 -8.7197 -2.3185 0.9428
-11.5770 -8.7889 -2.3178 0.9428
-11.4024 -8.9947 -2.3159 0.9429
-11.2840 -9.1300 -2.3146 0.9429
-11.0428 -9.3960 -2.3121 0.9430
-10.9198 -9.5268 -2.3109 0.9430
-10.6696 -9.7837 -2.3084 0.9430
-10.6062 -9.8470 -2.3078 0.9431
-10.4782 -9.9722 -2.3067 0.9431
-10.1521 -10.2785 -2.3038 0.9432
-10.0859 -10.3386 -2.3032 0.9432
-9.8851 -10.5161 -2.3015 0.9432
-9.8176 -10.5746 -2.3010 0.9432
-9.7497 -10.6326 -2.3004 0.9432
-9.4748 -10.8603 -2.2983 0.9433
-9.4053 -10.9162 -2.2977 0.9433
-9.2654 -11.0267 -2.2967 0.9433
-9.1949 -11.0813 -2.2962 0.9433
-9.1242 -11.1354 -2.2957 0.9434
-9.0531 -11.1892 -2.2951 0.9434
-8.9818 -11.2424 -2.2946 0.9434
-8.7660 -11.3998 -2.2932 0.9434
-8.6207 -11.5024 -2.2922 0.9434
-8.2525 -11.7513 -2.2898 0.9435
-8.1780 -11.7998 -2.2894 0.9435
-8.1032 -11.8478 -2.2889 0.9435
-7.9530 -11.9424 -2.2880 0.9435
-7.8774 -11.9891 -2.2876 0.9435
-7.7256 -12.0810 -2.2867 0.9436
-7.4190 -12.2594 -2.2850 0.9436
-7.3417 -12.3028 -2.2846 0.9436
-7.2642 -12.3458 -2.2842 0.9436
-7.0302 -12.4719 -2.2830 0.9437
-6.9517 -12.5129 -2.2826 0.9437
-6.8731 -12.5536 -2.2822 0.9437
-6.7942 -12.5938 -2.2819 0.9437
-6.7151 -12.6335 -2.2815 0.9437
-6.3162 -12.8248 -2.2797 0.9437
-5.9123 -13.0043 -2.2780 0.9438
-5.8310 -13.0387 -2.2776 0.9438
-5.7494 -13.0727 -2.2773 0.9438
-5.6677 -13.1062 -2.2770 0.9438
-5.5857 -13.1391 -2.2767 0.9438
-5.5036 -13.1716 -2.2764 0.9438
-5.4214 -13.2040 -2.2761 0.9438
-5.2562 -13.2662 -2.2755 0.9438
-5.1734 -13.2968 -2.2752 0.9438
-5.0905 -13.3269 -2.2749 0.9439
-5.0073 -13.3564 -2.2746 0.9439
-4.8406 -13.4141 -2.2741 0.9439
-4.7570 -13.4422 -2.2738 0.9439
-4.5053 -13.5236 -2.2730 0.9439
-4.3367 -13.5753 -2.2725 0.9439
-4.2522 -13.6005 -2.2723 0.9439
-4.1676 -13.6251 -2.2721 0.9439
-4.0829 -13.6492 -2.2718 0.9439
-3.9980 -13.6729 -2.2716 0.9439
-3.7426 -13.7408 -2.2710 0.9439
-3.6572 -13.7624 -2.2708 0.9440
-3.5717 -13.7835 -2.2706 0.9440
-3.4861 -13.8042 -2.2704 0.9440
-3.1426 -13.8816 -2.2696 0.9440
-2.8838 -13.9345 -2.2691 0.9440
-2.4509 -14.0124 -2.2684 0.9440
-2.3641 -14.0264 -2.2682 0.9440
-2.2771 -14.0400 -2.2681 0.9440
-2.1902 -14.0530 -2.2680 0.9440
-2.1031 -14.0655 -2.2679 0.9440
-1.8415 -14.1001 -2.2675 0.9440
-1.7542 -14.1106 -2.2674 0.9440
-1.5794 -14.1300 -2.2673 0.9440
-1.4919 -14.1390 -2.2672 0.9440
-1.3169 -14.1554 -2.2670 0.9440
-1.2293 -14.1628 -2.2669 0.9440
-1.1416 -14.1697 -2.2669 0.9440
-1.0539 -14.1761 -2.2668 0.9440
-0.9662 -14.1820 -2.2668 0.9440
-0.8785 -14.1873 -2.2667 0.9440
-0.6151 -14.2004 -2.2666 0.9441
-0.5273 -14.2037 -2.2665 0.9441
-0.4394 -14.2066 -2.2665 0.9441
-0.3515 -14.2089 -2.2665 0.9441
-0.2636 -14.2106 -2.2665 0.9441
-0.1758 -14.2119 -2.2665 0.9441
0.2637 -14.2106 -2.2665 0.9441
0.4395 -14.2064 -2.2665 0.9441
0.5273 -14.2036 -2.2665 0.9441
0.6151 -14.2002 -2.2665 0.9441
0.7030 -14.1964 -2.2666 0.9441
0.7907 -14.1921 -2.2666 0.9441
0.8785 -14.1871 -2.2667 0.9441
0.9662 -14.1817 -2.2667 0.9440
1.2293 -14.1624 -2.2669 0.9440
1.4919 -14.1386 -2.2671 0.9440
1.6668 -14.1201 -2.2673 0.9440
1.8415 -14.0996 -2.2675 0.9440
1.9287 -14.0886 -2.2676 0.9440
2.1901 -14.0525 -2.2679 0.9440
2.2771 -14.0394 -2.2680 0.9440
2.4508 -14.0117 -2.2683 0.9440
2.7108 -13.9665 -2.2687 0.9440
2.7974 -13.9504 -2.2689 0.9440
2.8837 -13.9337 -2.2690 0.9440
2.9701 -13.9166 -2.2692 0.9440
3.0563 -13.8990 -2.2693 0.9440
3.1424 -13.8809 -2.2695 0.9440
3.3144 -13.8431 -2.2699 0.9440
3.4002 -13.8234 -2.2700 0.9440
3.5715 -13.7826 -2.2704 0.9440
3.6570 -13.7615 -2.2706 0.9440
3.7424 -13.7398 -2.2708 0.9440
3.9127 -13.6950 -2.2712 0.9439
4.0826 -13.6482 -2.2717 0.9439
4.2520 -13.5994 -2.2721 0.9439
4.5050 -13.5225 -2.2729 0.9439
4.5890 -13.4958 -2.2731 0.9439
4.7566 -13.4411 -2.2736 0.9439
4.9236 -13.3843 -2.2741 0.9439
5.0069 -13.3552 -2.2744 0.9439
5.0901 -13.3256 -2.2747 0.9439
5.1730 -13.2955 -2.2750 0.9439
5.2558 -13.2650 -2.2753 0.9438
5.3384 -13.2339 -2.2756 0.9438
5.5031 -13.1703 -2.2761 0.9438
5.5852 -13.1378 -2.2765 0.9438
5.6671 -13.1048 -2.2768 0.9438
5.7488 -13.0713 -2.2771 0.9438
5.8304 -13.0373 -2.2774 0.9438
5.9929 -12.9679 -2.2780 0.9438
6.1546 -12.8966 -2.2787 0.9438
6.3155 -12.8233 -2.2794 0.9437
6.3957 -12.7860 -2.2798 0.9437
6.4757 -12.7482 -2.2801 0.9437
6.5554 -12.7099 -2.2805 0.9437
6.7143 -12.6319 -2.2812 0.9437
6.7934 -12.5922 -2.2816 0.9437
6.9509 -12.5114 -2.2823 0.9437
7.1075 -12.4287 -2.2831 0.9437
7.1855 -12.3866 -2.2835 0.9436
7.2632 -12.3441 -2.2839 0.9436
7.4950 -12.2137 -2.2851 0.9436
7.6483 -12.1246 -2.2860 0.9436
7.8764 -11.9874 -2.2873 0.9436
7.9519 -11.9407 -2.2877 0.9435
8.1768 -11.7980 -2.2890 0.9435
8.2513 -11.7496 -2.2895 0.9435
8.3993 -11.6514 -2.2904 0.9435
8.4729 -11.6015 -2.2909 0.9435
8.5463 -11.5513 -2.2914 0.9435
8.6194 -11.5006 -2.2918 0.9434
8.6921 -11.4495 -2.2923 0.9434
8.9087 -11.2935 -2.2938 0.9434
8.9804 -11.2406 -2.2943 0.9434
9.0517 -11.1873 -2.2948 0.9434
9.1934 -11.0794 -2.2958 0.9434
9.2638 -11.0248 -2.2963 0.9433
9.3340 -10.9698 -2.2968 0.9433
9.4732 -10.8584 -2.2979 0.9433
9.8158 -10.5727 -2.3006 0.9432
9.9506 -10.4555 -2.3017 0.9432
10.0175 -10.3963 -2.3022 0.9432
10.1503 -10.2766 -2.3033 0.9432
10.3469 -10.0941 -2.3051 0.9431
10.4117 -10.0324 -2.3056 0.9431
10.4763 -9.9704 -2.3062 0.9431
10.6042 -9.8451 -2.3074 0.9431
10.6676 -9.7818 -2.3080 0.9431
10.7307 -9.7182 -2.3086 0.9430
11.1014 -9.3282 -2.3123 0.9430
11.1619 -9.2619 -2.3129 0.9429
11.2220 -9.1952 -2.3135 0.9429
11.2817 -9.1281 -2.3141 0.9429
11.4000 -8.9928 -2.3154 0.9429
11.5746 -8.7871 -2.3173 0.9428
11.6320 -8.7178 -2.3180 0.9428
11.7456 -8.5781 -2.3193 0.9428
11.8017 -8.5078 -2.3200 0.9428
11.8576 -8.4371 -2.3206 0.9428
11.9679 -8.2945 -2.3220 0.9427
12.0766 -8.1506 -2.3233 0.9427
12.1837 -8.0053 -2.3247 0.9427
12.2890 -7.8587 -2.3261 0.9426
12.3411 -7.7849 -2.3268 0.9426
12.3927 -7.7107 -2.3275 0.9426
12.4439 -7.6362 -2.3282 0.9426
12.5450 -7.4863 -2.3296 0.9425
12.5949 -7.4108 -2.3303 0.9425
12.6444 -7.3350 -2.3310 0.9425
12.6934 -7.2589 -2.3317 0.9425
12.8850 -6.9514 -2.3346 0.9424
12.9318 -6.8737 -2.3354 0.9424
13.0240 -6.7174 -2.3368 0.9424
13.0695 -6.6389 -2.3376 0.9424
13.1145 -6.5600 -2.3383 0.9423
13.2030 -6.4014 -2.3398 0.9423
13.2897 -6.2416 -2.3413 0.9423
13.3745 -6.0807 -2.3428 0.9422
13.4982 -5.8373 -2.3451 0.9422
13.5385 -5.7556 -2.3459 0.9422
13.5783 -5.6736 -2.3467 0.9421
13.6565 -5.5088 -2.3482 0.9421
13.7327 -5.3431 -2.3498 0.9421
13.7701 -5.2598 -2.3506 0.9420
13.8792 -5.0085 -2.3529 0.9420
13.9496 -4.8397 -2.3545 0.9419
13.9840 -4.7550 -2.3553 0.9419
14.0179 -4.6700 -2.3561 0.9419
14.0513 -4.5848 -2.3569 0.9419
14.1798 -4.2416 -2.3602 0.9418
14.2107 -4.1553 -2.3610 0.9418
14.2410 -4.0687 -2.3618 0.9418
14.2708 -3.9820 -2.3626 0.9418
14.3289 -3.8078 -2.3642 0.9417
14.3572 -3.7204 -2.3651 0.9417
14.4122 -3.5450 -2.3667 0.9417
14.5158 -3.1919 -2.3700 0.9416
14.5645 -3.0143 -2.3717 0.9415
14.5880 -2.9252 -2.3726 0.9415
14.6553 -2.6569 -2.3751 0.9415
14.6767 -2.5671 -2.3759 0.9414
14.7179 -2.3871 -2.3776 0.9414
14.7376 -2.2969 -2.3785 0.9414
14.7755 -2.1159 -2.3802 0.9413
14.7936 -2.0253 -2.3810 0.9413
14.8446 -1.7523 -2.3836 0.9413
14.8606 -1.6611 -2.3845 0.9412
14.9050 -1.3866 -2.3871 0.9412
14.9186 -1.2949 -2.3879 0.9411
14.9444 -1.1111 -2.3897 0.9411
14.9564 -1.0190 -2.3905 0.9411
14.9891 -0.7422 -2.3931 0.9410
